# .PCD v0.7 - Point Cloud Data file format
VERSION 0.7
FIELDS x y z intensity t qx qy qz qw
SIZE 4 4 4 4 8 4 4 4 4
TYPE F F F F F F F F F
COUNT 1 1 1 1 1 1 1 1 1
WIDTH 275
HEIGHT 1
VIEWPOINT 0 0 0 1 0 0 0
POINTS 275
DATA ascii
115.318077087402344 52.2005348205566406 7.69542646408081055 53 1644825250.64089942 -0.382787764072418213 -0.923757255077362061 -0.00744867231696844101 -0.00951894279569387436
112.036285400390625 56.1822624206542969 7.6755518913269043 54 1644825252.44307923 -0.415510267019271851 -0.908320963382720947 0.0213014017790555954 -0.043017607182264328
108.584968566894531 60.0306472778320312 7.69991064071655273 55 1644825254.24186563 -0.412838250398635864 -0.910773575305938721 -0.00613458035513758659 -0.00429302360862493515
104.861274719238281 63.7763175964355469 7.67669057846069336 56 1644825255.74227118 -0.362306088209152222 -0.932045519351959229 0.00384811311960220337 -0.00325735867954790592
98.68341064453125 69.174591064453125 7.69008731842041016 57 1644825257.74247742 -0.361362218856811523 -0.932236850261688232 -0.0141006782650947571 -0.0123671824112534523
93.8946990966796875 73.8789215087890625 7.74632501602172852 58 1644825259.74473071 -0.376673489809036255 -0.926343321800231934 -0.00020665275224018842 0.0022605417761951685
91.0426406860351562 75.2788314819335938 7.76602792739868164 59 1644825260.94208503 -0.185369879007339478 -0.982662558555603027 0.000311415351461619139 -0.00349856773391366005
89.2257614135742188 75.1893997192382812 7.76747417449951172 60 1644825261.6422348 -0.00684377085417509079 -0.99995720386505127 0.00599270127713680267 -0.00169731420464813709
87.3595123291015625 74.31097412109375 7.78963422775268555 61 1644825262.3443718 0.194041058421134949 -0.980978429317474365 0.00535095017403364182 -0.000884442124515771866
85.6332778930664062 72.602630615234375 7.74638700485229492 62 1644825263.04410434 0.364841192960739136 -0.930958747863769531 -0.000860947126056998968 -0.0143511146306991577
82.23736572265625 68.5198287963867188 7.6799769401550293 63 1644825264.64403558 0.393645226955413818 -0.918959200382232666 -0.023606523871421814 0.000451720959972590208
78.400390625 64.9136123657226562 7.70811891555786133 64 1644825266.14371848 0.369952619075775146 -0.928872466087341309 -0.0157368574291467667 0.00912765972316265106
74.896728515625 61.0713043212890625 7.68433380126953125 65 1644825267.54316878 0.425499796867370605 -0.904636979103088379 -0.0239832978695631027 -0.00257853115908801556
72.8949966430664062 56.793121337890625 7.63824748992919922 66 1644825268.94352508 0.589556515216827393 -0.807557582855224609 -0.0128078972920775414 -0.0104813780635595322
72.92694091796875 53.3114089965820312 7.56392431259155273 67 1644825270.04125929 0.722275376319885254 -0.691426694393157959 -0.0139085343107581139 -0.00734528945758938789
72.714996337890625 47.9792861938476562 7.45628261566162109 68 1644825271.53887916 0.650016844272613525 -0.759583950042724609 -0.0075562475249171257 -0.0212891995906829834
70.4380111694335938 43.2515525817871094 7.31999778747558594 69 1644825273.03954625 0.479154020547866821 -0.877290070056915283 -0.0268301721662282944 -0.00732726464048027992
66.8897018432617188 39.3394126892089844 7.15909481048583984 70 1644825274.33863139 0.382028281688690186 -0.923784375190734863 -0.0238037407398223877 -0.0104968259111046791
63.2577247619628906 35.5503959655761719 6.98534727096557617 71 1644825275.43994355 0.39779016375541687 -0.917165040969848633 -0.0180154088884592056 -0.0157071109861135483
59.7170982360839844 31.9179229736328125 6.81669092178344727 72 1644825276.43836808 0.380588650703430176 -0.924338996410369873 -0.0181506238877773285 -0.0205008778721094131
56.0282363891601562 28.1798286437988281 6.66580915451049805 73 1644825277.44093752 0.385626614093780518 -0.922417104244232178 -0.0197450369596481323 -0.00699293427169322968
52.2412452697753906 24.3662528991699219 6.56700563430786133 74 1644825278.43811965 0.381253898143768311 -0.924219787120819092 -0.0210267249494791031 -0.00459180679172277451
48.4843673706054688 20.6361885070800781 6.52656459808349609 75 1644825279.43748784 0.369970977306365967 -0.928498148918151855 -0.0314502380788326263 0.00485219992697238922
44.9530181884765625 17.0608596801757812 6.53270053863525391 76 1644825280.43837929 0.379118561744689941 -0.924513399600982666 -0.0392823256552219391 0.000981496763415634632
41.0972137451171875 13.5891523361206055 6.51909160614013672 77 1644825281.53838849 0.360414654016494751 -0.932769060134887695 -0.00589190376922488213 -0.00289792148396372795
37.2212409973144531 10.1702346801757812 6.50600004196166992 78 1644825282.63881087 0.351541817188262939 -0.936125695705413818 -0.00116580701433122158 -0.00925342179834842682
33.2497520446777344 6.90291213989257812 6.49167919158935547 79 1644825283.73875785 0.338918149471282959 -0.940637588500976562 0.0131210964173078537 -0.0127779198810458183
29.383697509765625 3.30718016624450684 6.4841923713684082 80 1644825284.83887911 0.38255685567855835 -0.923843801021575928 0.0059446580708026886 -0.0112954340875148773
25.6847171783447266 -0.521272778511047363 6.4944920539855957 81 1644825285.93925786 0.379696577787399292 -0.925053238868713379 0.00604673847556114197 -0.00839477032423019409
21.7461700439453125 -4.10804891586303711 6.49222040176391602 82 1644825287.0409255 0.344417095184326172 -0.938801229000091553 -0.00131455634254962206 -0.00523194111883640289
17.1556797027587891 -6.90089797973632812 6.65471363067626953 83 1644825288.24223351 0.229187861084938049 -0.973285019397735596 0.00889407377690076828 0.0104938531294465065
12.3546924591064453 -8.30198001861572266 6.89387035369873047 84 1644825289.54265499 0.130737051367759705 -0.990831613540649414 0.0272979754954576492 0.0203797575086355209
7.05819129943847656 -9.29281806945800781 7.27630758285522461 85 1644825290.84223008 0.0740909799933433533 -0.996554553508758545 0.0288407020270824432 0.0236157644540071487
1.71600580215454102 -9.62678718566894531 7.73665380477905273 86 1644825292.14333153 0.00982601568102836609 -0.999031782150268555 0.0201484095305204391 0.0378544554114341736
-3.55902957916259766 -9.26881504058837891 8.13485240936279297 87 1644825293.33802152 -0.0499303601682186127 -0.998145878314971924 0.019858112558722496 0.0285912379622459412
-8.64275360107421875 -8.45996570587158203 8.36633205413818359 88 1644825294.54252982 -0.0923696607351303101 -0.995588362216949463 0.0124665079638361931 0.0107838287949562073
-13.8457422256469727 -7.7670588493347168 8.49613761901855469 89 1644825296.13892889 -0.030034329742193222 -0.999503195285797119 0.00917801912873983383 0.00266502099111676216
-19.0317821502685547 -8.99389457702636719 8.56825351715087891 90 1644825297.63942957 0.178505212068557739 -0.98391425609588623 0.00578524265438318253 -0.00388636812567710876
-22.9575595855712891 -12.2625751495361328 8.567718505859375 91 1644825298.93827009 0.366811573505401611 -0.930264890193939209 -0.0071074189618229866 -0.00245076348073780537
-25.6784515380859375 -16.5053997039794922 8.53147411346435547 92 1644825300.14266515 0.519540786743164062 -0.85433495044708252 -0.00931757967919111252 -0.0101163089275360107
-27.7168540954589844 -21.3678302764892578 8.35666942596435547 93 1644825301.33682966 0.550631999969482422 -0.834226787090301514 -0.0194817371666431427 -0.0221490580588579178
-28.9086570739746094 -26.3083362579345703 8.07497406005859375 94 1644825302.54067039 0.637681961059570312 -0.769496142864227295 -0.0284616760909557343 -0.0206728242337703705
-29.0829505920410156 -31.4557838439941406 7.78517246246337891 95 1644825303.73732972 0.703721880912780762 -0.709699332714080811 -0.0298170167952775955 -0.0146068660542368889
-28.8778572082519531 -36.5019073486328125 7.50913095474243164 96 1644825304.83727503 0.709407567977905273 -0.703704297542572021 -0.0384909026324748993 -0.00772025110200047493
-29.1538581848144531 -41.6691436767578125 7.2265477180480957 97 1644825305.93931794 0.67707747220993042 -0.734813034534454346 -0.0381575562059879303 -0.0126447957009077072
-29.6396427154541016 -46.7970542907714844 6.98589563369750977 98 1644825307.13703108 0.678554534912109375 -0.734043300151824951 -0.0213898550719022751 -0.0169316548854112625
-28.7053260803222656 -51.7140617370605469 6.72469568252563477 99 1644825308.63679004 0.812911331653594971 -0.581237554550170898 -0.0347009450197219849 -0.0115726161748170853
-27.1072483062744141 -53.5991554260253906 6.63193941116333008 100 1644825309.43848205 0.904762446880340576 -0.425202935934066772 -0.023112952709197998 -0.00855313800275325775
-24.9754142761230469 -54.7162513732910156 6.51063728332519531 101 1644825310.13656545 0.968442320823669434 -0.2478446364402771 -0.0253969300538301468 -0.00688960403203964233
-22.4971790313720703 -55.0480384826660156 6.3523097038269043 102 1644825310.73816609 0.997080504894256592 -0.0688410401344299316 -0.0311331357806921005 -0.0110476221889257431
-17.15130615234375 -54.2805290222167969 5.99787807464599609 103 1644825311.83824325 0.997229158878326416 0.0624132454395294189 -0.0401179343461990356 0.00539867207407951355
-11.9769010543823242 -54.0005989074707031 5.6484827995300293 104 1644825312.8374052 0.998969554901123047 0.00499962829053401947 -0.0412957184016704559 0.0181511510163545609
-6.59016180038452148 -54.2500152587890625 5.29262971878051758 105 1644825313.83670521 0.998102307319641113 -0.0398623943328857422 -0.041970428079366684 0.021006166934967041
-1.5814812183380127 -54.75262451171875 4.95638036727905273 106 1644825314.73841596 0.998069584369659424 -0.0469451546669006348 -0.0385029688477516174 0.0130698876455426216
3.55069804191589355 -55.3075027465820312 4.62623119354248047 107 1644825315.63686466 0.997786402702331543 -0.0531451106071472168 -0.0399487912654876709 0.00141734385397285223
8.83481788635253906 -55.5830459594726562 4.26754331588745117 108 1644825316.53936124 0.999098002910614014 -0.0263498388230800629 -0.0303604733198881149 0.0136808361858129501
14.3082456588745117 -55.5809326171875 3.92578673362731934 109 1644825317.44165277 0.999031126499176025 -0.00444114487618207932 -0.0422353483736515045 0.0115432348102331161
19.8971424102783203 -55.5533866882324219 3.5310065746307373 110 1644825318.33882213 0.999137580394744873 0.00566537212580442429 -0.0390220992267131805 0.0130096115171909332
24.9802379608154297 -55.2892303466796875 3.20889163017272949 111 1644825319.14098263 0.99833524227142334 0.0405744127929210663 -0.0402741506695747375 0.0076465546153485775
30.0865745544433594 -54.4764633178710938 2.90757274627685547 112 1644825319.94104862 0.995823323726654053 0.0842011049389839172 -0.0296860989183187485 0.0190987344831228256
35.1263160705566406 -53.3929939270019531 2.67385506629943848 113 1644825320.73872232 0.992659866809844971 0.115791261196136475 -0.0319677740335464478 0.0140281654894351959
40.0043296813964844 -51.9974517822265625 2.48147153854370117 114 1644825321.54052329 0.988421022891998291 0.149717420339584351 -0.0230633728206157684 0.00875274930149316788
45.2605361938476562 -50.0390892028808594 2.31215667724609375 115 1644825322.44171596 0.981686174869537354 0.189338222146034241 -0.0173393376171588898 0.0119453119114041328
50.0240020751953125 -47.5197525024414062 2.19559264183044434 116 1644825323.33991814 0.967949748039245605 0.250808805227279663 -0.010324220173060894 0.00785074569284915924
54.2508125305175781 -44.6481285095214844 2.13684773445129395 117 1644825324.24452162 0.95206981897354126 0.305622845888137817 -0.00771333323791623116 0.00991119816899299622
58.5934791564941406 -41.1425247192382812 2.14584207534790039 118 1644825325.24143195 0.941437005996704102 0.337064534425735474 0.000576256366912275553 0.00914020184427499771
62.6711006164550781 -37.45660400390625 2.22810673713684082 119 1644825326.14219403 0.931748569011688232 0.362986475229263306 0.00414186902344226837 0.00826161820441484451
66.5786819458007812 -33.56512451171875 2.42245888710021973 120 1644825327.04343605 0.924035727977752686 0.381803244352340698 0.0184534937143325806 0.00660912832245230675
70.42083740234375 -29.9416999816894531 2.64037585258483887 121 1644825327.9431994 0.931038439273834229 0.364522665739059448 0.0154659952968358994 -0.00717096077278256416
74.4141693115234375 -26.1664218902587891 2.79481387138366699 122 1644825328.94465399 0.92702406644821167 0.374770671129226685 0.0113069256767630577 -0.00673916749656200409
78.2566680908203125 -22.1358222961425781 3.02068901062011719 123 1644825329.94670963 0.919875383377075195 0.391700178384780884 0.0161998942494392395 -0.0117414845153689384
81.7720108032226562 -18.4000740051269531 3.31283760070800781 124 1644825330.83996916 0.918834149837493896 0.393905222415924072 0.0223749000579118729 -0.00904904771596193314
85.2443161010742188 -14.591008186340332 3.60471796989440918 125 1644825331.73971629 0.914346754550933838 0.404167145490646362 0.024703487753868103 -0.00295273703522980213
88.7587890625 -10.8350658416748047 3.88448572158813477 126 1644825332.64205456 0.921931803226470947 0.38654676079750061 0.0249529164284467697 0.000802788767032325268
92.3291778564453125 -7.21864891052246094 4.17895889282226562 127 1644825333.53882456 0.921247363090515137 0.387409895658493042 0.0348833091557025909 -0.000187235040357336402
95.9605789184570312 -3.53130459785461426 4.50591421127319336 128 1644825334.44317174 0.923517048358917236 0.382376432418823242 0.0299409981817007065 -0.0028439618181437254
99.7239151000976562 0.298523426055908203 4.83614826202392578 129 1644825335.34633636 0.924364089965820312 0.380086451768875122 0.0329378321766853333 -0.000628398149274289608
103.535606384277344 4.18068122863769531 5.21054983139038086 130 1644825336.23922777 0.922961652278900146 0.383128046989440918 0.0368004776537418365 -0.000674647395499050617
107.416641235351562 8.10651493072509766 5.60962152481079102 131 1644825337.13973188 0.923818230628967285 0.380795776844024658 0.039330553263425827 -0.00274639111012220383
111.327217102050781 11.9101018905639648 6.00765275955200195 132 1644825338.03832126 0.928758502006530762 0.368719160556793213 0.0381072983145713806 -0.00130236707627773285
115.040206909179688 15.6000995635986328 6.39057159423828125 133 1644825338.93889308 0.923974871635437012 0.380713015794754028 0.0363439694046974182 -0.00267246481962502003
118.6903076171875 19.2461147308349609 6.77872705459594727 134 1644825339.83919382 0.924750626087188721 0.379042208194732666 0.0327482558786869049 -0.00952847674489021301
122.603805541992188 23.1101818084716797 7.1790313720703125 135 1644825340.84069371 0.927011370658874512 0.374099254608154297 0.0256702657788991928 -0.00637828325852751732
126.372001647949219 26.7280693054199219 7.58073091506958008 136 1644825342.0378685 0.929584920406341553 0.366801619529724121 0.0354377254843711853 -0.00851763971149921417
130.382781982421875 30.1840915679931641 7.96063089370727539 137 1644825343.33909512 0.946635186672210693 0.320519506931304932 0.033871132880449295 0.00136792310513556004
134.522918701171875 31.8168182373046875 8.3179931640625 138 1644825344.5394628 0.989851832389831543 0.139321118593215942 0.0246219541877508163 -0.0132942618802189827
137.814010620117188 31.7718353271484375 8.47107410430908203 139 1644825345.44132471 0.998712122440338135 -0.03443903848528862 0.0138745065778493881 -0.0345775000751018524
141.67999267578125 30.2963829040527344 8.55997467041015625 140 1644825346.44137836 0.975117146968841553 -0.220112621784210205 0.0183539874851703644 -0.0189775135368108749
145.804656982421875 26.7825031280517578 8.60898685455322266 141 1644825347.64044738 0.923531174659729004 -0.382370471954345703 0.00892251636832952499 -0.0283441953361034393
149.620834350585938 22.9541149139404297 8.58001899719238281 142 1644825348.73753643 0.920892238616943359 -0.389224261045455933 -0.00508794281631708145 -0.0208829566836357117
153.427108764648438 19.3946418762207031 8.40083694458007812 143 1644825349.73962283 0.933326900005340576 -0.357618391513824463 -0.015734601765871048 -0.027612101286649704
157.227310180664062 16.0027923583984375 8.21021842956542969 144 1644825350.63904524 0.93031919002532959 -0.365503042936325073 -0.0198028795421123505 -0.0228388700634241104
161.12408447265625 12.2189407348632812 7.99997091293334961 145 1644825351.53794169 0.923666298389434814 -0.381775230169296265 -0.017632095143198967 -0.0278812330216169357
164.730697631835938 8.67983818054199219 7.81732654571533203 146 1644825352.34057713 0.924814283847808838 -0.379633456468582153 -0.011252405121922493 -0.0216877907514572144
168.456619262695312 4.96043825149536133 7.63124418258666992 147 1644825353.13968968 0.919873058795928955 -0.391126692295074463 -0.0163606144487857819 -0.0242039207369089127
172.12615966796875 1.14245069026947021 7.44635629653930664 148 1644825353.93982172 0.918064653873443604 -0.395430803298950195 0.000513118691742420197 -0.0281342007219791412
175.970611572265625 -2.7012631893157959 7.25321531295776367 149 1644825354.7387774 0.919400572776794434 -0.392401576042175293 -0.0112424306571483612 -0.0244377888739109039
179.775421142578125 -6.69180393218994141 7.07826137542724609 150 1644825355.53954697 0.918685019016265869 -0.394058346748352051 -0.00621198862791061401 -0.0264062788337469101
183.56903076171875 -10.7866497039794922 6.91625261306762695 151 1644825356.338552 0.914127588272094727 -0.404710352420806885 -0.00176071852911263704 -0.0240245591849088669
187.359893798828125 -14.7931985855102539 6.86030483245849609 152 1644825357.13994646 0.923274457454681396 -0.383379757404327393 0.0012743102852255106 -0.0241382867097854614
191.125167846679688 -18.4260883331298828 6.83482170104980469 153 1644825357.93854594 0.929634332656860352 -0.367712467908859253 0.00239521218463778496 -0.0237033925950527191
195.3712158203125 -21.9874610900878906 6.7337946891784668 154 1644825358.84008455 0.947808921337127686 -0.317050933837890625 -0.00641153845936059952 -0.0331038683652877808
199.976547241210938 -25.0224876403808594 6.66123199462890625 155 1644825359.83967161 0.957305312156677246 -0.287900060415267944 0.00220265542156994343 -0.0259844791144132614
204.324172973632812 -27.9435176849365234 6.58744430541992188 156 1644825360.83835816 0.954092025756835938 -0.298386752605438232 0.00116385892033576965 -0.0259311143308877945
208.569259643554688 -30.9597225189208984 6.60384893417358398 157 1644825361.83899951 0.951117157936096191 -0.308121591806411743 0.00417590420693159103 -0.0204890836030244827
212.882095336914062 -33.9055442810058594 6.59925079345703125 158 1644825362.84127331 0.958587288856506348 -0.283722907304763794 0.00832773279398679733 -0.0232881512492895126
217.512283325195312 -36.5325698852539062 6.58787727355957031 159 1644825363.94074678 0.970484495162963867 -0.239838361740112305 0.000561063468921929598 -0.0252410043030977249
222.303070068359375 -38.5040130615234375 6.59378385543823242 160 1644825365.14050555 0.981549382209777832 -0.190468654036521912 -0.00175078201573342085 -0.0167179349809885025
226.916122436523438 -40.4650001525878906 6.60301589965820312 161 1644825366.34226441 0.978721022605895996 -0.204183429479598999 -0.000387421081541106105 -0.0203506853431463242
231.594863891601562 -42.6290321350097656 6.60729503631591797 162 1644825367.64078903 0.974900484085083008 -0.221969082951545715 -0.00406512198969721794 -0.0167997237294912338
236.313247680664062 -44.9898452758789062 6.60017776489257812 163 1644825369.24085331 0.9741629958152771 -0.225425586104393005 -0.00223890342749655247 -0.0135940480977296829
240.644546508789062 -47.8013877868652344 6.54953908920288086 164 1644825371.04277396 0.936635494232177734 -0.349932342767715454 -0.0152987949550151825 -0.00522292684763669968
241.66229248046875 -49.8159713745117188 6.52452611923217773 165 1644825371.84226012 0.852933704853057861 -0.521732509136199951 -0.0172895248979330063 -0.000562803121283650398
241.76666259765625 -51.9979019165039062 6.44521570205688477 166 1644825372.64187455 0.739459335803985596 -0.672568738460540771 -0.0192569047212600708 -0.0219174027442932129
240.660812377929688 -56.2789535522460938 6.37285995483398438 167 1644825374.04336762 0.61102294921875 -0.791516482830047607 -0.00341293890960514545 -0.0118745053187012672
239.9432373046875 -61.2958946228027344 6.29200220108032227 168 1644825375.14417887 0.669530153274536133 -0.742747247219085693 -0.00678216107189655304 -0.00314776785671710968
239.815658569335938 -66.3113784790039062 6.2708587646484375 169 1644825376.14330339 0.703882575035095215 -0.710124313831329346 -0.0135048637166619301 -0.00950860884040594101
240.327346801757812 -71.7835006713867188 6.27060127258300781 170 1644825377.14247584 0.754224121570587158 -0.656565427780151367 -0.00733910733833909035 0.00373166333884000778
241.664688110351562 -77.1544570922851562 6.24453306198120117 171 1644825378.04215026 0.796360552310943604 -0.604767501354217529 -0.00737513322383165359 0.00342675880528986454
243.154022216796875 -81.9472274780273438 6.21156120300292969 172 1644825378.84874201 0.804698467254638672 -0.59348607063293457 -0.0150375580415129662 0.00292495149187743664
245.177536010742188 -86.9166641235351562 6.18452596664428711 173 1644825379.74261498 0.839295625686645508 -0.543443024158477783 -0.0158412531018257141 0.00124054122716188431
247.7052001953125 -91.7597198486328125 6.15473556518554688 174 1644825380.6416316 0.85434722900390625 -0.519499719142913818 -0.0131405964493751526 0.0061822882853448391
250.267257690429688 -96.3826217651367188 6.15247726440429688 175 1644825381.54118752 0.862878382205963135 -0.505318701267242432 -0.00898698717355728149 0.00362803228199481964
252.950393676757812 -100.660140991210938 6.13994789123535156 176 1644825382.44320607 0.878896951675415039 -0.476779311895370483 -0.00714789750054478645 0.0130591029301285744
256.556060791015625 -104.657859802246094 6.12612104415893555 177 1644825383.44395161 0.926271378993988037 -0.376652181148529053 -0.00803178548812866211 0.00948216486722230911
260.658721923828125 -107.996376037597656 6.09932994842529297 178 1644825384.44457078 0.941657125949859619 -0.336324632167816162 -0.0112808486446738243 0.00635495129972696304
264.912567138671875 -111.289962768554688 6.07538986206054688 179 1644825385.44308805 0.942779839038848877 -0.332834780216217041 -0.0141077730804681778 0.01371734868735075
269.069549560546875 -114.2860107421875 6.03256130218505859 180 1644825386.54230285 0.954038619995117188 -0.298047125339508057 -0.0196946840733289719 0.0242974460124969482
273.53936767578125 -117.057289123535156 5.98908376693725586 181 1644825387.8414228 0.963947057723999023 -0.265667498111724854 -0.0108310319483280182 0.0104637462645769119
278.099090576171875 -119.313407897949219 5.96481227874755859 182 1644825389.34083033 0.975327014923095703 -0.220450341701507568 -0.00834275875240564346 0.00831906870007514954
282.802764892578125 -121.626190185546875 5.95679855346679688 183 1644825391.2437396 0.972754418849945068 -0.23149573802947998 -0.00660826824605464935 0.0107160955667495728
286.613922119140625 -123.85693359375 5.91951084136962891 184 1644825393.33976889 0.96558457612991333 -0.259955942630767822 -0.00685980729758739471 -0.00472337566316127777
290.3603515625 -126.168304443359375 5.88856887817382812 185 1644825395.4395659 0.965942800045013428 -0.257238984107971191 -0.0125466678291559219 -0.0250029880553483963
294.700714111328125 -128.96453857421875 5.64992380142211914 186 1644825397.43850136 0.954436659812927246 -0.29460829496383667 -0.0292862076312303543 -0.0374018847942352295
299.204742431640625 -131.548187255859375 5.15647649765014648 187 1644825398.83912849 0.964710116386413574 -0.257345765829086304 -0.0437798388302326202 -0.0345093458890914917
303.845672607421875 -134.247467041015625 4.4681696891784668 188 1644825400.03994727 0.960953176021575928 -0.267116397619247437 -0.0353499948978424072 -0.0629938691854476929
308.416717529296875 -137.102325439453125 4.20961856842041016 189 1644825401.13979125 0.958574831485748291 -0.279549270868301392 -0.0418105758726596832 -0.0351903438568115234
313.031036376953125 -140.047897338867188 3.8307802677154541 190 1644825402.24147868 0.956147670745849609 -0.287792861461639404 -0.042725730687379837 -0.0336358360946178436
317.01300048828125 -143.139266967773438 3.3921971321105957 191 1644825403.33869815 0.93845057487487793 -0.340390652418136597 -0.0470935888588428497 -0.0350268222391605377
320.7247314453125 -146.958053588867188 2.89367151260375977 192 1644825404.64038825 0.912187874317169189 -0.40427747368812561 -0.0499714352190494537 -0.0444512069225311279
323.790008544921875 -151.0303955078125 2.35718560218811035 193 1644825405.93802857 0.888548195362091064 -0.454248338937759399 -0.0441134162247180939 -0.0468462742865085602
326.856964111328125 -155.241943359375 1.84161174297332764 194 1644825407.43784833 0.8771858811378479 -0.476483583450317383 -0.0482651069760322571 -0.0343336872756481171
328.462432861328125 -160.16650390625 1.293609619140625 195 1644825409.23748517 0.7744864821434021 -0.628639400005340576 -0.0455905571579933167 -0.0538949780166149139
328.113250732421875 -163.82769775390625 0.864702522754669189 196 1644825410.53756285 0.650991499423980713 -0.756241202354431152 -0.0391564741730690002 -0.0526884421706199646
326.59686279296875 -166.638397216796875 0.728750705718994141 197 1644825411.6404922 0.506016552448272705 -0.861692368984222412 0.00333070242777466774 -0.0377149693667888641
323.64202880859375 -169.336471557617188 0.539410114288330078 198 1644825412.83961248 0.348057746887207031 -0.936732470989227295 0.00813028682023286819 -0.036359637975692749
319.9110107421875 -172.6982421875 0.285169988870620728 199 1644825414.14109659 0.377735376358032227 -0.924701452255249023 0.0212946236133575439 -0.0423054136335849762
316.3203125 -176.334579467773438 0.0372030884027481079 200 1644825415.4413259 0.36818385124206543 -0.928740024566650391 0.0106440288946032524 -0.0420639030635356903
312.316162109375 -179.696609497070312 -0.174983441829681396 201 1644825416.74120545 0.330944240093231201 -0.942772507667541504 0.022150019183754921 -0.0341357514262199402
307.931610107421875 -182.89990234375 -0.416217833757400513 202 1644825417.84113216 0.293655216693878174 -0.955130100250244141 0.0185221284627914429 -0.0339122004806995392
303.487457275390625 -185.3223876953125 -0.627743542194366455 203 1644825418.7426877 0.230785071849822998 -0.972312629222869873 0.0205891504883766174 -0.0303730256855487823
298.54443359375 -187.602035522460938 -0.829901933670043945 204 1644825419.64153242 0.20347943902015686 -0.97854304313659668 0.0170323122292757034 -0.0275603849440813065
293.348419189453125 -189.71575927734375 -1.02562856674194336 205 1644825420.54044366 0.194525420665740967 -0.980441033840179443 0.01883682981133461 -0.0232465937733650208
288.55694580078125 -191.661834716796875 -1.18269717693328857 206 1644825421.34381509 0.178693175315856934 -0.983477473258972168 0.0190037991851568222 -0.021901305764913559
283.57476806640625 -193.464859008789062 -1.35490596294403076 207 1644825422.13889217 0.160501047968864441 -0.986583530902862549 0.0156891550868749619 -0.0254216231405735016
278.471893310546875 -195.187240600585938 -1.50802385807037354 208 1644825422.93729663 0.169627338647842407 -0.98499685525894165 0.0190134532749652863 -0.0254209991544485092
273.331787109375 -197.014297485351562 -1.66299295425415039 209 1644825423.74159169 0.164525941014289856 -0.986290812492370605 0.00960881542414426804 -0.00832504592835903168
268.094146728515625 -198.7249755859375 -1.85588395595550537 210 1644825424.54127264 0.156399324536323547 -0.987661540508270264 0.0059068719856441021 -0.0053942166268825531
262.71051025390625 -200.362411499023438 -2.03183221817016602 211 1644825425.34770727 0.135127082467079163 -0.990499556064605713 0.010977952741086483 -0.0230393335223197937
257.362579345703125 -201.896926879882812 -2.21692752838134766 212 1644825426.14066315 0.132604584097862244 -0.990847766399383545 0.0111969439312815666 -0.0226132962852716446
252.502044677734375 -203.179306030273438 -2.39325261116027832 213 1644825426.84053445 0.123853981494903564 -0.991969823837280273 0.0105636585503816605 -0.0233334675431251526
247.611495971679688 -204.364486694335938 -2.55695724487304688 214 1644825427.54287028 0.112421877682209015 -0.993339419364929199 0.00936555769294500351 -0.0234618615359067917
242.04864501953125 -205.743423461914062 -2.75971174240112305 215 1644825428.34461594 0.121455296874046326 -0.992078006267547607 0.00796735379844903946 -0.0310860313475131989
236.503387451171875 -207.111953735351562 -2.90935683250427246 216 1644825429.14005852 0.114169232547283173 -0.993281126022338867 0.00773738138377666473 -0.0172650087624788284
231.506851196289062 -208.1246337890625 -3.04377245903015137 217 1644825429.84089732 0.0963274985551834106 -0.995120406150817871 0.0101676741614937782 -0.0187875479459762573
226.475082397460938 -209.080551147460938 -3.20214509963989258 218 1644825430.53806663 0.088999427855014801 -0.995730280876159668 0.0110120661556720734 -0.0218877289444208145
221.3216552734375 -210.038406372070312 -3.38341665267944336 219 1644825431.23835254 0.092324182391166687 -0.995389819145202637 0.0139766326174139977 -0.0219096466898918152
215.976730346679688 -210.987335205078125 -3.55845832824707031 220 1644825431.93742895 0.0804583057761192322 -0.996537685394287109 0.00699156057089567184 -0.0197538640350103378
210.53656005859375 -211.782455444335938 -3.72312068939208984 221 1644825432.63680553 0.0673008263111114502 -0.997523605823516846 0.00488121854141354561 -0.019835393875837326
205.104156494140625 -212.466903686523438 -3.88039541244506836 222 1644825433.33710933 0.0602191798388957977 -0.997983574867248535 0.00479613244533538818 -0.019479312002658844
199.753814697265625 -213.068771362304688 -4.04199981689453125 223 1644825434.03773475 0.0521868504583835602 -0.998365640640258789 0.0078154904767870903 -0.0219421349465847015
194.46923828125 -213.58721923828125 -4.21598911285400391 224 1644825434.7408371 0.0423193052411079407 -0.998844563961029053 0.00439030630514025688 -0.0223455354571342468
189.330001831054688 -214.041030883789062 -4.36840581893920898 225 1644825435.43707156 0.0526584163308143616 -0.998339295387268066 0.00840495992451906204 -0.0217970255762338638
184.255142211914062 -214.667510986328125 -4.50292682647705078 226 1644825436.13871503 0.055822376161813736 -0.998212754726409912 0.00503653800114989281 -0.0207304563373327255
179.2691650390625 -215.267913818359375 -4.66356086730957031 227 1644825436.83871269 0.0450005866587162018 -0.998787164688110352 -0.00340246222913265228 -0.019685378298163414
173.603042602539062 -215.66705322265625 -4.85606813430786133 228 1644825437.63774228 0.02809947170317173 -0.999250531196594238 -0.00178192858584225178 -0.0265624746680259705
168.579116821289062 -215.926422119140625 -4.9610443115234375 229 1644825438.34166431 0.0178517997264862061 -0.999734461307525635 -0.00209362735040485859 -0.0144184976816177368
163.329193115234375 -216.071136474609375 -5.03542661666870117 230 1644825439.04059243 0.00726693309843540192 -0.999910533428192139 0.00277101434767246246 -0.0108811352401971817
157.888168334960938 -216.273956298828125 -5.11372518539428711 231 1644825439.74140954 0.0240882094949483871 -0.999596536159515381 0.00664234254509210587 -0.0135046122595667839
152.376968383789062 -216.61376953125 -5.19660425186157227 232 1644825440.43856835 0.028011757880449295 -0.999531030654907227 -0.000939406687393784523 -0.0123371463268995285
146.801376342773438 -216.901596069335938 -5.27310895919799805 233 1644825441.14135456 0.0161700267344713211 -0.99982839822769165 -0.00588741805404424667 -0.00685999961569905281
141.22723388671875 -217.148269653320312 -5.2920684814453125 234 1644825441.84002495 0.0186204258352518082 -0.999805271625518799 -0.00653351843357086182 2.25571948249125853e-05
135.590255737304688 -217.402923583984375 -5.34346818923950195 235 1644825442.54172421 0.0179811883717775345 -0.999778568744659424 -0.0069516422227025032 -0.00843859463930130005
130.021133422851562 -217.572509765625 -5.3369297981262207 236 1644825443.2410593 0.0168420523405075073 -0.999827742576599121 -0.00380892585963010788 0.0068021225742995739
124.472198486328125 -217.8201904296875 -5.34873771667480469 237 1644825443.94163775 0.021753484383225441 -0.999757826328277588 -0.002549363998696208 -0.00215067574754357338
118.975135803222656 -218.090194702148438 -5.35370016098022461 238 1644825444.64072776 0.0214218981564044952 -0.99976503849029541 -0.00331676308996975422 7.42189295124262571e-05
113.470558166503906 -218.324111938476562 -5.33852767944335938 239 1644825445.3416543 0.0178450793027877808 -0.999839901924133301 -9.86545201158151031e-05 -0.0013081671204417944
107.959800720214844 -218.540740966796875 -5.35176515579223633 240 1644825446.03993201 0.017710953950881958 -0.999771475791931152 -0.00686071533709764481 -0.00981303490698337555
102.410552978515625 -218.843856811523438 -5.35651302337646484 241 1644825446.74223852 0.0209015887230634689 -0.999627590179443359 -0.016721576452255249 -0.00531396083533763885
96.8480377197265625 -219.095245361328125 -5.33867120742797852 242 1644825447.43950224 0.0186773147433996201 -0.999626040458679199 -0.0199432335793972015 0.00110979343298822641
91.2009506225585938 -219.313705444335938 -5.31129550933837891 243 1644825448.14355755 0.0153313577175140381 -0.999701380729675293 -0.0185997560620307922 -0.00401669740676879883
85.5861358642578125 -219.537506103515625 -5.30330944061279297 244 1644825448.84271193 0.0160343758761882782 -0.999702990055084229 -0.0181343778967857361 -0.00282338284887373447
79.9634475708007812 -219.772872924804688 -5.32661342620849609 245 1644825449.54138899 0.0150120947510004044 -0.999737083911895752 -0.0170329995453357697 -0.00320984865538775921
74.4433975219726562 -219.973800659179688 -5.32329702377319336 246 1644825450.23950768 0.0160461254417896271 -0.999808728694915771 -0.009715275838971138 -0.00554008269682526588
69.1462326049804688 -220.070770263671875 -5.27180099487304688 247 1644825450.94393158 0.00420482689514756203 -0.999985456466674805 -0.000641045975498855114 -0.00330905360169708729
63.4806175231933594 -219.953643798828125 -5.20263004302978516 248 1644825451.74138236 -0.020585937425494194 -0.999746859073638916 0.00768611999228596687 -0.00482815690338611603
57.9274444580078125 -219.6107177734375 -5.15948724746704102 249 1644825452.54236007 -0.0332436114549636841 -0.999382734298706055 0.0110812792554497719 -0.00248545384965837002
52.8851280212402344 -218.924575805664062 -5.1612401008605957 250 1644825453.2437048 -0.0903459563851356506 -0.995879888534545898 0.00533498730510473251 -0.00569608202204108238
47.7921218872070312 -217.68536376953125 -5.16583395004272461 251 1644825453.94131303 -0.133391052484512329 -0.991026759147644043 0.00843149889260530472 -0.00128566531930118799
42.700775146484375 -216.003341674804688 -5.1849217414855957 252 1644825454.63770199 -0.16987001895904541 -0.985372483730316162 0.0127903148531913757 -0.00465851975604891777
37.6527099609375 -213.980361938476562 -5.20027828216552734 253 1644825455.33909392 -0.202234566211700439 -0.979272305965423584 0.0110952733084559441 -0.00196166266687214375
32.6620826721191406 -211.559661865234375 -5.21584844589233398 254 1644825456.04378724 -0.241106122732162476 -0.970414578914642334 0.0107308439910411835 -0.00694686267524957657
27.9867076873779297 -208.637054443359375 -5.22735452651977539 255 1644825456.73918152 -0.29986119270324707 -0.953912615776062012 0.00857950840145349503 -0.00776751106604933739
23.7176494598388672 -205.237930297851562 -5.1638026237487793 256 1644825457.44021058 -0.346070915460586548 -0.938102126121520996 0.00457241106778383255 0.0133585948497056961
19.6499366760253906 -201.767623901367188 -5.1179194450378418 257 1644825458.14849472 -0.34998747706413269 -0.936705529689788818 -0.00128869665786623955 0.00948156137019395828
15.538090705871582 -197.987457275390625 -5.04739904403686523 258 1644825458.94291019 -0.373212516307830811 -0.927736520767211914 -0.00407616421580314636 -0.000865569629240781069
11.5532674789428711 -194.370162963867188 -4.93161487579345703 259 1644825459.84635949 -0.364740490913391113 -0.93105781078338623 -0.00974854547530412674 -0.000845236820168793201
7.70346164703369141 -190.769775390625 -4.74845170974731445 260 1644825461.24344373 -0.359227806329727173 -0.93323129415512085 -0.00112278165761381388 -0.00578162120655179024
3.68760085105895996 -187.1002197265625 -4.54038143157958984 261 1644825462.54223108 -0.36581718921661377 -0.930318832397460938 -0.0153259122744202614 0.0212067719548940659
-0.307177215814590454 -183.3282470703125 -4.24285125732421875 262 1644825463.6426065 -0.369597047567367554 -0.928962826728820801 -0.00393497385084629059 0.0202639102935791016
-4.26347923278808594 -179.645294189453125 -3.9906151294708252 263 1644825464.64332938 -0.366952627897262573 -0.929936647415161133 -0.0125590497627854347 0.0201454199850559235
-8.08336448669433594 -176.226165771484375 -3.6792900562286377 264 1644825465.5413518 -0.360821157693862915 -0.932273983955383301 -0.0139814410358667374 0.0218584071844816208
-11.9788227081298828 -172.61480712890625 -3.34558606147766113 265 1644825466.44762015 -0.373802870512008667 -0.926954388618469238 -0.0213566664606332779 0.0238936860114336014
-15.7960948944091797 -168.874893188476562 -2.97930169105529785 266 1644825467.34315348 -0.380630910396575928 -0.924082159996032715 -0.0227666664868593216 0.0259601697325706482
-19.7787494659423828 -165.204421997070312 -2.55840921401977539 267 1644825468.24431705 -0.364748835563659668 -0.930347263813018799 -0.0265043787658214569 0.0266417115926742554
-23.8279018402099609 -161.532424926757812 -2.17496109008789062 268 1644825469.14400053 -0.365135550498962402 -0.930066168308258057 -0.0326489582657814026 0.0242280419915914536
-27.8584156036376953 -157.779998779296875 -1.78047072887420654 269 1644825470.04469013 -0.373838305473327637 -0.926436066627502441 -0.0359290540218353271 0.0258894376456737518
-31.7994213104248047 -154.04254150390625 -1.2909393310546875 270 1644825470.93959332 -0.365417599678039551 -0.929882287979125977 -0.0239992998540401459 0.0348268784582614899
-35.7090225219726562 -150.41876220703125 -0.816344976425170898 271 1644825471.846349 -0.369404345750808716 -0.928297817707061768 -0.0219894405454397202 0.036333031952381134
-39.4267845153808594 -146.88958740234375 -0.374815911054611206 272 1644825472.74071407 -0.369493991136550903 -0.928486883640289307 -0.0125041147693991661 0.0350703224539756775
-43.0701522827148438 -143.250869750976562 0.0488099046051502228 273 1644825473.64304376 -0.387400388717651367 -0.92113196849822998 -0.00542475609108805656 0.0375151261687278748
-46.508636474609375 -139.622161865234375 0.46329072117805481 274 1644825474.53972673 -0.398566305637359619 -0.91626274585723877 -0.00745076732710003853 0.0393952131271362305
-49.9078483581542969 -135.8946533203125 0.869967341423034668 275 1644825475.43842602 -0.408569216728210449 -0.912090897560119629 -0.00803154800087213516 0.0331198312342166901
-53.2734832763671875 -132.028472900390625 1.24493086338043213 276 1644825476.33818483 -0.425259888172149658 -0.904436111450195312 -0.0133281908929347992 0.0311713963747024536
-56.2924346923828125 -127.85260009765625 1.61019480228424072 277 1644825477.23819423 -0.473583459854125977 -0.880218625068664551 -0.00252463179640471935 0.0304549075663089752
-58.7972946166992188 -123.052345275878906 2.02297210693359375 278 1644825478.34052563 -0.528380692005157471 -0.847954928874969482 0.00562190636992454529 0.0418882928788661957
-61.0998764038085938 -118.161163330078125 2.48790812492370605 279 1644825479.43908334 -0.53998178243637085 -0.840162098407745361 -0.00311815529130399227 0.0503743439912796021
-62.9978904724121094 -113.395256042480469 2.93179988861083984 280 1644825480.43752027 -0.577747344970703125 -0.815068185329437256 -0.00586363952606916428 0.0428656190633773804
-64.3054656982421875 -108.253669738769531 3.33931732177734375 281 1644825481.44072556 -0.628462314605712891 -0.777051925659179688 -0.00655216444283723831 0.034387495368719101
-65.1597900390625 -102.906974792480469 3.71064519882202148 282 1644825482.4381516 -0.661825180053710938 -0.748862385749816895 -0.0162677038460969925 0.0304613504558801651
-65.59185791015625 -97.8926849365234375 4.09893560409545898 283 1644825483.33677578 -0.683336496353149414 -0.729156494140625 -0.0214979834854602814 0.0303292833268642426
-65.6403732299804688 -92.7670211791992188 4.49167346954345703 284 1644825484.24024034 -0.709976553916931152 -0.703533291816711426 -0.0148859024047851562 0.0274330377578735352
-65.4264068603515625 -87.7557830810546875 4.97073459625244141 285 1644825485.13840866 -0.724156081676483154 -0.687740087509155273 -0.0296875815838575363 0.0415954925119876862
-65.1941375732421875 -82.6562652587890625 5.17705583572387695 286 1644825486.03752565 -0.726517140865325928 -0.685978174209594727 -0.0216963682323694229 0.0337052308022975922
-64.7666702270507812 -77.62261962890625 5.63441038131713867 287 1644825486.9391191 -0.738761484622955322 -0.673017024993896484 -0.0183703117072582245 0.0306929443031549454
-64.1913375854492188 -72.5006179809570312 6.07832765579223633 288 1644825488.04081345 -0.751562833786010742 -0.659053266048431396 -0.0158023089170455933 0.0235035773366689682
-63.0883903503417969 -67.58526611328125 6.49007987976074219 289 1644825489.33777881 -0.793534338474273682 -0.607301175594329834 -0.0169481933116912842 0.0346604175865650177
-60.8968391418457031 -63.019195556640625 6.85238981246948242 290 1644825490.53801131 -0.868445396423339844 -0.494234174489974976 -0.00986206158995628357 0.0379200726747512817
-57.2984390258789062 -59.4300804138183594 7.08550882339477539 291 1644825491.93788409 -0.936842024326324463 -0.347421467304229736 -0.00253830058500170708 0.0402361266314983368
-52.6253623962402344 -57.0414581298828125 7.25166225433349609 292 1644825493.13853288 -0.981514394283294678 -0.185748711228370667 0.00116286554839462042 0.0461036376655101776
-47.6827430725097656 -56.4764747619628906 7.32991266250610352 293 1644825494.33720684 -0.999610304832458496 -0.00543212518095970154 0.00969372037798166275 0.0256084967404603958
-42.5397987365722656 -57.0027923583984375 7.22477483749389648 294 1644825495.53885746 -0.997335731983184814 0.069375842809677124 0.0196838360279798508 0.010999155230820179
-37.2480926513671875 -57.5391807556152344 7.11370849609375 295 1644825497.04008222 -0.999182701110839844 0.0312773920595645905 0.0246853623539209366 0.00680554704740643501
-31.9545650482177734 -57.4372406005859375 6.89860391616821289 296 1644825498.63902712 -0.999420046806335449 -0.0190336331725120544 0.0243520829826593399 0.0142902685329318047
-21.3893280029296875 -55.8018379211425781 6.28576469421386719 297 1644825500.64176035 -0.994037091732025146 -0.100807443261146545 0.040119316428899765 0.0108886035159230232
-8.32672786712646484 -54.1176414489746094 5.40499401092529297 298 1644825502.64236832 -0.998980581760406494 -0.00171526113990694284 0.0412904918193817139 -0.0181645303964614868
5.35729169845581055 -54.6964035034179688 4.49833917617797852 299 1644825504.74066734 -0.998778223991394043 0.0295760184526443481 0.0373873263597488403 -0.0130214821547269821
18.0044174194335938 -55.1313667297363281 3.65249872207641602 300 1644825506.74400115 -0.998948752880096436 0.00120858370792120695 0.0430185236036777496 -0.0157920289784669876
31.0095958709716797 -53.5678215026855469 2.84582781791687012 301 1644825508.84304833 -0.995519280433654785 -0.0899382606148719788 0.0193331111222505569 -0.0218793731182813644
43.5422935485839844 -49.8471221923828125 2.30597114562988281 302 1644825510.94274211 -0.97982412576675415 -0.198066145181655884 0.0200505536049604416 -0.0176777001470327377
54.5416259765625 -43.7142410278320312 2.07360458374023438 303 1644825513.03985977 -0.957811117172241211 -0.287010550498962402 0.00218223384581506252 -0.0147675648331642151
64.6913909912109375 -34.9655303955078125 2.32760190963745117 304 1644825515.0415802 -0.923767387866973877 -0.381925195455551147 -0.0257271155714988708 -0.0111812921240925789
75.278076171875 -24.5241661071777344 2.84896564483642578 305 1644825517.1410079 -0.92681962251663208 -0.375161498785018921 -0.015202866867184639 0.00530351558700203896
85.5125732421875 -14.0376558303833008 3.63711881637573242 306 1644825519.24021149 -0.924444079399108887 -0.38025200366973877 -0.0284607242792844772 0.0012503830948844552
95.0902786254882812 -4.50874185562133789 4.42791604995727539 307 1644825521.24255204 -0.925489068031311035 -0.37785753607749939 -0.0257197320461273193 0.00566827505826950073
104.365776062011719 5.1453399658203125 5.30756378173828125 308 1644825523.34019089 -0.921408772468566895 -0.386831074953079224 -0.0369573198258876801 0.00133454881142824888
113.660057067871094 14.4455671310424805 6.24520397186279297 309 1644825525.44136333 -0.928467750549316406 -0.370239943265914917 -0.0294949822127819061 -0.000300220388453453779
121.241447448730469 21.5190925598144531 7.03964328765869141 310 1644825527.53725266 -0.933101654052734375 -0.357734262943267822 -0.0353615693747997284 0.00985428132116794586
127.377906799316406 27.3465003967285156 7.66547393798828125 311 1644825529.63690877 -0.923784196376800537 -0.381468623876571655 -0.0323858857154846191 0.00745713384822010994
130.130645751953125 31.7096767425537109 7.9929051399230957 312 1644825531.03948069 -0.841900467872619629 -0.538736999034881592 -0.0309700891375541687 -0.00263307848945260048
130.45220947265625 34.9345245361328125 8.17056560516357422 313 1644825532.13992953 -0.72538304328918457 -0.687703609466552734 -0.0297003127634525299 -0.00105288089253008366
129.642349243164062 37.2787513732910156 8.24569034576416016 314 1644825532.83585644 -0.579264283180236816 -0.814741909503936768 -0.0253590848296880722 -0.00232445797882974148
127.92205810546875 39.25091552734375 8.13809967041015625 315 1644825533.43890309 -0.417542248964309692 -0.907750189304351807 -0.0117078730836510658 -0.0388713963329792023
123.817070007324219 42.5574493408203125 7.7209320068359375 316 1644825534.44245195 -0.337816983461380005 -0.940019547939300537 -0.0147950975224375725 -0.0449888743460178375
115.235984802246094 50.9636878967285156 7.67055511474609375 317 1644825536.5398581 -0.390279561281204224 -0.920602619647979736 -0.00577697437256574631 -0.0118044326081871986
108.124732971191406 58.1710624694824219 7.65092658996582031 318 1644825538.5408411 -0.386297881603240967 -0.922271132469177246 -0.00730373617261648178 -0.0116866333410143852
99.9597854614257812 66.1302108764648438 7.62649011611938477 319 1644825540.639534 -0.379193812608718872 -0.925193428993225098 -0.0053970804437994957 -0.0141445538029074669
90.1433486938476562 76.15789794921875 7.78757810592651367 320 1644825542.73875856 -0.391450345516204834 -0.920197844505310059 -0.00158108642790466547 7.9410820035263896e-05
82.8398284912109375 83.2803421020507812 7.83114767074584961 321 1644825544.24155307 -0.373600035905838013 -0.927589535713195801 -0.00081791682168841362 0.000209170510061085224
79.0378570556640625 86.9922866821289062 7.87627315521240234 322 1644825545.1377871 -0.386031240224838257 -0.922473371028900146 0.000565583060961216688 -0.00473077781498432159
72.4948654174804688 93.8251266479492188 7.92113161087036133 323 1644825547.14017773 -0.397418975830078125 -0.917597472667694092 -0.00604935735464096069 -0.00603617588058114052
66.3748245239257812 100.037269592285156 7.89157867431640625 324 1644825549.24024248 -0.373302429914474487 -0.92769622802734375 0.00189633260015398264 -0.00463078171014785767
60.2316741943359375 105.090011596679688 7.80479288101196289 325 1644825551.23929071 -0.329598397016525269 -0.943892538547515869 -0.00880334991961717606 -0.0188222303986549377
57.3614120483398438 107.495956420898438 7.75927209854125977 326 1644825552.44225717 -0.365813255310058594 -0.930441319942474365 -0.00545894168317317963 -0.020733145996928215
56.3268470764160156 109.144172668457031 7.74196338653564453 327 1644825553.14025497 -0.474084556102752686 -0.880206882953643799 -0.00710134254768490791 -0.0207187607884407043
