# .PCD v0.7 - Point Cloud Data file format
VERSION 0.7
FIELDS x y z intensity roll pitch yaw time
SIZE 4 4 4 4 4 4 4 8
TYPE F F F F F F F F
COUNT 1 1 1 1 1 1 1 1
WIDTH 314
HEIGHT 1
VIEWPOINT 0 0 0 1 0 0 0
POINTS 314
DATA ascii
-201.750625610351562 -118.028472900390625 -9.51348972320556641 262 -0.0155405523255467415 -0.0366093888878822327 -1.56443703174591064 1645008831.94777822
-201.66949462890625 -119.37066650390625 -9.46237373352050781 263 -8.22489746497012675e-05 -0.0397516041994094849 -1.53393411636352539 1645008832.1460824
-201.515640258789062 -120.725753784179688 -9.45727920532226562 264 0.00343612837605178356 -0.0346092022955417633 -1.48633146286010742 1645008832.34628916
-201.27398681640625 -122.103408813476562 -9.46248054504394531 265 -0.00459532346576452255 -0.0285185966640710831 -1.44181501865386963 1645008832.54664683
-201.00634765625 -123.485191345214844 -9.42669486999511719 266 -0.00163553270976990461 -0.0300539769232273102 -1.39249873161315918 1645008832.74654889
-200.660919189453125 -124.8516845703125 -9.32363605499267578 267 -0.00484371604397892952 -0.0330137088894844055 -1.34314513206481934 1645008832.94610119
-200.203536987304688 -126.206947326660156 -9.37089443206787109 268 -0.00499862618744373322 -0.0251449514180421829 -1.28965866565704346 1645008833.14563656
-199.663131713867188 -127.542366027832031 -9.42638301849365234 269 -0.00447820685803890228 -0.0191821437329053879 -1.2379155158996582 1645008833.34601068
-199.138900756835938 -128.916091918945312 -9.29461002349853516 270 -0.0356245450675487518 -0.0283961407840251923 -1.21346485614776611 1645008833.54626322
-198.633163452148438 -130.291351318359375 -9.28306961059570312 271 -0.0296404231339693069 -0.0279714427888393402 -1.20892024040222168 1645008833.74848223
-197.997116088867188 -131.633163452148438 -9.28012561798095703 272 -0.039886869490146637 -0.0210266709327697754 -1.1918567419052124 1645008833.94699049
-197.419219970703125 -132.987777709960938 -9.16755771636962891 273 -0.0410855114459991455 -0.0453751422464847565 -1.1721426248550415 1645008834.14621735
-196.784225463867188 -134.383529663085938 -9.253662109375 274 -0.0216002687811851501 -0.014878259040415287 -1.15790224075317383 1645008834.34760666
-196.170120239257812 -135.759490966796875 -9.31817913055419922 275 -0.0324173420667648315 -0.0171270817518234253 -1.13319003582000732 1645008834.5463407
-195.464584350585938 -137.08404541015625 -9.19718837738037109 276 -0.0269758384674787521 -0.0273792147636413574 -1.11341571807861328 1645008834.74580026
-194.741043090820312 -138.424896240234375 -9.24196052551269531 277 -0.0216897744685411453 -0.0230830144137144089 -1.09279060363769531 1645008834.9460268
-193.9610595703125 -139.740310668945312 -9.19075107574462891 278 -0.0252585988491773605 -0.0202003177255392075 -1.07402718067169189 1645008835.14535427
-193.230606079101562 -141.055572509765625 -9.14487934112548828 279 -0.0190120544284582138 -0.027073228731751442 -1.06144118309020996 1645008835.34537411
-192.491561889648438 -142.418212890625 -9.13585472106933594 280 -0.0185616333037614822 -0.0330289676785469055 -1.04584014415740967 1645008835.5460453
-191.603195190429688 -143.6873779296875 -9.13039588928222656 281 -0.0212577246129512787 -0.0185636729001998901 -1.02785849571228027 1645008835.74581242
-190.778305053710938 -144.952011108398438 -9.12452983856201172 282 -0.0210392903536558151 -0.0161615144461393356 -1.0253368616104126 1645008835.94698787
-190.042755126953125 -146.294357299804688 -9.09266090393066406 283 -0.0219455063343048096 -0.0225284788757562637 -1.02264881134033203 1645008836.14539647
-189.1920166015625 -147.577896118164062 -9.07569122314453125 284 -0.0216713659465312958 -0.0283286869525909424 -1.01919436454772949 1645008836.34599948
-188.380859375 -148.875167846679688 -8.99486637115478516 285 -0.0162028148770332336 -0.0425358489155769348 -1.01598143577575684 1645008836.54580712
-187.535446166992188 -150.163848876953125 -8.95326137542724609 286 -0.0263909697532653809 -0.0273812543600797653 -1.01560986042022705 1645008836.74565387
-186.68310546875 -151.435714721679688 -8.97296810150146484 287 -0.0189006179571151733 -0.034525502473115921 -1.01346373558044434 1645008836.94612885
-185.944992065429688 -152.748687744140625 -8.97513866424560547 288 -0.0195319615304470062 -0.0326912887394428253 -1.00846588611602783 1645008837.14637542
-185.057174682617188 -153.969894409179688 -8.93563270568847656 289 -0.0234582610428333282 -0.0259478185325860977 -1.00356662273406982 1645008837.34599996
-184.218276977539062 -155.158905029296875 -8.91569423675537109 290 -0.0235701892524957657 -0.0213321615010499954 -1.00775980949401855 1645008837.54608798
-183.518402099609375 -156.449981689453125 -8.85325241088867188 291 -0.0315596163272857666 -0.0279618725180625916 -1.00266051292419434 1645008837.74566722
-182.662506103515625 -157.675582885742188 -8.83695507049560547 292 -0.0309280883520841599 -0.0252533312886953354 -0.991087496280670166 1645008837.94638586
-181.82891845703125 -158.756744384765625 -8.80371189117431641 293 -0.0310364514589309692 -0.0345430672168731689 -0.992903649806976318 1645008838.14554286
-181.12939453125 -159.976547241210938 -8.77385616302490234 294 -0.0342095158994197845 -0.0191588457673788071 -1.00309646129608154 1645008838.34587479
-180.349273681640625 -161.1678466796875 -8.77411270141601562 295 -0.0426403731107711792 -0.0224223136901855469 -1.00217342376708984 1645008838.54612088
-179.607177734375 -162.271224975585938 -8.75499820709228516 296 -0.0407959334552288055 -0.0298571642488241196 -1.00601625442504883 1645008838.74622297
-178.928024291992188 -163.384536743164062 -8.72952747344970703 297 -0.0393475368618965149 -0.0225899666547775269 -1.01917445659637451 1645008838.94623017
-178.21612548828125 -164.538711547851562 -8.70367717742919922 298 -0.0367254950106143951 -0.0304077491164207458 -1.02938437461853027 1645008839.14579988
-177.5380859375 -165.70855712890625 -8.70512771606445312 299 -0.0301207005977630615 -0.0225983560085296631 -1.03631985187530518 1645008839.34655881
-176.871246337890625 -166.794952392578125 -8.6972808837890625 300 -0.0356610491871833801 -0.0161911211907863617 -1.04372131824493408 1645008839.54755783
-176.22308349609375 -167.905487060546875 -8.68041896820068359 301 -0.0356781408190727234 -0.0239774752408266068 -1.04978513717651367 1645008839.74614835
-175.556854248046875 -169.036102294921875 -8.57707309722900391 302 -0.02765657939016819 -0.0341493450105190277 -1.05952370166778564 1645008839.94527555
-174.953903198242188 -170.218658447265625 -8.60463237762451172 303 -0.0229472983628511429 -0.0287756361067295074 -1.07084465026855469 1645008840.1448884
-174.24932861328125 -171.44281005859375 -8.59754371643066406 304 -0.0166254565119743347 -0.0346844866871833801 -1.06097126007080078 1645008840.34542704
-173.493759155273438 -172.549652099609375 -8.53612232208251953 305 -0.0154182882979512215 -0.0268448982387781143 -1.0522453784942627 1645008840.54674888
-172.868545532226562 -173.776214599609375 -8.57607269287109375 306 -0.0114993182942271233 -0.0189110133796930313 -1.04947614669799805 1645008840.74682474
-172.093185424804688 -175.076492309570312 -8.60069751739501953 307 -0.0199889466166496277 -0.0202683210372924805 -1.03035414218902588 1645008840.94492388
-171.269546508789062 -176.195526123046875 -8.52355670928955078 308 -0.0137865291908383369 -0.0285880491137504578 -1.01419937610626221 1645008841.14508033
-170.526168823242188 -177.381591796875 -8.49744701385498047 309 -0.0129921240732073784 -0.0264534484595060349 -1.01419401168823242 1645008841.34491181
-169.753250122070312 -178.70513916015625 -8.53296375274658203 310 -0.0171323418617248535 -0.0303049199283123016 -1.00769615173339844 1645008841.54656029
-168.888717651367188 -179.886062622070312 -8.46669292449951172 311 -0.0105960201472043991 -0.0196437779814004898 -1.00413906574249268 1645008841.74690485
-168.140853881835938 -181.05029296875 -8.39188766479492188 312 -0.0240180641412734985 -0.0179123152047395706 -1.01450836658477783 1645008841.94576454
-167.320281982421875 -182.479736328125 -8.47480392456054688 313 -0.0221558008342981339 -0.0198841076344251633 -1.00776505470275879 1645008842.14566445
-166.45782470703125 -183.678146362304688 -8.37881374359130859 314 -0.0257795117795467377 -0.0322815403342247009 -1.00735616683959961 1645008842.34645581
-165.673934936523438 -184.922393798828125 -8.3443603515625 315 -0.0193514954298734665 -0.0299654453992843628 -1.01265525817871094 1645008842.54512286
-164.848678588867188 -186.263824462890625 -8.38548469543457031 316 -0.0164645947515964508 -0.0288374051451683044 -1.01518785953521729 1645008842.74562812
-164.035736083984375 -187.511611938476562 -8.28674793243408203 317 -0.0180699322372674942 -0.0207696296274662018 -1.02007496356964111 1645008842.94520068
-163.247543334960938 -188.870803833007812 -8.32940483093261719 318 -0.0222924966365098953 -0.025193430483341217 -1.02099752426147461 1645008843.14572954
-162.365402221679688 -190.118927001953125 -8.25350856781005859 319 -0.0221035238355398178 -0.0259287841618061066 -1.02297568321228027 1645008843.34598756
-161.650497436523438 -191.380035400390625 -8.2295989990234375 320 -0.0202357154339551926 -0.024911956861615181 -1.03314530849456787 1645008843.54506588
-160.817230224609375 -192.779678344726562 -8.22705364227294922 321 -0.0262992940843105316 -0.0287499018013477325 -1.03084909915924072 1645008843.74808073
-159.974136352539062 -194.006195068359375 -8.11804294586181641 322 -0.0330344103276729584 -0.0294988099485635757 -1.0334399938583374 1645008843.94651818
-159.262374877929688 -195.331024169921875 -8.08671760559082031 323 -0.0162848737090826035 -0.0513994842767715454 -1.03864145278930664 1645008844.14546847
-158.416763305664062 -196.724578857421875 -8.05636405944824219 324 -0.0275620818138122559 -0.0305699743330478668 -1.03304851055145264 1645008844.34583163
-157.57733154296875 -197.91619873046875 -8.03394508361816406 325 -0.0455240234732627869 -0.0373557768762111664 -1.03471517562866211 1645008844.54619503
-156.882278442382812 -199.269058227539062 -8.08024215698242188 326 -0.0310212895274162292 -0.0229065455496311188 -1.0397334098815918 1645008844.74625111
-156.016189575195312 -200.60540771484375 -7.90262079238891602 327 -0.0370864532887935638 -0.044282909482717514 -1.03282666206359863 1645008844.94744134
-155.202667236328125 -201.902938842773438 -7.78835201263427734 328 -0.0312894582748413086 -0.0604309067130088806 -1.03282666206359863 1645008845.14603019
-154.365036010742188 -203.2471923828125 -7.80409002304077148 329 -0.0344585031270980835 -0.0539159253239631653 -1.02538657188415527 1645008845.34625506
-153.556243896484375 -204.4505615234375 -7.8475346565246582 330 -0.0291684046387672424 -0.0496198758482933044 -1.02224218845367432 1645008845.54600596
-152.810623168945312 -205.71881103515625 -7.76382589340209961 331 -0.0192878488451242447 -0.030051007866859436 -1.03483343124389648 1645008845.74685001
-152.033401489257812 -207.070037841796875 -7.67305850982666016 332 -0.0332999415695667267 -0.0270582810044288635 -1.03470349311828613 1645008845.94724011
-151.216995239257812 -208.40728759765625 -7.70969009399414062 333 -0.037389855831861496 -0.0412296950817108154 -1.03094208240509033 1645008846.14675522
-150.368759155273438 -209.705032348632812 -7.60542058944702148 334 -0.0336662046611309052 -0.0392968170344829559 -1.02420544624328613 1645008846.34639359
-149.558761596679688 -210.93914794921875 -7.53767204284667969 335 -0.0398819819092750549 -0.0439371280372142792 -1.02783262729644775 1645008846.54626298
-148.813034057617188 -212.228958129882812 -7.46214580535888672 336 -0.0351626873016357422 -0.0492899417877197266 -1.03198814392089844 1645008846.74648857
-147.996353149414062 -213.594375610351562 -7.42097377777099609 337 -0.0466918572783470154 -0.0523725710809230804 -1.02259325981140137 1645008846.94780421
-147.067306518554688 -214.884170532226562 -7.38349103927612305 338 -0.0388284064829349518 -0.0561770983040332794 -1.01550281047821045 1645008847.14787483
-146.326248168945312 -216.104904174804688 -7.25617694854736328 339 -0.0417308807373046875 -0.0522401779890060425 -1.01959049701690674 1645008847.34744859
-145.553924560546875 -217.425277709960938 -7.24141025543212891 340 -0.0405346564948558807 -0.048511698842048645 -1.01838374137878418 1645008847.54766273
-144.683319091796875 -218.716094970703125 -7.15540695190429688 341 -0.033933199942111969 -0.0586342886090278625 -1.01519238948822021 1645008847.74761033
-143.919754028320312 -220.013839721679688 -7.07564163208007812 342 -0.035500258207321167 -0.0539949648082256317 -1.01499104499816895 1645008847.94748878
-143.017745971679688 -221.336029052734375 -7.10268306732177734 343 -0.0326438248157501221 -0.0490684844553470612 -1.00650298595428467 1645008848.14843249
-142.187301635742188 -222.504440307617188 -6.95404434204101562 344 -0.0343762673437595367 -0.052915278822183609 -1.01314282417297363 1645008848.34896445
-141.491622924804688 -223.767333984375 -6.95556020736694336 345 -0.0399007648229598999 -0.0546929091215133667 -1.01909756660461426 1645008848.54880595
-140.642303466796875 -225.153762817382812 -6.86219167709350586 346 -0.0328369401395320892 -0.0602763071656227112 -1.00954723358154297 1645008848.74940681
-139.784530639648438 -226.351776123046875 -6.7244110107421875 347 -0.032956637442111969 -0.0594956427812576294 -1.01091420650482178 1645008848.94915581
-139.006576538085938 -227.6190185546875 -6.70313119888305664 348 -0.0314660258591175079 -0.066663689911365509 -1.01693105697631836 1645008849.14897776
-138.20458984375 -228.918960571289062 -6.5663456916809082 349 -0.02533734031021595 -0.0698188990354537964 -1.01662600040435791 1645008849.34946156
-137.40008544921875 -230.196258544921875 -6.52709293365478516 350 -0.0220916885882616043 -0.0690049752593040466 -1.01683616638183594 1645008849.54773331
-136.57012939453125 -231.50274658203125 -6.40718793869018555 351 -0.0300971157848834991 -0.0689993128180503845 -1.0112987756729126 1645008849.74926805
-135.761337280273438 -232.665786743164062 -6.29575777053833008 352 -0.025038503110408783 -0.0725328177213668823 -1.01610124111175537 1645008849.95022559
-135.006134033203125 -233.966934204101562 -6.29221153259277344 353 -0.0305855646729469299 -0.0674770399928092957 -1.02197623252868652 1645008850.14876056
-134.19390869140625 -235.32501220703125 -6.20615148544311523 354 -0.0243684723973274231 -0.0762709379196166992 -1.00706350803375244 1645008850.35088611
-133.30279541015625 -236.4652099609375 -6.10217618942260742 355 -0.0285223051905632019 -0.0704013854265213013 -1.00636684894561768 1645008850.55031776
-132.57330322265625 -237.681930541992188 -6.03782033920288086 356 -0.0279685724526643753 -0.0691119357943534851 -1.0216752290725708 1645008850.7513845
-131.780487060546875 -239.031265258789062 -5.90237998962402344 357 -0.0346911028027534485 -0.071071818470954895 -1.00750350952148438 1645008850.95101118
-130.942474365234375 -240.212478637695312 -5.82344865798950195 358 -0.0328261442482471466 -0.0722792670130729675 -1.00895524024963379 1645008851.14931583
-130.163818359375 -241.477798461914062 -5.73793411254882812 359 -0.0323049239814281464 -0.0747488588094711304 -1.00934433937072754 1645008851.35187387
-129.346298217773438 -242.74627685546875 -5.62209987640380859 360 -0.0340681634843349457 -0.0759032890200614929 -0.999224007129669189 1645008851.55025363
-128.503875732421875 -243.916793823242188 -5.57143974304199219 361 -0.02400946244597435 -0.0698319375514984131 -1.00439274311065674 1645008851.74739265
-127.7484130859375 -245.17828369140625 -5.44497776031494141 362 -0.024183196946978569 -0.0762234702706336975 -1.00591301918029785 1645008851.95225668
-126.918838500976562 -246.458602905273438 -5.35406303405761719 363 -0.0217368677258491516 -0.0705435276031494141 -0.992068231105804443 1645008852.14886379
-126.056625366210938 -247.598846435546875 -5.24938869476318359 364 -0.0179846547544002533 -0.0814092755317687988 -0.981904923915863037 1645008852.34746623
-125.263137817382812 -248.835342407226562 -5.09619855880737305 365 -0.0162078812718391418 -0.0835618078708648682 -0.971372842788696289 1645008852.54666829
-124.362869262695312 -250.122146606445312 -5.10536718368530273 366 -0.0122482869774103165 -0.0750700980424880981 -0.94365006685256958 1645008852.75086093
-123.426437377929688 -251.267486572265625 -4.95955562591552734 367 -0.037364523857831955 -0.0811657905578613281 -0.938062191009521484 1645008852.95024323
-122.589210510253906 -252.39105224609375 -4.86420869827270508 368 -0.0206979624927043915 -0.086805686354637146 -0.964186251163482666 1645008853.14878607
-121.785179138183594 -253.621414184570312 -4.81881618499755859 369 -0.0214863140136003494 -0.0744674205780029297 -0.974167108535766602 1645008853.34718561
-120.888916015625 -254.833999633789062 -4.74817419052124023 370 0.0016396727878600359 -0.0707285031676292419 -0.954700291156768799 1645008853.54509234
-119.990829467773438 -255.926239013671875 -4.62813615798950195 371 -0.0146008748561143875 -0.0762382000684738159 -0.927082538604736328 1645008853.74626493
-119.085418701171875 -257.10076904296875 -4.46467304229736328 372 -0.0143417306244373322 -0.0747486278414726257 -0.907174408435821533 1645008853.9471221
-118.09100341796875 -258.263519287109375 -4.47273778915405273 373 -0.0126453284174203873 -0.069516398012638092 -0.870495438575744629 1645008854.14912081
-117.052658081054688 -259.34637451171875 -4.33350944519042969 374 -0.0284680388867855072 -0.0690814107656478882 -0.835376262664794922 1645008854.34653568
-115.995681762695312 -260.323272705078125 -4.29058218002319336 375 -0.0146178435534238815 -0.0736207142472267151 -0.813655376434326172 1645008854.54652405
-114.993255615234375 -261.37066650390625 -4.15959453582763672 376 -0.0285285171121358871 -0.0640561282634735107 -0.794965565204620361 1645008854.7483232
-113.917922973632812 -262.405059814453125 -4.03911542892456055 377 -0.01788351871073246 -0.0820972472429275513 -0.762966573238372803 1645008854.94598269
-112.789390563964844 -263.344573974609375 -3.97204756736755371 378 -0.0211327560245990753 -0.078612305223941803 -0.744148612022399902 1645008855.14688754
-111.67913818359375 -264.320159912109375 -4.01514101028442383 379 -0.011007293127477169 -0.0503900237381458282 -0.731960296630859375 1645008855.34846616
-110.524948120117188 -265.21875 -3.83795499801635742 380 -0.0339903794229030609 -0.0959468036890029907 -0.713527143001556396 1645008855.54720855
-109.389747619628906 -266.141754150390625 -3.7225334644317627 381 -0.001890716259367764 -0.0794635415077209473 -0.733942091464996338 1645008855.74742389
-108.351341247558594 -267.07928466796875 -3.65874385833740234 382 -0.0116124078631401062 -0.0752437934279441833 -0.757946908473968506 1645008855.94881082
-107.318878173828125 -268.184295654296875 -3.58919644355773926 383 -0.0396899357438087463 -0.0723143219947814941 -0.739505887031555176 1645008856.1473062
-106.124397277832031 -269.189422607421875 -3.48468184471130371 384 -0.0370423384010791779 -0.0330978892743587494 -0.716088831424713135 1645008856.34644055
-104.943504333496094 -270.01629638671875 -3.4436638355255127 385 -0.0596961043775081635 -0.10506901890039444 -0.706204414367675781 1645008856.54667473
-103.819511413574219 -270.98114013671875 -3.36629104614257812 386 -0.0224486775696277618 -0.0582515709102153778 -0.72990119457244873 1645008856.74795389
-102.766044616699219 -271.985137939453125 -3.23322916030883789 387 -0.0573667101562023163 -0.0866151303052902222 -0.74369359016418457 1645008856.94864988
-101.654411315917969 -273.01788330078125 -3.17505717277526855 388 -0.050321776419878006 -0.0440657027065753937 -0.770579636096954346 1645008857.1481328
-100.636375427246094 -274.03472900390625 -3.10655903816223145 389 -0.0593417063355445862 -0.0757477283477783203 -0.773437321186065674 1645008857.34868145
-99.6673812866210938 -275.067138671875 -2.89671707153320312 390 -0.0637014731764793396 -0.0621850490570068359 -0.821219921112060547 1645008857.54888368
-98.7408905029296875 -276.23822021484375 -2.91693925857543945 391 -0.0249651391059160233 -0.06903114914894104 -0.821492195129394531 1645008857.7449584
-97.648529052734375 -277.235198974609375 -2.63296771049499512 392 -0.0568113699555397034 -0.0976544395089149475 -0.804753959178924561 1645008857.94491148
-96.64794921875 -278.2928466796875 -2.66106104850769043 393 -0.0269226711243391037 -0.0816797167062759399 -0.835767805576324463 1645008858.14655089
-95.7123260498046875 -279.37786865234375 -2.52350354194641113 394 -0.042005293071269989 -0.0871144235134124756 -0.851307809352874756 1645008858.34671688
-94.7749557495117188 -280.51751708984375 -2.47761106491088867 395 -0.0321622192859649658 -0.0794507116079330444 -0.870783209800720215 1645008858.54936647
-93.863433837890625 -281.677764892578125 -2.34590888023376465 396 -0.0438860394060611725 -0.0778573676943778992 -0.876480162143707275 1645008858.74531293
-92.8711395263671875 -282.809326171875 -2.26983404159545898 397 -0.0315230041742324829 -0.0729622691869735718 -0.868904411792755127 1645008858.94663334
-91.9268951416015625 -283.85443115234375 -2.13254594802856445 398 -0.0182575583457946777 -0.0958512723445892334 -0.877522289752960205 1645008859.14868498
-90.9992294311523438 -285.010467529296875 -2.0964200496673584 399 -0.0315652675926685333 -0.0701979398727416992 -0.882083117961883545 1645008859.34472108
-90.0582962036132812 -286.198455810546875 -2.12365174293518066 400 -0.0149727417156100273 -0.0568457730114459991 -0.873573124408721924 1645008859.54454398
-89.1313629150390625 -287.24725341796875 -1.86135494709014893 401 -0.0357530452311038971 -0.0967419221997261047 -0.86352086067199707 1645008859.74516487
-88.1140213012695312 -288.4705810546875 -2.05263090133666992 402 -0.00774688413366675377 -0.0641119778156280518 -0.874962925910949707 1645008859.94559026
-87.1329498291015625 -289.481842041015625 -1.67569077014923096 403 -0.0511551834642887115 -0.124767273664474487 -0.843626737594604492 1645008860.14663887
-86.0926589965820312 -290.460693359375 -1.5405879020690918 404 -0.0265631433576345444 -0.119740478694438934 -0.824834764003753662 1645008860.34905052
-85.1839447021484375 -291.481292724609375 -1.30836176872253418 405 -0.0522001944482326508 -0.0951460376381874084 -0.83237534761428833 1645008860.55233479
-84.2478561401367188 -292.720458984375 -1.51427245140075684 406 -0.0177454762160778046 -0.0830365791916847229 -0.863110840320587158 1645008860.75105977
-83.2026901245117188 -293.834747314453125 -1.34351921081542969 407 -0.0326769500970840454 -0.0788304656744003296 -0.862792789936065674 1645008860.95022106
-82.2888259887695312 -294.8731689453125 -1.16326022148132324 408 -0.0335989780724048615 -0.0967309251427650452 -0.873071610927581787 1645008861.1495626
-81.3270034790039062 -295.9951171875 -1.1309736967086792 409 -0.04584459587931633 -0.0858470499515533447 -0.879677474498748779 1645008861.34894443
-80.4296340942382812 -297.107421875 -1.01103901863098145 410 -0.0278442986309528351 -0.0806964486837387085 -0.893851161003112793 1645008861.54404807
-79.5384292602539062 -298.14727783203125 -0.947399258613586426 411 -0.0187937449663877487 -0.0746556147933006287 -0.9042854905128479 1645008861.74426579
-78.684600830078125 -299.347015380859375 -0.788278162479400635 412 -0.0342408791184425354 -0.0923394784331321716 -0.91188424825668335 1645008861.94547701
-77.7344970703125 -300.521453857421875 -0.584152698516845703 413 -0.0308242328464984894 -0.0936619266867637634 -0.905914843082427979 1645008862.1452899
-76.7584304809570312 -301.701019287109375 -0.608884334564208984 414 -0.0369262769818305969 -0.0861760526895523071 -0.891768932342529297 1645008862.34736538
-75.832763671875 -302.7547607421875 -0.400041162967681885 415 -0.0283127911388874054 -0.082136400043964386 -0.896663904190063477 1645008862.54616737
-74.9670333862304688 -303.87493896484375 -0.345570802688598633 416 -0.0156705994158983231 -0.101203061640262604 -0.891419529914855957 1645008862.74634004
-74.0205078125 -305.06689453125 -0.219595581293106079 417 -0.0469542928040027618 -0.0717446431517601013 -0.879647314548492432 1645008862.94592261
-72.976165771484375 -306.13604736328125 -0.204444453120231628 418 -0.0220772679895162582 -0.0802728906273841858 -0.856286048889160156 1645008863.14603233
-72.0849533081054688 -307.124847412109375 0.0398180224001407623 419 -0.0490421652793884277 -0.0824003890156745911 -0.8535614013671875 1645008863.34504437
-71.129486083984375 -308.315155029296875 -0.0177217163145542145 420 -0.00629701884463429451 -0.0681696534156799316 -0.841457366943359375 1645008863.54545498
-70.0247116088867188 -309.374237060546875 0.164091438055038452 421 -0.0361602082848548889 -0.0827697440981864929 -0.809369206428527832 1645008863.7444551
-69.0545120239257812 -310.326202392578125 0.282322496175765991 422 -0.00839103572070598602 -0.0853257328271865845 -0.803493857383728027 1645008863.94447112
-68.0138397216796875 -311.341461181640625 0.33701711893081665 423 -0.0436623506247997284 -0.0812224894762039185 -0.790313661098480225 1645008864.14451504
-66.9386978149414062 -312.385009765625 0.385820358991622925 424 -0.0260228794068098068 -0.0757183954119682312 -0.773519515991210938 1645008864.34476352
-65.8905868530273438 -313.30010986328125 0.614466547966003418 425 -0.038811851292848587 -0.0979884788393974304 -0.7565498948097229 1645008864.5442555
-64.8574676513671875 -314.340667724609375 0.675522983074188232 426 -0.0224515087902545929 -0.0958447828888893127 -0.75364983081817627 1645008864.74460721
-63.7578163146972656 -315.3590087890625 0.81515812873840332 427 -0.00973193906247615814 -0.0967365652322769165 -0.740276455879211426 1645008864.94537568
-62.6131362915039062 -316.30560302734375 0.927863180637359619 428 -0.0156377367675304413 -0.0772702470421791077 -0.723950326442718506 1645008865.14438033
-61.4834861755371094 -317.234375 0.927143633365631104 429 -0.015406433492898941 -0.0731314942240715027 -0.710176825523376465 1645008865.34452748
-60.3391952514648438 -318.13958740234375 1.08615612983703613 430 -0.0273028053343296051 -0.0743521377444267273 -0.699436545372009277 1645008865.54395962
-59.2712631225585938 -319.024749755859375 1.22203373908996582 431 -0.0288557093590497971 -0.0852052867412567139 -0.697687625885009766 1645008865.74599361
-58.1390800476074219 -319.999969482421875 1.24203050136566162 432 -0.0183490756899118423 -0.0842994675040245056 -0.693065822124481201 1645008865.94431257
-57.0111579895019531 -320.931060791015625 1.40655815601348877 433 -0.0216895397752523422 -0.0830174833536148071 -0.690114259719848633 1645008866.14455366
-55.8405570983886719 -321.79840087890625 1.55075597763061523 434 -0.0184281989932060242 -0.0990127250552177429 -0.682919204235076904 1645008866.34440207
-54.8004035949707031 -322.7276611328125 1.61822736263275146 435 -0.0169587396085262299 -0.0950151458382606506 -0.692266106605529785 1645008866.54494071
-53.5450897216796875 -323.748504638671875 1.69165658950805664 436 -0.0109104728326201439 -0.0826116502285003662 -0.687252223491668701 1645008866.74511361
-52.237884521484375 -324.630462646484375 1.72396087646484375 437 -0.0213007610291242599 -0.0599607564508914948 -0.665496468544006348 1645008866.94454813
-51.2768020629882812 -325.32403564453125 1.88861870765686035 438 -0.0409969314932823181 -0.09963979572057724 -0.675310194492340088 1645008867.1457088
-50.2895927429199219 -326.31463623046875 1.94938957691192627 439 -0.0303631257265806198 -0.0917828455567359924 -0.700444817543029785 1645008867.34487462
-48.932373046875 -327.247283935546875 2.1429595947265625 440 -0.0518115311861038208 -0.115468963980674744 -0.678905606269836426 1645008867.54553175
-47.7099800109863281 -328.096038818359375 2.13482189178466797 441 -0.0724387839436531067 -0.072249971330165863 -0.665964961051940918 1645008867.74709535
-46.6171722412109375 -329.04730224609375 2.24206638336181641 442 -0.0707228928804397583 -0.0646491944789886475 -0.673993825912475586 1645008867.94965863
-45.4180335998535156 -329.94439697265625 2.352081298828125 443 -0.0470512658357620239 -0.0919135436415672302 -0.659589290618896484 1645008868.14791822
-44.3142662048339844 -330.706756591796875 2.48934388160705566 444 -0.0622845441102981567 -0.1093168705701828 -0.662016212940216064 1645008868.34577632
-43.2616691589355469 -331.61419677734375 2.60714149475097656 445 -0.0404851213097572327 -0.0967546850442886353 -0.682177424430847168 1645008868.54542947
-42.0286407470703125 -332.568511962890625 2.75738382339477539 446 -0.0599775426089763641 -0.117104925215244293 -0.667895257472991943 1645008868.74463105
-40.8729286193847656 -333.40740966796875 2.89019322395324707 447 -0.0521752238273620605 -0.100078411400318146 -0.664677321910858154 1645008868.94431901
-39.8518905639648438 -334.182586669921875 2.97396492958068848 448 -0.0514229387044906616 -0.0987846255302429199 -0.666404068470001221 1645008869.14466166
-38.8062553405761719 -335.019012451171875 3.21096444129943848 449 -0.0539538413286209106 -0.114553064107894897 -0.668607473373413086 1645008869.34472013
-37.7262306213378906 -335.86236572265625 3.30793929100036621 450 -0.043092682957649231 -0.109432399272918701 -0.657612740993499756 1645008869.54531574
-36.725311279296875 -336.56982421875 3.43326902389526367 451 -0.0463942661881446838 -0.100370816886425018 -0.648667514324188232 1645008869.74499273
-35.7658843994140625 -337.28033447265625 3.52468967437744141 452 -0.0438787676393985748 -0.10304579883813858 -0.639226078987121582 1645008869.9451015
-34.7647666931152344 -337.966827392578125 3.58695030212402344 453 -0.0456747598946094513 -0.0953300148248672485 -0.620739996433258057 1645008870.14634252
-33.8349418640136719 -338.536529541015625 3.68200922012329102 454 -0.0414367429912090302 -0.100942276418209076 -0.603051960468292236 1645008870.34478116
-32.9371185302734375 -339.1395263671875 3.81090807914733887 455 -0.0459821298718452454 -0.0947561487555503845 -0.585512340068817139 1645008870.54512501
-31.9818649291992188 -339.74853515625 3.92521476745605469 456 -0.0430769622325897217 -0.089555792510509491 -0.558910191059112549 1645008870.74520111
-31.0378093719482422 -340.2403564453125 4.0707859992980957 457 -0.0484706573188304901 -0.100088782608509064 -0.520102798938751221 1645008870.94529891
-29.2358455657958984 -341.01177978515625 4.18485498428344727 458 -0.0508023537695407867 -0.0906953290104866028 -0.44095456600189209 1645008871.34601331
-28.2991828918457031 -341.356903076171875 4.29376792907714844 459 -0.0415236465632915497 -0.103935502469539642 -0.390558570623397827 1645008871.54557085
-27.3207836151123047 -341.63336181640625 4.32519721984863281 460 -0.0356337092816829681 -0.0983858108520507812 -0.328910291194915771 1645008871.74582171
-26.3207283020019531 -341.769500732421875 4.43838691711425781 461 -0.0408269166946411133 -0.102409280836582184 -0.242810919880867004 1645008871.94533038
-25.2772731781005859 -341.87042236328125 4.4902801513671875 462 -0.0429155118763446808 -0.0850970521569252014 -0.150767609477043152 1645008872.14589357
-24.1867961883544922 -341.864288330078125 4.4636235237121582 463 -0.0367415770888328552 -0.0581403821706771851 -0.0470467060804367065 1645008872.34600258
-23.1304645538330078 -341.708282470703125 4.56000137329101562 464 -0.040985938161611557 -0.0526685155928134918 0.0656780526041984558 1645008872.54606223
-22.0381908416748047 -341.364471435546875 4.71992158889770508 465 -0.0382577069103717804 -0.0672684237360954285 0.189579203724861145 1645008872.74905252
-21.0854263305664062 -340.886993408203125 4.50370883941650391 466 -0.0466325059533119202 -0.0497260838747024536 0.327268689870834351 1645008872.94595003
-19.6501274108886719 -340.5113525390625 4.94103860855102539 467 0.0250987652689218521 -0.124117746949195862 0.521186232566833496 1645008873.34734106
-18.8722438812255859 -339.846649169921875 4.92417192459106445 468 -0.0150168836116790771 -0.0962851867079734802 0.607530653476715088 1645008873.54869175
-18.1183185577392578 -338.908233642578125 5.08622169494628906 469 -0.0189209617674350739 -0.0948521196842193604 0.67757183313369751 1645008873.74778628
-17.2279777526855469 -337.716522216796875 5.2728428840637207 470 -0.0296964142471551895 -0.12409934401512146 0.821786046028137207 1645008874.14600396
-16.2780113220214844 -336.4661865234375 5.44094705581665039 471 -0.0405718162655830383 -0.116185516119003296 0.926217317581176758 1645008874.54758668
-15.5065679550170898 -334.959075927734375 5.62905693054199219 472 -0.052240077406167984 -0.108362875878810883 1.02628099918365479 1645008874.94607544
-14.7459049224853516 -333.624969482421875 5.76662015914916992 473 -0.0573804080486297607 -0.111540377140045166 1.05662751197814941 1645008875.34663749
-13.9714622497558594 -332.209869384765625 5.84215450286865234 474 -0.0453688763082027435 -0.0938879773020744324 1.06560659408569336 1645008875.74748611
-13.2865228652954102 -330.77972412109375 6.01309967041015625 475 -0.0447562336921691895 -0.0863865241408348083 1.08707010746002197 1645008876.14780235
-12.59375 -329.28851318359375 6.09720039367675781 476 -0.0453837662935256958 -0.098394639790058136 1.12834906578063965 1645008876.54741287
-12.0017490386962891 -327.766510009765625 6.23543596267700195 477 -0.0394569076597690582 -0.0879385992884635925 1.1806187629699707 1645008876.94727588
-11.5230808258056641 -326.1900634765625 6.34069061279296875 478 -0.0511063821613788605 -0.0894312784075737 1.24551403522491455 1645008877.34756231
-11.1636962890625 -324.5914306640625 6.47235774993896484 479 -0.0592836104333400726 -0.0911832898855209351 1.31027758121490479 1645008877.74811244
-10.8528223037719727 -322.944549560546875 6.5783839225769043 480 -0.069960765540599823 -0.0927481204271316528 1.36411619186401367 1645008878.14767909
-10.6339178085327148 -321.334686279296875 6.69193887710571289 481 -0.0610976777970790863 -0.0896512344479560852 1.40552973747253418 1645008878.54650736
-10.3843660354614258 -319.64703369140625 6.76791048049926758 482 -0.0593140870332717896 -0.0910554677248001099 1.44415795803070068 1645008878.94740033
-10.308018684387207 -317.9765625 6.83986520767211914 483 -0.0353694558143615723 -0.0756286382675170898 1.47956740856170654 1645008879.34890342
-10.1827630996704102 -316.256195068359375 6.96285057067871094 484 -0.0385273247957229614 -0.0678697451949119568 1.51273167133331299 1645008879.74827981
-10.2076015472412109 -314.50213623046875 7.05566787719726562 485 -0.0323948338627815247 -0.0515572912991046906 1.546500563621521 1645008880.14993
-10.2462625503540039 -312.75054931640625 7.07045555114746094 486 -0.0376424305140972137 -0.0552052892744541168 1.58063459396362305 1645008880.54745007
-10.3411149978637695 -310.935882568359375 7.25572633743286133 487 -0.0390180386602878571 -0.0647149384021759033 1.61214494705200195 1645008880.94717979
-10.4411487579345703 -309.130859375 7.27444887161254883 488 -0.0340019352734088898 -0.0579010657966136932 1.62142086029052734 1645008881.34691262
-10.6045646667480469 -307.281341552734375 7.323028564453125 489 -0.0434575006365776062 -0.0574845001101493835 1.63526797294616699 1645008881.74786139
-10.7524852752685547 -305.411224365234375 7.45882511138916016 490 -0.0490462929010391235 -0.0598094910383224487 1.63480889797210693 1645008882.14703298
-10.8529472351074219 -303.5146484375 7.53472185134887695 491 -0.0547679811716079712 -0.0491641275584697723 1.60626852512359619 1645008882.54765344
-10.8024635314941406 -301.594329833984375 7.53988313674926758 492 -0.0390846878290176392 -0.0500245541334152222 1.55940866470336914 1645008882.94640923
-10.7832498550415039 -299.6661376953125 7.62913274765014648 493 -0.0461232885718345642 -0.0536609292030334473 1.55114257335662842 1645008883.34843946
-10.8140392303466797 -298.65203857421875 7.71209383010864258 494 -0.0432060472667217255 -0.0583882518112659454 1.56693446636199951 1645008883.54862142
-10.8664941787719727 -297.64910888671875 7.80846214294433594 495 -0.0460072234272956848 -0.0510320477187633514 1.58073043823242188 1645008883.74897671
-10.8802118301391602 -295.64215087890625 7.76840448379516602 496 -0.0349957980215549469 -0.041276056319475174 1.59610188007354736 1645008884.14844394
-10.9409036636352539 -294.6318359375 7.80896186828613281 497 -0.0359753519296646118 -0.018593471497297287 1.60761392116546631 1645008884.34642625
-11.1586809158325195 -292.803436279296875 7.7617344856262207 498 -0.0311252791434526443 0.00462573999539017677 1.66775274276733398 1645008884.74906945
-11.3406124114990234 -291.2666015625 7.69968032836914062 499 -0.0278473235666751862 0.00795320328325033188 1.63618624210357666 1645008885.14947963
-11.2623558044433594 -289.607025146484375 7.80476713180541992 500 -0.0380989648401737213 -0.0224051829427480698 1.54903066158294678 1645008885.55034685
-11.2401618957519531 -288.02447509765625 7.88541603088378906 501 -0.0416973643004894257 -0.0198331624269485474 1.51106929779052734 1645008885.94761062
-11.0016698837280273 -286.305145263671875 7.86692953109741211 502 -0.0310004614293575287 -0.0184715501964092255 1.48775863647460938 1645008886.3508296
-10.7802906036376953 -284.488037109375 7.77822351455688477 503 -0.0070856860838830471 -0.0292897317558526993 1.46245336532592773 1645008886.74752116
-10.6399297714233398 -282.546234130859375 7.95647430419921875 504 -0.0118653532117605209 -0.01557929627597332 1.46539139747619629 1645008887.1475575
-10.4962387084960938 -281.53350830078125 7.79925346374511719 505 -0.0112534919753670692 -0.00254078861325979233 1.46922016143798828 1645008887.35009027
-10.4720726013183594 -280.49072265625 7.74724960327148438 506 0.0103756841272115707 -0.007800309918820858 1.49578237533569336 1645008887.54970384
-10.4626255035400391 -279.4647216796875 7.75783920288085938 507 0.00628228159621357918 -0.0115519342944025993 1.51715230941772461 1645008887.74844956
-10.3847360610961914 -278.39410400390625 7.76925563812255859 508 0.0190848372876644135 -0.00270002475008368492 1.53054964542388916 1645008887.94943118
-10.3727970123291016 -277.289459228515625 7.75459909439086914 509 0.0207551084458827972 0.000683973368722945452 1.54751217365264893 1645008888.1480372
-10.3799381256103516 -276.15716552734375 7.71381950378417969 510 0.0299124624580144882 0.0028271328192204237 1.56463897228240967 1645008888.34977388
-10.4201650619506836 -275.00494384765625 7.69785499572753906 511 0.0173096600919961929 0.00186713028233498335 1.57681393623352051 1645008888.54875112
-10.4417695999145508 -273.85986328125 7.67567253112792969 512 0.0171460062265396118 0.000399186712456867099 1.57340836524963379 1645008888.74901319
-10.4285545349121094 -272.715362548828125 7.66081476211547852 513 0.00862336717545986176 -0.00221289228647947311 1.56251716613769531 1645008888.94848132
-10.389348030090332 -271.544219970703125 7.60637664794921875 514 0.0118606220930814743 -0.00675326166674494743 1.5432887077331543 1645008889.14700365
-10.3307352066040039 -270.274139404296875 7.5262455940246582 515 0.0245010852813720703 0.0213814489543437958 1.53227591514587402 1645008889.34621167
-10.305079460144043 -269.034759521484375 7.51186752319335938 516 0.0124373910948634148 0.0184075012803077698 1.52056980133056641 1645008889.54913282
-10.2572250366210938 -267.84375 7.45368576049804688 517 0.0149752125144004822 -0.00890322960913181305 1.51161670684814453 1645008889.7511313
-10.1532087326049805 -266.559295654296875 7.49306201934814453 518 -0.00586172332987189293 -0.00319162174127995968 1.49219298362731934 1645008889.95180464
-10.0487098693847656 -265.22308349609375 7.491302490234375 519 -0.00470899930223822594 -0.000263496418483555317 1.47294008731842041 1645008890.15107894
-9.91329574584960938 -263.956085205078125 7.53210115432739258 520 -0.00716430274769663811 -0.0173516720533370972 1.44795489311218262 1645008890.34870672
-9.67686557769775391 -262.726104736328125 7.45106315612792969 521 0.00608818605542182922 -0.00500522414222359657 1.41546130180358887 1645008890.55098724
-9.35900020599365234 -261.4315185546875 7.44906377792358398 522 0.00388083583675324917 0.00342784449458122253 1.38939297199249268 1645008890.74702024
-9.06672859191894531 -260.05712890625 7.39921092987060547 523 0.0100084878504276276 0.00619293795898556709 1.35904359817504883 1645008890.94685006
-8.77032375335693359 -258.673431396484375 7.40790939331054688 524 0.00292744883336126804 0.00744209904223680496 1.3383406400680542 1645008891.14996338
-8.44682025909423828 -257.319000244140625 7.38273715972900391 525 0.000453678250778466463 0.00266204914078116417 1.31834673881530762 1645008891.34560108
-8.05299186706542969 -256.06787109375 7.35733222961425781 526 0.00213448796421289444 -0.00440105516463518143 1.29239070415496826 1645008891.54641342
-7.57818078994750977 -254.731307983398438 7.26593875885009766 527 0.0185078568756580353 -0.00430457992479205132 1.2703242301940918 1645008891.75010204
-7.15694379806518555 -253.262008666992188 7.22407865524291992 528 0.0143236257135868073 0.0118902949616312981 1.26619970798492432 1645008891.94507837
-6.78012895584106445 -251.865478515625 7.17398500442504883 529 0.0161754004657268524 0.0121614979580044746 1.26419460773468018 1645008892.14563036
-6.32053756713867188 -250.581649780273438 7.15165901184082031 530 0.0115073788911104202 0.00743485754355788231 1.24894154071807861 1645008892.34540749
-5.81558656692504883 -249.176300048828125 7.12453222274780273 531 0.0124242380261421204 0.00332278315909206867 1.23913383483886719 1645008892.54385161
-5.39480495452880859 -247.750213623046875 7.09623336791992188 532 0.00989517476409673691 -0.000344619416864588857 1.23983466625213623 1645008892.74469829
-4.86648988723754883 -246.411651611328125 7.08072948455810547 533 0.00406245281919836998 0.000954457733314484358 1.22393226623535156 1645008892.94751406
-4.29475736618041992 -244.955078125 7.07617855072021484 534 0.00488518271595239639 0.00932459346950054169 1.20702171325683594 1645008893.14963579
-3.80593132972717285 -243.537445068359375 6.96193790435791016 535 0.00929663330316543579 0.000940988888032734394 1.19830691814422607 1645008893.34789777
-3.23754668235778809 -242.161865234375 7.03904485702514648 536 0.012834758497774601 0.000777916400693356991 1.18437838554382324 1645008893.54515409
-2.68430757522583008 -240.766403198242188 6.96474123001098633 537 0.00309354602359235287 0.0189307071268558502 1.16900992393493652 1645008893.74605656
-2.06234860420227051 -239.389663696289062 6.88997411727905273 538 -0.0071798018179833889 0.000438195362221449614 1.15726375579833984 1645008893.94910097
-1.47902083396911621 -237.883468627929688 6.88992929458618164 539 -0.0279345009475946426 -0.00128415983635932207 1.15403616428375244 1645008894.14447474
-0.87926095724105835 -236.586517333984375 6.85506057739257812 540 -0.0293266363441944122 0.0060060722753405571 1.12841951847076416 1645008894.34603119
-0.16284671425819397 -235.329421997070312 6.81274747848510742 541 -0.0277520902454853058 0.000549508375115692616 1.0897984504699707 1645008894.55093598
0.656393766403198242 -234.002822875976562 6.79731845855712891 542 -0.0281430203467607498 0.0216851867735385895 1.04963827133178711 1645008894.74427247
1.375343918800354 -232.815811157226562 6.85396051406860352 543 -0.0313599519431591034 -0.0146795166656374931 1.00573229789733887 1645008894.9438448
2.18713641166687012 -231.702041625976562 6.88816261291503906 544 -0.0113783339038491249 -0.0162786673754453659 0.95399177074432373 1645008895.14941144
3.09547710418701172 -230.597732543945312 6.85497045516967773 545 -0.00726461829617619514 -0.000313268188619986176 0.909793317317962646 1645008895.34437656
3.9889371395111084 -229.547576904296875 6.83715105056762695 546 -0.00954395066946744919 -0.00015390572661999613 0.870276689529418945 1645008895.55000114
4.89677333831787109 -228.558090209960938 6.80851840972900391 547 -0.00638259341940283775 0.00218959525227546692 0.836755812168121338 1645008895.74587321
5.80841398239135742 -227.583023071289062 6.82890987396240234 548 0.000562000088393688202 -0.00764117809012532234 0.817082464694976807 1645008895.94855404
6.70639801025390625 -226.652053833007812 6.84645462036132812 549 0.00504449661821126938 -0.00960505101829767227 0.801747798919677734 1645008896.14400911
7.63148117065429688 -225.765533447265625 6.86277866363525391 550 0.00307127740234136581 -0.00280773756094276905 0.785109460353851318 1645008896.343822
8.55808162689208984 -224.844070434570312 6.81017637252807617 551 -0.000424576835939660668 -0.00285100005567073822 0.772130370140075684 1645008896.54454088
9.463165283203125 -223.983795166015625 6.76910114288330078 552 0.0044847242534160614 -0.00376352760940790176 0.757529020309448242 1645008896.74318504
10.3850154876708984 -223.13568115234375 6.78482866287231445 553 -0.00350783835165202618 0.000358295015757903457 0.742648422718048096 1645008896.94309711
11.2966203689575195 -222.296981811523438 6.82983922958374023 554 -0.00357119995169341564 -0.015591808594763279 0.731216013431549072 1645008897.14309525
12.2056188583374023 -221.502059936523438 6.81952571868896484 555 -0.00105391826946288347 -0.00848310906440019608 0.71673429012298584 1645008897.34336305
13.1269989013671875 -220.726715087890625 6.81775760650634766 556 -0.000579117448069155216 -0.0056552104651927948 0.704616427421569824 1645008897.54703379
14.0586881637573242 -219.967605590820312 6.83056831359863281 557 0.000499361369293183088 -0.0136635797098278999 0.690232634544372559 1645008897.74563694
14.9823112487792969 -219.213409423828125 6.79884958267211914 558 -0.00566186662763357162 -0.00789581052958965302 0.677899420261383057 1645008897.9428401
15.8970937728881836 -218.497085571289062 6.80279397964477539 559 0.00205657468177378178 -0.00855997763574123383 0.663877964019775391 1645008898.14341617
16.7903327941894531 -217.804931640625 6.76914548873901367 560 0.000367089000064879656 -0.00401358120143413544 0.65171128511428833 1645008898.34309149
17.6703414916992188 -217.152008056640625 6.75877141952514648 561 -8.17938125692307949e-05 -0.00205148733220994473 0.639208495616912842 1645008898.54280663
18.5507907867431641 -216.499618530273438 6.75335359573364258 562 -0.00629341276362538338 -0.0038762709591537714 0.628096699714660645 1645008898.74366879
19.439605712890625 -215.837051391601562 6.75729131698608398 563 -0.00335742998868227005 -0.00295209744945168495 0.625239908695220947 1645008898.94243336
20.3424167633056641 -215.167098999023438 6.70730304718017578 564 -0.0133620388805866241 -0.00246491958387196064 0.631147980690002441 1645008899.14272809
21.2347679138183594 -214.425811767578125 6.82125568389892578 565 -0.0048019997775554657 0.00761211151257157326 0.635168969631195068 1645008899.34769297
22.7725296020507812 -213.391098022460938 6.7867436408996582 566 -0.00496283452957868576 -0.0168894995003938675 0.619138062000274658 1645008899.74625802
24.4292087554931641 -212.286407470703125 6.86433982849121094 567 0.000791515223681926727 -0.0242874659597873688 0.614877641201019287 1645008900.14366388
25.8264007568359375 -211.1524658203125 6.95070648193359375 568 0.0176418665796518326 -0.00181527715176343918 0.652914345264434814 1645008900.54679155
27.00299072265625 -210.101791381835938 6.9033660888671875 569 0.00153564405627548695 -0.0193654131144285202 0.723104357719421387 1645008900.94818091
27.9997386932373047 -208.956710815429688 6.90968704223632812 570 -0.00931102875620126724 -0.000748065474908798933 0.775374412536621094 1645008901.34720469
28.9468498229980469 -207.944351196289062 6.92010021209716797 571 0.0023163873702287674 -0.01351148821413517 0.809462428092956543 1645008901.74789762
29.7444324493408203 -207.003585815429688 6.99531078338623047 572 -0.00235795066691935062 -0.0264554955065250397 0.837561488151550293 1645008902.14753413
30.7015361785888672 -205.813949584960938 6.94474220275878906 573 -0.0129034174606204033 -0.0329097360372543335 0.860200941562652588 1645008902.54498982
31.6027259826660156 -204.62042236328125 6.8751673698425293 574 -0.00518889632076025009 0.017706679180264473 0.895654559135437012 1645008902.94483733
32.2640304565429688 -203.362945556640625 6.93221187591552734 575 -0.00259262439794838428 -0.0214730799198150635 1.0174027681350708 1645008903.34820461
