# .PCD v0.7 - Point Cloud Data file format
VERSION 0.7
FIELDS x y z intensity roll pitch yaw time
SIZE 4 4 4 4 4 4 4 8
TYPE F F F F F F F F
COUNT 1 1 1 1 1 1 1 1
WIDTH 317
HEIGHT 1
VIEWPOINT 0 0 0 1 0 0 0
POINTS 317
DATA ascii
-82.5108489990234375 64.6717910766601562 -9.60087776184082031 147 0.0251852739602327347 0.000181502691702917218 1.12729728221893311 1644760174.46036911
-81.9219512939453125 65.9753036499023438 -9.54703617095947266 148 0.0272025242447853088 0.000775990949478000402 1.13243710994720459 1644760174.66033053
-81.4546127319335938 67.1398849487304688 -9.62703800201416016 149 0.0236368216574192047 0.0178612843155860901 1.12541317939758301 1644760174.85729861
-80.8319778442382812 68.3163070678710938 -9.72693634033203125 150 0.0209786463528871536 0.0313145369291305542 1.11371481418609619 1644760175.06038785
-80.1856307983398438 69.5626449584960938 -9.81308650970458984 151 0.0248810909688472748 -0.00162957713473588228 1.11535179615020752 1644760175.25790048
-79.6647491455078125 70.8140945434570312 -9.78559589385986328 152 0.0179233495146036148 -0.012692280113697052 1.1193387508392334 1644760175.45876455
-79.10150146484375 71.9685440063476562 -9.84966278076171875 153 0.0119886463508009911 0.0020705049391835928 1.10871291160583496 1644760175.65814114
-78.4510498046875 73.13067626953125 -9.90479850769042969 154 0.0189721006900072098 -0.0121977264061570168 1.09841537475585938 1644760175.85809207
-77.8067092895507812 74.3801040649414062 -9.95866966247558594 155 0.0260849315673112869 -0.00621770881116390228 1.10136795043945312 1644760176.05691624
-77.2265243530273438 75.6039657592773438 -9.94880580902099609 156 0.0193381477147340775 -0.00173825712408870459 1.10250508785247803 1644760176.25885391
-76.6551895141601562 76.7736663818359375 -9.98817729949951172 157 0.0241180770099163055 0.00781979598104953766 1.09333670139312744 1644760176.4583323
-76.0252914428710938 77.9033737182617188 -10.0742778778076172 158 0.0244253501296043396 0.00938915088772773743 1.0813213586807251 1644760176.65526271
-75.3451080322265625 79.09735107421875 -10.1221036911010742 159 0.025452490895986557 0.00591582711786031723 1.0717625617980957 1644760176.85894203
-74.6991653442382812 80.3030242919921875 -10.072178840637207 160 0.0266292672604322433 -0.00759643828496336937 1.07053232192993164 1644760177.05778837
-74.09600830078125 81.4999008178710938 -10.1700849533081055 161 0.0269761141389608383 -0.00705208117142319679 1.06784152984619141 1644760177.25957775
-73.439971923828125 82.6230087280273438 -10.1866321563720703 162 0.0295942630618810654 0.00248525384813547134 1.05902099609375 1644760177.45637631
-72.7769851684570312 83.8063278198242188 -10.3162784576416016 163 0.0351734422147274017 0.00511062657460570335 1.05966603755950928 1644760177.65616775
-72.13323974609375 84.9884185791015625 -10.3483514785766602 164 0.0359045639634132385 0.00248020747676491737 1.05995047092437744 1644760177.85928202
-71.47955322265625 86.1247406005859375 -10.3178567886352539 165 0.038554903119802475 7.47167578083463013e-05 1.06020700931549072 1644760178.05622339
-70.835296630859375 87.3254928588867188 -10.3547859191894531 166 0.0377583391964435577 0.00576325925067067146 1.06347525119781494 1644760178.2585988
-70.2125930786132812 88.5162353515625 -10.3892593383789062 167 0.0294439159333705902 0.00345035898499190807 1.06618869304656982 1644760178.45904398
-69.5598907470703125 89.6960067749023438 -10.4842729568481445 168 0.0298265740275382996 0.00395847531035542488 1.06595134735107422 1644760178.65583301
-68.940399169921875 90.8759765625 -10.4938631057739258 169 0.0232772696763277054 -0.00775109464302659035 1.06494176387786865 1644760178.86046219
-68.2872390747070312 92.00897216796875 -10.5004825592041016 170 0.0259049870073795319 -0.00915927533060312271 1.05764997005462646 1644760179.05916715
-67.6032867431640625 93.1946945190429688 -10.5803823471069336 171 0.0223203040659427643 0.00694398488849401474 1.05661690235137939 1644760179.25862384
-66.9674530029296875 94.4059371948242188 -10.6175308227539062 172 0.0185499079525470734 -0.0042528882622718811 1.05335700511932373 1644760179.45565581
-66.3044281005859375 95.5398178100585938 -10.633087158203125 173 0.0217498410493135452 -0.00752389198169112206 1.04061901569366455 1644760179.66078544
-65.6148452758789062 96.6800918579101562 -10.6601581573486328 174 0.0186511427164077759 -0.0100649343803524971 1.03269898891448975 1644760179.85665536
-64.9281997680664062 97.831451416015625 -10.7160654067993164 175 0.0195586215704679489 -0.00674355169758200645 1.02359116077423096 1644760180.05453467
-64.2114791870117188 98.9539413452148438 -10.7603778839111328 176 0.014777081087231636 -0.00232894951477646828 1.01595497131347656 1644760180.25767398
-63.5060081481933594 100.112480163574219 -10.7924280166625977 177 0.0156737975776195526 -0.0138335693627595901 1.01317405700683594 1644760180.45469999
-62.8197174072265625 101.272010803222656 -10.8091230392456055 178 0.0144795402884483337 -0.0106816161423921585 1.00984382629394531 1644760180.6570127
-62.1186485290527344 102.37335205078125 -10.8018245697021484 179 0.0164687484502792358 -0.0112494407221674919 1.00024724006652832 1644760180.85460162
-61.3278656005859375 103.44049072265625 -10.8806324005126953 180 0.0191369224339723587 0.0121809877455234528 0.990876913070678711 1644760181.05946159
-60.5881996154785156 104.6297607421875 -10.9114751815795898 181 0.0154487704858183861 -0.00465296441689133644 0.996909976005554199 1644760181.25650907
-59.9168663024902344 105.747306823730469 -10.8870878219604492 182 0.0197957046329975128 -0.0223030988126993179 0.992620646953582764 1644760181.45455194
-59.1527099609375 106.836807250976562 -10.9678163528442383 183 0.0293584652245044708 0.00892194267362356186 0.983804702758789062 1644760181.65900159
-58.404266357421875 107.95068359375 -11.0266494750976562 184 0.0286378469318151474 0.00171106751076877117 0.981971859931945801 1644760181.85757041
-57.66632080078125 109.067085266113281 -11.0885133743286133 185 0.0264752283692359924 0.00229598488658666611 0.978793740272521973 1644760182.0548234
-56.9140129089355469 110.186187744140625 -11.0706539154052734 186 0.020106164738535881 -0.0035180230624973774 0.97801506519317627 1644760182.25925541
-56.1686973571777344 111.337615966796875 -11.0696172714233398 187 0.0185449477285146713 -0.00719736376777291298 0.974667668342590332 1644760182.45616508
-55.4652481079101562 112.453201293945312 -11.1400661468505859 188 0.0211954880505800247 -0.00767375016584992409 0.97324293851852417 1644760182.65645289
-54.7034187316894531 113.497123718261719 -11.1685152053833008 189 0.0207923427224159241 -0.00231062760576605797 0.961586296558380127 1644760182.85527444
-53.8886337280273438 114.587135314941406 -11.1988677978515625 190 0.0246185492724180222 -0.00881449785083532333 0.96140521764755249 1644760183.05427051
-53.1709136962890625 115.734527587890625 -11.1357307434082031 191 0.0240518786013126373 -0.0151059944182634354 0.961028754711151123 1644760183.25506806
-52.4263763427734375 116.808158874511719 -11.1768131256103516 192 0.0272271819412708282 -0.0173837654292583466 0.957012653350830078 1644760183.45479131
-51.6259040832519531 117.8768310546875 -11.1972970962524414 193 0.0164713095873594284 -0.0165093112736940384 0.953022301197052002 1644760183.65591979
-50.8512382507324219 119.029342651367188 -11.2700662612915039 194 0.0196067467331886292 -0.00463948352262377739 0.951320409774780273 1644760183.85544729
-50.1032180786132812 120.098304748535156 -11.3454227447509766 195 0.0156224463135004044 -0.01039920374751091 0.948848724365234375 1644760184.0579946
-49.3322219848632812 121.198966979980469 -11.3428153991699219 196 0.0123012373223900795 -0.0144663741812109947 0.949949324131011963 1644760184.25802255
-48.5571937561035156 122.281906127929688 -11.4002237319946289 197 0.0102882133796811104 -0.00059477146714925766 0.947120308876037598 1644760184.45512652
-47.7643623352050781 123.370811462402344 -11.407160758972168 198 0.00186015584040433168 -0.00214780122041702271 0.948408782482147217 1644760184.65638447
-46.9720458984375 124.499488830566406 -11.4516057968139648 199 -0.00016448124370072037 0.0117710968479514122 0.948920607566833496 1644760184.85772157
-46.2277488708496094 125.613082885742188 -11.5272178649902344 200 0.00489321071654558182 -0.0116529110819101334 0.950687885284423828 1644760185.05718589
-45.455657958984375 126.674087524414062 -11.5276861190795898 201 0.00801444239914417267 -0.00137488555628806353 0.941231846809387207 1644760185.2564075
-44.6321945190429688 127.741188049316406 -11.5620708465576172 202 0.00380825134925544262 0.00259728450328111649 0.939326286315917969 1644760185.45752478
-43.8340568542480469 128.859054565429688 -11.6073007583618164 203 -0.00383710372261703014 -0.00343101681210100651 0.947665631771087646 1644760185.65687919
-43.0966072082519531 129.989181518554688 -11.6094779968261719 204 -0.00432802597060799599 0.00529609387740492821 0.948550939559936523 1644760185.85710216
-42.3477439880371094 131.046340942382812 -11.6332798004150391 205 -0.00527440197765827179 -0.0149583779275417328 0.940281510353088379 1644760186.05711007
-41.5362663269042969 132.108062744140625 -11.6375837326049805 206 0.00702638132497668266 -0.0147593580186367035 0.933523416519165039 1644760186.25665045
-40.7239799499511719 133.173934936523438 -11.6387119293212891 207 0.000440717529272660613 -0.0159589517861604691 0.935770928859710693 1644760186.45702457
-39.9371490478515625 134.281936645507812 -11.6502418518066406 208 0.000690610206220299006 -0.0218166541308164597 0.942229926586151123 1644760186.65749335
-39.1877174377441406 135.400558471679688 -11.7237634658813477 209 0.0064452197402715683 -0.0159947965294122696 0.939134359359741211 1644760186.85753322
-38.411956787109375 136.438217163085938 -11.7170181274414062 210 0.013017565943300724 -0.0212330948561429977 0.926442325115203857 1644760187.05655932
-37.6054000854492188 137.469818115234375 -11.7054586410522461 211 0.0151417534798383713 -0.0388395339250564575 0.923763394355773926 1644760187.25691962
-36.8065528869628906 138.542144775390625 -11.6813764572143555 212 0.0134049532935023308 -0.0242741107940673828 0.927195906639099121 1644760187.45746207
-36.0323143005371094 139.621337890625 -11.7030696868896484 213 0.00674731796607375145 -0.0214960835874080658 0.929580390453338623 1644760187.65825033
-35.2502822875976562 140.694869995117188 -11.713627815246582 214 0.0118213621899485588 -0.0155721418559551239 0.925381124019622803 1644760187.85752535
-34.4578819274902344 141.739486694335938 -11.74420166015625 215 0.00917041953653097153 -0.0185003373771905899 0.924207985401153564 1644760188.05951691
-33.6867561340332031 142.795883178710938 -11.678044319152832 216 0.00598813639953732491 -0.0265234410762786865 0.92587435245513916 1644760188.25880003
-32.9127388000488281 143.852813720703125 -11.7129802703857422 217 0.00388975697569549084 -0.0316978953778743744 0.926834762096405029 1644760188.45929956
-32.1234588623046875 144.904815673828125 -11.7373819351196289 218 0.000465193501440808177 -0.0250268727540969849 0.926701247692108154 1644760188.65887356
-31.3535499572753906 145.968673706054688 -11.7203426361083984 219 0.00276471232064068317 -0.0219484996050596237 0.927893161773681641 1644760188.85763049
-30.5647697448730469 147.034835815429688 -11.806488037109375 220 -0.00364296324551105499 -0.0256887208670377731 0.930170178413391113 1644760189.05797529
-29.8008079528808594 148.14190673828125 -11.7618141174316406 221 -0.00649222033098340034 -0.0182013008743524551 0.936733901500701904 1644760189.25860262
-29.0853557586669922 149.190200805664062 -11.6850337982177734 222 -0.0113650821149349213 -0.0331024713814258575 0.929933667182922363 1644760189.45731997
-28.2815036773681641 150.190704345703125 -11.7053823471069336 223 -0.00623414013534784317 -0.0279671773314476013 0.927594125270843506 1644760189.65776396
-27.5133094787597656 151.282501220703125 -11.7175159454345703 224 -0.012677743099629879 -0.0363052189350128174 0.934658825397491455 1644760189.85720682
-26.7459297180175781 152.297103881835938 -11.6971473693847656 225 -0.00666081858798861504 -0.0374424830079078674 0.929755270481109619 1644760190.05675793
-25.9838275909423828 153.34307861328125 -11.7079715728759766 226 -0.00664180470630526543 -0.0407200045883655548 0.932838857173919678 1644760190.25659728
-25.2467555999755859 154.397018432617188 -11.6521835327148438 227 -0.0112579241394996643 -0.0555638261139392853 0.93418043851852417 1644760190.45785928
-24.477264404296875 155.404525756835938 -11.6020107269287109 228 0.00407781312242150307 -0.049549054354429245 0.921742260456085205 1644760190.65738606
-23.6642856597900391 156.435577392578125 -11.6107454299926758 229 0.0120976734906435013 -0.039270307868719101 0.91914820671081543 1644760190.85741854
-22.9020462036132812 157.48883056640625 -11.6151180267333984 230 0.00490417657420039177 -0.0295309759676456451 0.91978299617767334 1644760191.05664253
-22.1135578155517578 158.49249267578125 -11.6045961380004883 231 -0.00702544022351503372 -0.0411472618579864502 0.918548405170440674 1644760191.25620341
-21.3153591156005859 159.561798095703125 -11.618499755859375 232 -0.00941518228501081467 -0.0362627170979976654 0.928706169128417969 1644760191.453444
-20.6108798980712891 160.635528564453125 -11.5906162261962891 233 -0.00705417105928063393 -0.0321391522884368896 0.923193573951721191 1644760191.65702701
-19.8259048461914062 161.603363037109375 -11.4738492965698242 234 -0.00773843051865696907 -0.0474329032003879547 0.917179346084594727 1644760191.8569417
-19.06085205078125 162.673690795898438 -11.6140127182006836 235 -0.0094937346875667572 -0.0616260245442390442 0.928629815578460693 1644760192.06128502
-18.3438377380371094 163.758651733398438 -11.5945568084716797 236 -0.00245557166635990143 -0.0438201650977134705 0.919105708599090576 1644760192.25765228
-17.4982376098632812 164.661087036132812 -11.5551948547363281 237 -0.0138106644153594971 -0.0503640733659267426 0.907816469669342041 1644760192.4592483
-16.6842575073242188 165.695388793945312 -11.5208492279052734 238 -0.000678711570799350739 -0.0406348295509815216 0.92287135124206543 1644760192.65964818
-15.9760713577270508 166.82269287109375 -11.5383739471435547 239 -0.00622592726722359657 -0.037302110344171524 0.925107181072235107 1644760192.85746408
-15.2166385650634766 167.835418701171875 -11.4598627090454102 240 0.000978993717581033707 -0.0351151488721370697 0.921027779579162598 1644760193.05372834
-14.4661054611206055 168.861557006835938 -11.4745903015136719 241 -0.0146691743284463882 -0.0564921237528324127 0.916518747806549072 1644760193.25357604
-13.6601858139038086 169.817520141601562 -11.3660736083984375 242 0.00353704649023711681 -0.0524103716015815735 0.912761092185974121 1644760193.45459151
-12.9087610244750977 170.878524780273438 -11.3143396377563477 243 -0.0111499512568116188 -0.0490011535584926605 0.922480344772338867 1644760193.65492773
-12.1454010009765625 171.886642456054688 -11.2559080123901367 244 -0.00696121202781796455 -0.0489687472581863403 0.91498035192489624 1644760193.85952258
-11.3360767364501953 172.885116577148438 -11.2997665405273438 245 -0.00992613565176725388 -0.0432545579969882965 0.921689212322235107 1644760194.05873084
-10.580805778503418 173.963424682617188 -11.3487091064453125 246 -0.0039501669816672802 -0.0433825105428695679 0.926146924495697021 1644760194.25376773
-9.85363674163818359 174.972152709960938 -11.3300600051879883 247 -0.00393298687413334846 -0.0515520349144935608 0.920012712478637695 1644760194.45550752
-9.06603908538818359 175.95050048828125 -11.2938451766967773 248 -0.00159217289183288813 -0.0594362914562225342 0.917763292789459229 1644760194.65789104
-8.30458736419677734 177.014602661132812 -11.2357101440429688 249 0.000873122946359217167 -0.0543464869260787964 0.925173044204711914 1644760194.85455227
-7.57449722290039062 178.051101684570312 -11.2159481048583984 250 -0.00670969532802700996 -0.0496060587465763092 0.92195892333984375 1644760195.05382586
-6.76559734344482422 179.03057861328125 -11.2118988037109375 251 -0.0030037222895771265 -0.0380209460854530334 0.913442730903625488 1644760195.2528851
-5.97839450836181641 180.04974365234375 -11.2166309356689453 252 -0.00716288201510906219 -0.0465246401727199554 0.918229460716247559 1644760195.45477581
-5.26172256469726562 181.130599975585938 -11.1537065505981445 253 -0.00769612984731793404 -0.0519353561103343964 0.929203987121582031 1644760195.65733194
-4.56113862991333008 182.178314208984375 -11.0746316909790039 254 -0.0140400268137454987 -0.0510832555592060089 0.925611495971679688 1644760195.8537817
-3.77269434928894043 183.146011352539062 -11.0474624633789062 255 -0.0313522703945636749 -0.0702138468623161316 0.917581439018249512 1644760196.05274749
-2.95623588562011719 184.207687377929688 -11.0506677627563477 256 -0.0185882970690727234 -0.0437880679965019226 0.931089639663696289 1644760196.25508428
-2.27437329292297363 185.31390380859375 -11.0310468673706055 257 -0.0271480381488800049 -0.0367426946759223938 0.934023678302764893 1644760196.45330048
-1.51994061470031738 186.25177001953125 -11.0596685409545898 258 -0.0283547136932611465 -0.0676189586520195007 0.915820837020874023 1644760196.65480065
-0.687655866146087646 187.248748779296875 -10.9948482513427734 259 -0.0281515996903181076 -0.0612713173031806946 0.921426653861999512 1644760196.85438466
0.0465425364673137665 188.333587646484375 -10.9086494445800781 260 -0.0305909402668476105 -0.0626342445611953735 0.930725991725921631 1644760197.05366445
0.78688889741897583 189.374847412109375 -10.8916549682617188 261 -0.0380311720073223114 -0.0529116168618202209 0.924504697322845459 1644760197.25206327
1.54676854610443115 190.417144775390625 -10.9050064086914062 262 -0.0300753228366374969 -0.0433188565075397491 0.923106074333190918 1644760197.45283413
2.29238414764404297 191.44305419921875 -10.9706554412841797 263 -0.0470971204340457916 -0.0485566519200801849 0.919895827770233154 1644760197.65684128
3.06181120872497559 192.4425048828125 -10.9319639205932617 264 -0.0336600355803966522 -0.0670115649700164795 0.913506507873535156 1644760197.8529706
3.87838506698608398 193.396820068359375 -10.8462505340576172 265 -0.0333398357033729553 -0.0648994743824005127 0.912141561508178711 1644760198.05535436
4.62589073181152344 194.464828491210938 -10.739811897277832 266 -0.0303317829966545105 -0.0617225952446460724 0.913466215133666992 1644760198.25367451
5.37279796600341797 195.492752075195312 -10.730046272277832 267 -0.0309853106737136841 -0.0405988618731498718 0.911916673183441162 1644760198.45214987
6.16789007186889648 196.4715576171875 -10.6882543563842773 268 -0.0324653014540672302 -0.0550054572522640228 0.908682167530059814 1644760198.65422535
6.94200658798217773 197.5279541015625 -10.6900787353515625 269 -0.032606564462184906 -0.0459974035620689392 0.910906791687011719 1644760198.85239959
7.68817424774169922 198.515579223632812 -10.6593284606933594 270 -0.0302956271916627884 -0.0618371777236461639 0.901710927486419678 1644760199.05670857
8.52167034149169922 199.468017578125 -10.6167421340942383 271 -0.0340926274657249451 -0.0575891472399234772 0.898405969142913818 1644760199.25404453
9.30522060394287109 200.5032958984375 -10.5729684829711914 272 -0.0274744350463151932 -0.0530225187540054321 0.90477907657623291 1644760199.45742989
10.0586347579956055 201.559951782226562 -10.519256591796875 273 -0.0259144268929958344 -0.0388185121119022369 0.902480602264404297 1644760199.65297675
10.8652935028076172 202.525802612304688 -10.5455207824707031 274 -0.0363225005567073822 -0.0349043533205986023 0.898980617523193359 1644760199.85760093
11.6617088317871094 203.543060302734375 -10.5612087249755859 275 -0.0391230471432209015 -0.051151622086763382 0.909689664840698242 1644760200.05195093
12.4084749221801758 204.625579833984375 -10.5452089309692383 276 -0.0268321968615055084 -0.049963686615228653 0.909815073013305664 1644760200.25193191
13.1917829513549805 205.573593139648438 -10.5393896102905273 277 -0.0259129218757152557 -0.0610140077769756317 0.899622082710266113 1644760200.45249009
14.0323114395141602 206.5184326171875 -10.439640998840332 278 -0.0222596749663352966 -0.0645786598324775696 0.906564474105834961 1644760200.65219164
14.7551631927490234 207.642898559570312 -10.4500398635864258 279 -0.0150707196444272995 -0.0553877092897891998 0.912155032157897949 1644760200.85363603
15.5435562133789062 208.611663818359375 -10.3865575790405273 280 -0.0130613474175333977 -0.0542790740728378296 0.896027803421020508 1644760201.05586052
16.3773746490478516 209.54925537109375 -10.3490047454833984 281 -0.00480679096654057503 -0.0545653961598873138 0.901099205017089844 1644760201.25359726
17.1286048889160156 210.580001831054688 -10.2989826202392578 282 -0.00540013425052165985 -0.071949198842048645 0.909890294075012207 1644760201.45463705
17.8910484313964844 211.608123779296875 -10.2492198944091797 283 -0.00233490206301212311 -0.0693279653787612915 0.901998281478881836 1644760201.65677619
18.6812705993652344 212.571731567382812 -10.1702699661254883 284 0.00566190341487526894 -0.0699045732617378235 0.895747005939483643 1644760201.85249686
19.4827308654785156 213.546798706054688 -10.1497316360473633 285 0.00615860801190137863 -0.0539365336298942566 0.890690028667449951 1644760202.05257344
20.2951488494873047 214.52264404296875 -10.1510715484619141 286 0.00872019119560718536 -0.0624636337161064148 0.886414408683776855 1644760202.25840425
21.0916080474853516 215.500823974609375 -10.075587272644043 287 0.0184697471559047699 -0.0666538625955581665 0.870917201042175293 1644760202.45428586
21.928680419921875 216.40350341796875 -10.0132961273193359 288 0.0138006275519728661 -0.0723063722252845764 0.850097835063934326 1644760202.65597415
22.7799472808837891 217.319610595703125 -9.97510051727294922 289 0.029532894492149353 -0.0778770223259925842 0.837660431861877441 1644760202.85319138
23.6191463470458984 218.272186279296875 -9.91484451293945312 290 0.0257654450833797455 -0.0687615424394607544 0.830690741539001465 1644760203.05292511
24.4638614654541016 219.193679809570312 -9.86219310760498047 291 0.0328419953584671021 -0.0708234161138534546 0.814871788024902344 1644760203.25392175
25.3384647369384766 220.106063842773438 -9.84968280792236328 292 0.0314434878528118134 -0.0596994571387767792 0.796481192111968994 1644760203.45751333
26.2805576324462891 220.937423706054688 -9.85471343994140625 293 0.0327341482043266296 -0.0498465448617935181 0.780501604080200195 1644760203.65298104
27.1684818267822266 221.855392456054688 -9.84527492523193359 294 0.0266252085566520691 -0.0559053085744380951 0.771933078765869141 1644760203.85341597
28.0778675079345703 222.726898193359375 -9.81952381134033203 295 0.0295926444232463837 -0.0703177377581596375 0.750520527362823486 1644760204.05371356
29.0207481384277344 223.519683837890625 -9.70847511291503906 296 0.0228397957980632782 -0.0662186667323112488 0.735786139965057373 1644760204.25496268
29.9510993957519531 224.36090087890625 -9.65298366546630859 297 0.025481371209025383 -0.0665448233485221863 0.725818395614624023 1644760204.45476937
30.9154262542724609 225.221710205078125 -9.64000797271728516 298 0.0193422324955463409 -0.0500814430415630341 0.706230342388153076 1644760204.65643358
31.9060401916503906 226.010330200195312 -9.61057090759277344 299 0.0231163427233695984 -0.0478134825825691223 0.674918949604034424 1644760204.85328603
32.9356155395507812 226.737869262695312 -9.61935901641845703 300 0.0235964823514223099 -0.0575047619640827179 0.64835047721862793 1644760205.0536859
33.9675941467285156 227.492660522460938 -9.63782119750976562 301 0.0317533500492572784 -0.0586790330708026886 0.629724502563476562 1644760205.25308156
34.9989013671875 228.202133178710938 -9.55673408508300781 302 0.0327355191111564636 -0.0672308877110481262 0.60233694314956665 1644760205.45634151
36.08062744140625 228.8575439453125 -9.46319961547851562 303 0.0373870432376861572 -0.0628203451633453369 0.574942171573638916 1644760205.65703464
37.1704254150390625 229.506362915039062 -9.39880657196044922 304 0.0386575981974601746 -0.053613707423210144 0.551758229732513428 1644760205.85445952
38.2727127075195312 230.145095825195312 -9.37175559997558594 305 0.0368988066911697388 -0.0381105244159698486 0.523166358470916748 1644760206.05567241
39.4036750793457031 230.723861694335938 -9.40551662445068359 306 0.0333647914230823517 -0.0500941723585128784 0.495670795440673828 1644760206.25454378
40.5360031127929688 231.341232299804688 -9.43744087219238281 307 0.0410646721720695496 -0.0542443394660949707 0.48406451940536499 1644760206.45384765
41.6595687866210938 231.940872192382812 -9.39402866363525391 308 0.0328663624823093414 -0.0593195520341396332 0.452480465173721313 1644760206.65387702
42.8286361694335938 232.370193481445312 -9.30706405639648438 309 0.0426270440220832825 -0.0621503442525863647 0.418689727783203125 1644760206.85396791
44.0176658630371094 232.855224609375 -9.24009418487548828 310 0.0397952012717723846 -0.046838022768497467 0.409726321697235107 1644760207.05359936
45.1913490295410156 233.390945434570312 -9.23427963256835938 311 0.0376022420823574066 -0.0520669855177402496 0.392659753561019897 1644760207.25410795
46.3774299621582031 233.838973999023438 -9.25784778594970703 312 0.0436022430658340454 -0.0469708368182182312 0.369756877422332764 1644760207.45351815
47.5751991271972656 234.295684814453125 -9.21174335479736328 313 0.0448240451514720917 -0.0572573691606521606 0.361142218112945557 1644760207.65327644
48.7604751586914062 234.73431396484375 -9.15235805511474609 314 0.0445422232151031494 -0.0602792650461196899 0.349110633134841919 1644760207.85311389
49.9560317993164062 235.144561767578125 -9.12077903747558594 315 0.05502358078956604 -0.0691528469324111938 0.334953606128692627 1644760208.05381227
51.164398193359375 235.523849487304688 -9.05459880828857422 316 0.0466240197420120239 -0.050346769392490387 0.321440249681472778 1644760208.2539134
52.3918571472167969 235.893829345703125 -9.01776123046875 317 0.0448767431080341339 -0.0453748255968093872 0.312658786773681641 1644760208.45407224
53.6086616516113281 236.320587158203125 -9.02550601959228516 318 0.0468369312584400177 -0.0434443876147270203 0.303353875875473022 1644760208.65473247
54.8118438720703125 236.700302124023438 -8.96761417388916016 319 0.0307815279811620712 -0.0541320554912090302 0.289178460836410522 1644760208.85664177
56.0058670043945312 237.033172607421875 -8.94442844390869141 320 0.0351626351475715637 -0.0578123517334461212 0.267165035009384155 1644760209.05393791
57.219757080078125 237.268936157226562 -8.81116008758544922 321 0.0255540944635868073 -0.0485100187361240387 0.24723409116268158 1644760209.254776
58.4010696411132812 237.567459106445312 -8.80557537078857422 322 0.0359971001744270325 -0.14956134557723999 0.247537970542907715 1644760209.45637774
59.7055397033691406 237.967239379882812 -8.93403053283691406 323 0.0504194200038909912 -0.0981427133083343506 0.188520863652229309 1644760209.65431428
60.9649124145507812 238.151397705078125 -8.89966201782226562 324 0.0500072874128818512 -0.000931799761019647121 0.149822443723678589 1644760209.85436869
62.1227378845214844 238.090240478515625 -8.696563720703125 325 0.0454889200627803802 -0.0763783752918243408 0.161807239055633545 1644760210.0550704
63.3907279968261719 238.444290161132812 -8.62822818756103516 326 0.0283445306122303009 -0.0730843245983123779 0.192431941628456116 1644760210.25484776
64.6228103637695312 238.803558349609375 -8.55860328674316406 327 0.03153952956199646 -0.0802439302206039429 0.154346391558647156 1644760210.45446038
65.798492431640625 238.829193115234375 -8.50080394744873047 328 0.0242987554520368576 -0.0701114237308502197 0.128010854125022888 1644760210.65335941
67.0750503540039062 238.979171752929688 -8.47602367401123047 329 0.0356730557978153229 -0.0499538630247116089 0.138249769806861877 1644760210.85278821
68.3302764892578125 239.255142211914062 -8.48379325866699219 330 0.0205829665064811707 -0.0632417500019073486 0.131068512797355652 1644760211.05321264
69.538970947265625 239.380020141601562 -8.49043083190917969 331 0.0186028908938169479 -0.0689586326479911804 0.107172079384326935 1644760211.25488472
70.780120849609375 239.488250732421875 -8.39764881134033203 332 0.0235641561448574066 -0.0773084089159965515 0.116198942065238953 1644760211.45463109
72.039093017578125 239.697097778320312 -8.29564571380615234 333 0.0136393718421459198 -0.0582804828882217407 0.119582459330558777 1644760211.65431595
73.2022171020507812 239.847625732421875 -8.21051120758056641 334 0.0115289269015192986 -0.0983816161751747131 0.106828399002552032 1644760211.85645628
74.4114151000976562 239.925064086914062 -8.06787967681884766 335 0.00921257026493549347 -0.0943975672125816345 0.113667681813240051 1644760212.05297637
75.6511154174804688 240.106109619140625 -8.07917022705078125 336 0.00362396985292434692 -0.0953979864716529846 0.122398711740970612 1644760212.25284481
76.7530136108398438 240.2655029296875 -7.83862781524658203 337 0.0129412896931171417 -0.181110665202140808 0.124496772885322571 1644760212.45432425
78.084686279296875 240.48004150390625 -7.80664348602294922 338 0.0237423423677682877 -0.0777312442660331726 0.119428656995296478 1644760212.65369964
79.2988357543945312 240.593795776367188 -7.8758091926574707 339 0.0122924474999308586 -0.0170343667268753052 0.114785745739936829 1644760212.85579801
80.4450836181640625 240.701171875 -7.887939453125 340 0.0211302116513252258 -0.0742852687835693359 0.1150708869099617 1644760213.05500364
81.6639785766601562 240.893798828125 -7.79201889038085938 341 0.0107277641072869301 -0.105148635804653168 0.117794424295425415 1644760213.25509286
82.862548828125 241.039642333984375 -7.66295194625854492 342 0.00729447649791836739 -0.106327727437019348 0.113979391753673553 1644760213.45385861
84.0306396484375 241.167922973632812 -7.54654312133789062 343 0.0157818831503391266 -0.126261398196220398 0.111813493072986603 1644760213.65429473
85.254913330078125 241.316635131835938 -7.39511442184448242 344 0.0185409002006053925 -0.115127183496952057 0.110088042914867401 1644760213.85413861
86.4635391235351562 241.447494506835938 -7.370941162109375 345 0.0281055141240358353 -0.105687402188777924 0.105738766491413116 1644760214.05385709
87.6474761962890625 241.580657958984375 -7.22443771362304688 346 0.0316710025072097778 -0.104354359209537506 0.102963946759700775 1644760214.25496769
88.8126144409179688 241.695449829101562 -7.2122502326965332 347 0.0314591266214847565 -0.120848402380943298 0.106411665678024292 1644760214.45496035
89.9911041259765625 241.835708618164062 -7.100738525390625 348 0.0395523346960544586 -0.10393417626619339 0.109751351177692413 1644760214.65454841
91.1989364624023438 241.97137451171875 -7.05580520629882812 349 0.0337606780230998993 -0.110742568969726562 0.116314947605133057 1644760214.85420251
92.3600997924804688 242.12799072265625 -6.99242115020751953 350 0.031434573233127594 -0.115397848188877106 0.120598345994949341 1644760215.05544257
93.5199661254882812 242.299118041992188 -6.8733210563659668 351 0.0263284742832183838 -0.117906384170055389 0.122978679835796356 1644760215.25572371
94.6875076293945312 242.45440673828125 -6.74662113189697266 352 0.0249010007828474045 -0.1210007444024086 0.124520614743232727 1644760215.45588684
95.8543167114257812 242.626937866210938 -6.63214826583862305 353 0.0256714634597301483 -0.120469585061073303 0.130147233605384827 1644760215.65572262
96.9984283447265625 242.805709838867188 -6.49274349212646484 354 0.0252947527915239334 -0.137253865599632263 0.127796322107315063 1644760215.85459542
98.181671142578125 242.94964599609375 -6.41612005233764648 355 0.0309315919876098633 -0.121184073388576508 0.128710970282554626 1644760216.05575562
99.344879150390625 243.156723022460938 -6.22062492370605469 356 0.029706588014960289 -0.111406713724136353 0.128803879022598267 1644760216.25511384
100.467292785644531 243.316543579101562 -6.13173580169677734 357 0.026896502822637558 -0.133239775896072388 0.125040590763092041 1644760216.45456409
101.681800842285156 243.48895263671875 -5.99044322967529297 358 0.016070464625954628 -0.113521434366703033 0.134064510464668274 1644760216.65710115
102.826515197753906 243.676223754882812 -5.94988155364990234 359 0.00548082916066050529 -0.130767479538917542 0.139908730983734131 1644760216.85694718
103.937416076660156 243.846054077148438 -5.89510869979858398 360 0.00232367194257676601 -0.136130079627037048 0.133201375603675842 1644760217.05436921
105.121871948242188 243.987655639648438 -5.76651573181152344 361 0.0108781373128294945 -0.126425832509994507 0.130873456597328186 1644760217.25798488
106.305526733398438 244.157394409179688 -5.64350748062133789 362 0.00153809261973947287 -0.116703018546104431 0.136084198951721191 1644760217.45426059
107.43328857421875 244.351898193359375 -5.5515141487121582 363 7.80624104663729668e-05 -0.128901258111000061 0.137435287237167358 1644760217.65506077
108.546829223632812 244.519577026367188 -5.42375469207763672 364 -0.00376205495558679104 -0.140418887138366699 0.133904129266738892 1644760217.8556397
109.686363220214844 244.645645141601562 -5.37808418273925781 365 -0.00280979461967945099 -0.13542117178440094 0.125473171472549438 1644760218.05508828
110.874099731445312 244.804977416992188 -5.20207786560058594 366 0.00101851427461951971 -0.117374785244464874 0.12906964123249054 1644760218.25648093
111.989517211914062 245.015899658203125 -5.05478191375732422 367 -0.0118347043171525002 -0.121830619871616364 0.132104113698005676 1644760218.45501113
113.060165405273438 245.166976928710938 -4.95755672454833984 368 -0.00815614033490419388 -0.145562306046485901 0.12461862713098526 1644760218.65340304
114.205986022949219 245.272750854492188 -4.80227899551391602 369 -0.00333322887308895588 -0.157431572675704956 0.124926507472991943 1644760218.85423923
115.359451293945312 245.43853759765625 -4.73388481140136719 370 0.000581891392357647419 -0.143228113651275635 0.130167782306671143 1644760219.05350256
116.470405578613281 245.59747314453125 -4.64317941665649414 371 -0.00417044293135404587 -0.137080535292625427 0.127518877387046814 1644760219.25671005
117.578010559082031 245.757064819335938 -4.40923452377319336 372 -0.00157135154586285353 -0.135691195726394653 0.123134389519691467 1644760219.45464873
118.706031799316406 245.883209228515625 -4.41173124313354492 373 -0.00707189738750457764 -0.146986082196235657 0.130962565541267395 1644760219.65644288
119.835472106933594 246.051788330078125 -4.26888847351074219 374 -0.00693931663408875465 -0.129501357674598694 0.13361668586730957 1644760219.85213637
120.937118530273438 246.247116088867188 -4.13918447494506836 375 -0.00011455158528406173 -0.133828595280647278 0.135571300983428955 1644760220.0524857
122.020645141601562 246.410247802734375 -4.0837397575378418 376 -0.0118499221280217171 -0.141076430678367615 0.136059165000915527 1644760220.25307012
123.136276245117188 246.57489013671875 -3.94745826721191406 377 -0.0122439125552773476 -0.133271455764770508 0.134119600057601929 1644760220.45645738
124.248466491699219 246.749969482421875 -3.80185723304748535 378 -0.00248129572719335556 -0.142296165227890015 0.134870722889900208 1644760220.65391111
125.349075317382812 246.8941650390625 -3.77955532073974609 379 -0.0115072475746273994 -0.144518673419952393 0.137593165040016174 1644760220.85646176
126.44061279296875 247.101226806640625 -3.59429669380187988 380 -0.0136539731174707413 -0.143576934933662415 0.139299973845481873 1644760221.05576301
127.52655029296875 247.245025634765625 -3.39743375778198242 381 -0.0213627442717552185 -0.148365586996078491 0.135571524500846863 1644760221.25531101
128.604385375976562 247.384658813476562 -3.3057410717010498 382 -0.00458860211074352264 -0.154705449938774109 0.133276000618934631 1644760221.45565677
129.684234619140625 247.5416259765625 -3.19040203094482422 383 -0.00737235462293028831 -0.147359535098075867 0.136086300015449524 1644760221.65530896
130.737350463867188 247.695632934570312 -3.02622199058532715 384 -0.0092199370265007019 -0.177547365427017212 0.133047044277191162 1644760221.85293841
131.831680297851562 247.825057983398438 -2.89881300926208496 385 0.00802081916481256485 -0.16795031726360321 0.127915382385253906 1644760222.05507159
132.90869140625 247.952560424804688 -2.85002946853637695 386 0.0120719186961650848 -0.158380910754203796 0.129610240459442139 1644760222.25396633
133.94482421875 248.105026245117188 -2.7459876537322998 387 0.0135731799528002739 -0.160841017961502075 0.125704243779182434 1644760222.45631742
134.973281860351562 248.202957153320312 -2.6715543270111084 388 0.0214035790413618088 -0.162160754203796387 0.1114511638879776 1644760222.65631437
136.026214599609375 248.280807495117188 -2.50499439239501953 389 0.0129533875733613968 -0.153767064213752747 0.110343463718891144 1644760222.85497928
137.073699951171875 248.412124633789062 -2.30321907997131348 390 0.0145261408761143684 -0.14572945237159729 0.123720563948154449 1644760223.05601048
138.035415649414062 248.631500244140625 -2.03969168663024902 391 0.0193592347204685211 -0.160108476877212524 0.114521913230419159 1644760223.25459981
139.038253784179688 248.69036865234375 -2.0630805492401123 392 0.0170962493866682053 -0.167735487222671509 0.106109298765659332 1644760223.45729446
140.037460327148438 248.76483154296875 -1.87214803695678711 393 0.0151704903692007065 -0.175464451313018799 0.107447721064090729 1644760223.65390325
141.060592651367188 248.894943237304688 -1.80496752262115479 394 0.0180812589824199677 -0.155479907989501953 0.102004237473011017 1644760223.85748386
143.008087158203125 249.092697143554688 -1.55320453643798828 395 0.0259949285537004471 -0.166611358523368835 0.0891887173056602478 1644760224.25699735
144.961624145507812 249.259368896484375 -1.30967950820922852 396 0.0407536327838897705 -0.161673799157142639 0.0792164579033851624 1644760224.65511107
146.922409057617188 249.40167236328125 -1.10902273654937744 397 0.0408853143453598022 -0.175372466444969177 0.0644714385271072388 1644760225.05540729
148.885086059570312 249.471420288085938 -0.900912702083587646 398 0.0479761064052581787 -0.151624768972396851 0.05809006467461586 1644760225.45681548
150.814651489257812 249.654266357421875 -0.68865668773651123 399 0.0428094528615474701 -0.165450006723403931 0.0627236664295196533 1644760225.85790992
152.712081909179688 249.832412719726562 -0.413944751024246216 400 0.0432658270001411438 -0.160252183675765991 0.0878995582461357117 1644760226.25739026
154.612686157226562 250.05072021484375 -0.171022862195968628 401 0.0476419813930988312 -0.151989981532096863 0.107105866074562073 1644760226.65628934
156.524246215820312 250.296218872070312 0.0725245624780654907 402 0.0445153899490833282 -0.15169815719127655 0.112386919558048248 1644760227.05685949
158.42791748046875 250.483154296875 0.224878028035163879 403 0.037969980388879776 -0.156200706958770752 0.0917354747653007507 1644760227.45563841
160.374191284179688 250.640716552734375 0.420644253492355347 404 0.0394465140998363495 -0.143553704023361206 0.0678967535495758057 1644760227.85663319
162.315643310546875 250.673782348632812 0.585617125034332275 405 0.0411851741373538971 -0.129902034997940063 0.0216788798570632935 1644760228.25579166
164.2509765625 250.631622314453125 0.837105154991149902 406 0.0465248562395572662 -0.148072421550750732 -0.0333190672099590302 1644760228.65640807
166.203079223632812 250.439605712890625 1.06873643398284912 407 0.060869365930557251 -0.130487158894538879 -0.0802671909332275391 1644760229.05603313
168.16619873046875 250.22247314453125 1.23234713077545166 408 0.060799773782491684 -0.135804221034049988 -0.124773353338241577 1644760229.4570117
170.117340087890625 249.8985595703125 1.42888545989990234 409 0.0724761039018630981 -0.140130281448364258 -0.16340935230255127 1644760229.85754776
171.094650268554688 249.710845947265625 1.52766513824462891 410 0.0749737471342086792 -0.143255963921546936 -0.183757677674293518 1644760230.0581491
173.001205444335938 249.224990844726562 1.76728689670562744 411 0.0795405656099319458 -0.143028691411018372 -0.226448431611061096 1644760230.45862508
173.969131469726562 248.967514038085938 1.87867748737335205 412 0.094330132007598877 -0.131577953696250916 -0.242776289582252502 1644760230.65603137
175.839828491210938 248.4337158203125 2.09195780754089355 413 0.0969513654708862305 -0.144597858190536499 -0.273458182811737061 1644760231.05629373
177.691314697265625 247.885955810546875 2.2554476261138916 414 0.0998184084892272949 -0.151170060038566589 -0.312090933322906494 1644760231.45588303
179.537994384765625 247.242874145507812 2.47455787658691406 415 0.101223595440387726 -0.148054122924804688 -0.334135085344314575 1644760231.85740781
181.324371337890625 246.566879272460938 2.68796324729919434 416 0.0867225527763366699 -0.140577524900436401 -0.363713830709457397 1644760232.25694609
183.102996826171875 245.851806640625 2.91525387763977051 417 0.0881483033299446106 -0.146125242114067078 -0.389137983322143555 1644760232.65412021
184.845321655273438 245.085372924804688 3.07548356056213379 418 0.0952921062707901001 -0.13997398316860199 -0.424235820770263672 1644760233.05743861
186.574432373046875 244.284225463867188 3.23851776123046875 419 0.0885838121175765991 -0.141219288110733032 -0.450738459825515747 1644760233.45440483
188.272964477539062 243.408309936523438 3.50604248046875 420 0.0736149027943611145 -0.126239314675331116 -0.475421398878097534 1644760233.85662675
189.947982788085938 242.49847412109375 3.68165826797485352 421 0.0712706819176673889 -0.124433167278766632 -0.500755012035369873 1644760234.25616932
191.634750366210938 241.579421997070312 3.78867030143737793 422 0.0698363035917282104 -0.121225520968437195 -0.524532198905944824 1644760234.65657806
193.277572631835938 240.59521484375 3.94850611686706543 423 0.0638100206851959229 -0.12731170654296875 -0.550329983234405518 1644760235.05738473
194.90606689453125 239.562332153320312 4.19899940490722656 424 0.0559829548001289368 -0.128376588225364685 -0.573576390743255615 1644760235.4582324
196.52838134765625 238.451690673828125 4.34085750579833984 425 0.058975759893655777 -0.123595818877220154 -0.601222515106201172 1644760235.8570447
198.051589965820312 237.33984375 4.48340797424316406 426 0.0672162622213363647 -0.133036360144615173 -0.639380156993865967 1644760236.25440621
199.581039428710938 236.138595581054688 4.67937898635864258 427 0.0688835456967353821 -0.137217670679092407 -0.671520233154296875 1644760236.65764141
201.038558959960938 234.874908447265625 4.86153221130371094 428 0.0660209581255912781 -0.119823090732097626 -0.715868473052978516 1644760237.05658031
202.443374633789062 233.53985595703125 5.05462884902954102 429 0.0553552098572254181 -0.116209879517555237 -0.765507936477661133 1644760237.45703554
203.69732666015625 232.208602905273438 5.19409799575805664 430 0.0731720700860023499 -0.167600378394126892 -0.816475033760070801 1644760237.85537815
204.95513916015625 230.817337036132812 5.48123264312744141 431 0.0857400223612785339 -0.155728697776794434 -0.830092191696166992 1644760238.25535035
205.703903198242188 230.068679809570312 5.4692835807800293 432 0.0712222829461097717 -0.0804995819926261902 -0.817046463489532471 1644760238.45670629
207.001205444335938 228.683380126953125 5.53183269500732422 433 0.0654662922024726868 -0.07250165194272995 -0.825040698051452637 1644760238.85521555
208.205291748046875 227.335647583007812 5.78303289413452148 434 0.0732114017009735107 -0.133745089173316956 -0.842661857604980469 1644760239.25603533
209.559844970703125 225.930999755859375 5.93367958068847656 435 0.0723212063312530518 -0.124191917479038239 -0.815536856651306152 1644760239.6562674
210.9207763671875 224.5902099609375 6.10048580169677734 436 0.0693963468074798584 -0.133386880159378052 -0.785165607929229736 1644760240.0561974
212.312240600585938 223.267364501953125 6.25538110733032227 437 0.0702536627650260925 -0.124178230762481689 -0.773039162158966064 1644760240.45583701
213.66473388671875 221.9119873046875 6.41199302673339844 438 0.0712163001298904419 -0.124082259833812714 -0.787390470504760742 1644760240.8566606
215.023468017578125 220.579498291015625 6.56820535659790039 439 0.066320568323135376 -0.122849658131599426 -0.796016156673431396 1644760241.25851965
216.368682861328125 219.184844970703125 6.75935745239257812 440 0.0626728460192680359 -0.1313304603099823 -0.80600440502166748 1644760241.65680623
217.72869873046875 217.804779052734375 6.91347789764404297 441 0.0711618959903717041 -0.135250166058540344 -0.790394484996795654 1644760242.05572104
219.147781372070312 216.477645874023438 7.09074783325195312 442 0.0725731998682022095 -0.129381939768791199 -0.771509885787963867 1644760242.45549035
220.50347900390625 215.178009033203125 7.24486923217773438 443 0.0727277770638465881 -0.134390667080879211 -0.768006980419158936 1644760242.85623598
221.852981567382812 213.856491088867188 7.49075412750244141 444 0.0657265707850456238 -0.126134827733039856 -0.779734194278717041 1644760243.25549698
223.004104614257812 212.635955810546875 7.59393739700317383 445 0.0624709911644458771 -0.116873294115066528 -0.823822140693664551 1644760243.65467906
224.01263427734375 211.390762329101562 7.78063869476318359 446 0.0684152320027351379 -0.132659494876861572 -0.886488139629364014 1644760244.05599952
224.837493896484375 210.0655517578125 7.9053645133972168 447 0.0692656040191650391 -0.126249641180038452 -0.993695437908172607 1644760244.45640993
225.547958374023438 208.5244140625 7.9921717643737793 448 0.0796789973974227905 -0.111328698694705963 -1.12214839458465576 1644760244.8554976
225.953536987304688 206.912994384765625 8.10184383392333984 449 0.0936848670244216919 -0.0837980955839157104 -1.26616847515106201 1644760245.25597382
226.213638305664062 205.174896240234375 8.16401100158691406 450 0.0874625891447067261 -0.0750209763646125793 -1.40993058681488037 1644760245.65886545
226.164260864257812 203.400009155273438 8.20139503479003906 451 0.0985178202390670776 -0.0654210299253463745 -1.56475961208343506 1644760246.05803418
225.823394775390625 201.591293334960938 8.2410736083984375 452 0.0980830937623977661 -0.0475295335054397583 -1.71938943862915039 1644760246.45699596
225.249313354492188 199.711090087890625 8.23198699951171875 453 0.101665794849395752 -0.0382067933678627014 -1.8739084005355835 1644760246.85424781
224.336685180664062 198.041458129882812 8.14592552185058594 454 0.0970273539423942566 0.00886376667767763138 -2.02955436706542969 1644760247.25636268
223.35711669921875 196.397918701171875 8.02577304840087891 455 0.0966860875487327576 0.026422867551445961 -2.09443116188049316 1644760247.65320015
222.474411010742188 194.860870361328125 7.92525196075439453 456 0.0845941901206970215 0.0496162287890911102 -2.12194967269897461 1644760248.05276203
221.518692016601562 193.357864379882812 7.72216033935546875 457 0.0770516619086265564 0.0655874907970428467 -2.14365363121032715 1644760248.45503974
220.628707885742188 192.060211181640625 7.63238430023193359 458 0.0460687540471553802 0.0564575344324111938 -2.17199373245239258 1644760248.85386992
219.719268798828125 190.87396240234375 7.51634359359741211 459 0.0531793870031833649 0.042132008820772171 -2.22087216377258301 1644760249.25692153
218.777603149414062 189.633056640625 7.26154279708862305 460 0.0234828051179647446 0.0536559075117111206 -2.24016618728637695 1644760249.65592861
217.92987060546875 188.952041625976562 6.91056156158447266 461 0.0686464831233024597 0.0254346206784248352 -2.35570025444030762 1644760250.06047845
217.008102416992188 188.140670776367188 7.47901773452758789 462 -0.00643766392022371292 0.0555167384445667267 -2.31089591979980469 1644760250.25762653
215.867782592773438 186.711776733398438 7.06251001358032227 463 0.0630767792463302612 0.0464491210877895355 -2.27674627304077148 1644760250.85319901
