# .PCD v0.7 - Point Cloud Data file format
VERSION 0.7
FIELDS x y z intensity t qx qy qz qw
SIZE 4 4 4 4 8 4 4 4 4
TYPE F F F F F F F F F
COUNT 1 1 1 1 1 1 1 1 1
WIDTH 276
HEIGHT 1
VIEWPOINT 0 0 0 1 0 0 0
POINTS 276
DATA ascii
109.753776550292969 71.5591278076171875 7.71375751495361328 199 1644764233.60254145 -0.841076076030731201 -0.540651857852935791 -0.015854978933930397 -0.00593857467174530029
112.020584106445312 74.1738433837890625 7.71244430541992188 200 1644764234.20426822 -0.926005184650421143 -0.377238482236862183 -0.0071783214807510376 -0.012411157600581646
115.216537475585938 75.7198104858398438 7.67708873748779297 201 1644764234.80331492 -0.984323322772979736 -0.176090613007545471 0.0068182176910340786 -0.00729128997772932053
118.146842956542969 75.9766311645507812 7.63848018646240234 202 1644764235.30352783 -0.999610364437103271 0.00094232591800391674 0.0129109350964426994 -0.0247291047126054764
127.280189514160156 69.3099517822265625 7.68661832809448242 203 1644764237.30366182 -0.913426518440246582 0.40687793493270874 -0.00842657778412103653 0.00559306889772415161
132.968780517578125 59.3581581115722656 7.61941862106323242 204 1644764239.40383053 -0.713301241397857666 0.699192702770233154 0.0442569218575954437 -0.0192942731082439423
128.182479858398438 50.5231132507324219 7.61236476898193359 205 1644764241.50394988 -0.503510951995849609 0.863946020603179932 0.00771598564460873604 -0.0038073263131082058
130.270217895507812 40.8969078063964844 8.30144500732421875 206 1644764243.60295558 -0.926414906978607178 0.371146082878112793 -0.063236728310585022 0.00267503014765679836
136.718185424804688 35.0674972534179688 8.59248542785644531 207 1644764245.40450644 -0.896190881729125977 0.442489892244338989 -0.0196307003498077393 0.0256749652326107025
140.0777587890625 31.2450733184814453 8.50548553466796875 208 1644764246.30661917 -0.92748105525970459 0.371011346578598022 -0.00589957693591713905 0.0457678325474262238
144.13446044921875 27.7532100677490234 8.60014438629150391 209 1644764247.20270276 -0.935010194778442383 0.353475123643875122 -0.0220319721847772598 0.0180512629449367523
147.940277099609375 24.3860912322998047 8.62663745880126953 210 1644764248.00560904 -0.932233333587646484 0.361625432968139648 -0.00946397893130779266 0.00886010285466909409
151.868621826171875 20.7835521697998047 8.47258567810058594 211 1644764248.80120254 -0.93204498291015625 0.361655205488204956 0.00324804591946303844 0.0220713075250387192
156.069290161132812 16.9520301818847656 8.2774200439453125 212 1644764249.60660172 -0.92908090353012085 0.369272708892822266 0.0115045309066772461 0.0177186969667673111
159.754562377929688 13.481109619140625 8.06942844390869141 213 1644764250.30287838 -0.92910921573638916 0.36919739842414856 0.00963637232780456543 0.0188800729811191559
163.215744018554688 9.65382003784179688 7.87703466415405273 214 1644764251.00772929 -0.902987539768218994 0.429434150457382202 0.0100508956238627434 0.00993979070335626602
166.497024536132812 5.67353010177612305 7.70229578018188477 215 1644764251.70317411 -0.913769304752349854 0.404903888702392578 -0.00612636003643274307 0.0322646759450435638
170.283554077148438 2.01175451278686523 7.49047136306762695 216 1644764252.40735745 -0.927757143974304199 0.371967703104019165 0.00711900973692536354 0.0292577445507049561
174.094741821289062 -1.491310715675354 7.32355308532714844 217 1644764253.10652947 -0.931170344352722168 0.363827794790267944 0.00403115060180425644 0.0231284163892269135
177.9263916015625 -5.03084659576416016 7.16035938262939453 218 1644764253.80616498 -0.93118584156036377 0.363675326108932495 0.00225484254769980907 0.0250611230731010437
181.67694091796875 -8.61073684692382812 6.99701929092407227 219 1644764254.50442863 -0.92528843879699707 0.378707408905029297 0.00298622902482748032 0.0203232355415821075
185.31732177734375 -12.2797069549560547 6.89121341705322266 220 1644764255.20366669 -0.922371804714202881 0.385607659816741943 -0.00528901303187012672 0.0225613284856081009
188.929458618164062 -15.9497766494750977 6.85956048965454102 221 1644764255.90786004 -0.922669649124145508 0.384985089302062988 -0.00447083218023180962 0.0211477037519216537
192.616653442382812 -19.4262981414794922 6.84137678146362305 222 1644764256.60701251 -0.933405160903930664 0.357504159212112427 -0.0104171698912978172 0.0289323776960372925
196.604995727539062 -22.5948085784912109 6.72348308563232422 223 1644764257.30621743 -0.950024425983428955 0.310864359140396118 -0.000471770268632099032 0.0285782124847173691
200.751693725585938 -25.5251903533935547 6.64684963226318359 224 1644764258.00565124 -0.947933673858642578 0.317973494529724121 -0.00583796389400959015 0.0167495924979448318
204.84039306640625 -28.5243263244628906 6.59406709671020508 225 1644764258.70552158 -0.95280379056930542 0.302378952503204346 -0.0109036825597286224 0.0247593801468610764
208.95989990234375 -31.4176826477050781 6.60938167572021484 226 1644764259.40568185 -0.952036201953887939 0.305122584104537964 -0.0118263484910130501 0.0196835547685623169
213.195556640625 -34.1561660766601562 6.61664676666259766 227 1644764260.10786438 -0.965829432010650635 0.256957352161407471 -0.0177442356944084167 0.0288366526365280151
218.271194458007812 -36.7519035339355469 6.61339378356933594 228 1644764260.90694952 -0.972130715847015381 0.233508840203285217 -0.0104405935853719711 0.0180695913732051849
223.38690185546875 -39.2772445678710938 6.62442207336425781 229 1644764261.70691085 -0.972968518733978271 0.230322852730751038 -0.0108334757387638092 0.0128967808559536934
227.849929809570312 -41.541046142578125 6.61707687377929688 230 1644764262.40753961 -0.969688832759857178 0.244150549173355103 -0.00282208481803536415 0.00928153097629547119
232.570205688476562 -44.6913528442382812 6.58659029006958008 231 1644764263.20131612 -0.945788323879241943 0.324664980173110962 -0.00132689555175602436 0.00868195667862892151
236.129913330078125 -48.23095703125 6.55699968338012695 232 1644764263.90690398 -0.90869593620300293 0.417451590299606323 0.00148986780550330877 -0.00189531163778156042
238.67376708984375 -52.5900421142578125 6.46483373641967773 233 1644764264.61053157 -0.838968992233276367 0.544080138206481934 0.0101712951436638832 -0.00208519375883042812
239.815826416015625 -58.12158203125 6.35771512985229492 234 1644764265.40117645 -0.734258711338043213 0.678557693958282471 0.0195425022393465042 -0.00645663030445575714
239.7545166015625 -63.144439697265625 6.28939199447631836 235 1644764266.09993815 -0.695059776306152344 0.718800008296966553 0.0125120533630251884 -0.00787000078707933426
239.698806762695312 -68.1525955200195312 6.30405187606811523 236 1644764266.80548239 -0.713696658611297607 0.700285375118255615 0.000113915615656878799 -0.0154105396941304207
240.376052856445312 -73.788604736328125 6.28456258773803711 237 1644764267.60093045 -0.770911455154418945 0.636921226978302002 -0.00364002399146556854 -0.0036908700130879879
241.990478515625 -79.2601089477539062 6.24137163162231445 238 1644764268.40016127 -0.804110109806060791 0.594351410865783691 0.00673746364191174507 -0.0103867519646883011
243.89227294921875 -84.6376953125 6.22442770004272461 239 1644764269.20166087 -0.820544242858886719 0.571421384811401367 0.00455856369808316231 -0.0128041012212634087
246.106399536132812 -89.8884506225585938 6.19164419174194336 240 1644764269.99922156 -0.840099036693572998 0.542345166206359863 0.00435142079368233681 -0.00873777922242879868
248.857528686523438 -94.8878097534179688 6.17174148559570312 241 1644764270.79849768 -0.872037053108215332 0.489349663257598877 0.00509368674829602242 -0.0078977048397064209
252.190444946289062 -99.509796142578125 6.14036798477172852 242 1644764271.59966302 -0.897344350814819336 0.441097438335418701 0.00422614114359021187 -0.0137208029627799988
256.010162353515625 -103.732452392578125 6.12767887115478516 243 1644764272.40042806 -0.920464038848876953 0.390172034502029419 0.00360183860175311565 -0.0223342105746269226
260.220245361328125 -107.546859741210938 6.10740900039672852 244 1644764273.20088816 -0.93695223331451416 0.349138259887695312 0.00092703959671780467 -0.014904647134244442
264.529541015625 -110.649574279785156 6.07487106323242188 245 1644764274.00155759 -0.954767048358917236 0.296603590250015259 0.009810594841837883 -0.018708057701587677
268.797119140625 -113.428596496582031 5.9945979118347168 246 1644764275.20028758 -0.951753795146942139 0.304935485124588013 0.0233965739607810974 -0.0251334477216005325
271.73114013671875 -115.866722106933594 6.00477075576782227 247 1644764277.2989347 -0.949304580688476562 0.313940942287445068 -0.000277733226539567113 -0.01618175208568573
276.364013671875 -118.240875244140625 5.96912717819213867 248 1644764278.9992106 -0.972609341144561768 0.232260599732398987 0.00286354729905724525 -0.00882452819496393204
281.011260986328125 -120.529518127441406 5.91115665435791016 249 1644764280.70025229 -0.973362565040588379 0.227993309497833252 0.024172833189368248 3.07066475215833634e-05
284.69049072265625 -122.667922973632812 5.8557281494140625 250 1644764282.70043588 -0.963364720344543457 0.267660200595855713 0.014814985916018486 0.00817923899739980698
289.150634765625 -125.41339111328125 5.77346944808959961 251 1644764284.70097685 -0.963715016841888428 0.266580492258071899 -0.00667178397998213768 0.01198545191437006
293.88604736328125 -128.305908203125 5.51853609085083008 252 1644764285.89954138 -0.962271392345428467 0.269569098949432373 0.00546909822151064873 0.0365556590259075165
298.232452392578125 -131.25860595703125 5.21460342407226562 253 1644764286.80141282 -0.950702011585235596 0.306332796812057495 0.0374174900352954865 0.0304267741739749908
302.487548828125 -134.178970336914062 4.85163211822509766 254 1644764287.69984627 -0.953396439552307129 0.298679322004318237 0.0382713079452514648 0.0190047901123762131
306.8934326171875 -137.164398193359375 4.39670896530151367 255 1644764288.6010251 -0.956378936767578125 0.288652211427688599 0.039655391126871109 0.0211343895643949509
311.282745361328125 -140.159317016601562 3.95619821548461914 256 1644764289.49951434 -0.953101277351379395 0.299053162336349487 0.0377738103270530701 0.0271721426397562027
315.709320068359375 -143.2435302734375 3.46137452125549316 257 1644764290.40129566 -0.951246142387390137 0.305223315954208374 0.0350336693227291107 0.0272419117391109467
319.833465576171875 -146.746917724609375 2.95555520057678223 258 1644764291.30030036 -0.928073525428771973 0.369058609008789062 0.0422914475202560425 0.0262041427195072174
323.312896728515625 -150.703872680664062 2.41399669647216797 259 1644764292.20049119 -0.902834296226501465 0.427568584680557251 0.0360624827444553375 0.027836216613650322
326.529754638671875 -154.775161743164062 1.90200614929199219 260 1644764293.10125303 -0.896085202693939209 0.439804673194885254 0.0420744903385639191 0.0428122915327548981
329.522705078125 -159.060806274414062 1.43351376056671143 261 1644764294.20247364 -0.8825874924659729 0.465701192617416382 0.0267046615481376648 0.0587248168885707855
331.99273681640625 -163.487442016601562 1.05980849266052246 262 1644764295.60311723 -0.845570564270019531 0.532824039459228516 0.00799023918807506561 0.0323283970355987549
332.4212646484375 -166.6854248046875 1.06814432144165039 263 1644764296.70308828 -0.736198008060455322 0.676355481147766113 -0.017609819769859314 0.0156730543822050095
331.631622314453125 -169.734283447265625 0.97538834810256958 264 1644764297.50371194 -0.585550129413604736 0.810479640960693359 0.000659084704238921404 0.0159151684492826462
329.6407470703125 -172.451187133789062 0.82767951488494873 265 1644764298.20340562 -0.425944745540618896 0.904492557048797607 0.0140457414090633392 0.0163397602736949921
325.517425537109375 -175.434921264648438 0.583840548992156982 266 1644764299.10445857 -0.272108674049377441 0.962036669254302979 0.0109283877536654472 0.0179696809500455856
320.855743408203125 -177.628982543945312 0.33491852879524231 267 1644764299.90323734 -0.208151102066040039 0.977825522422790527 0.00139556732028722763 0.0229860823601484299
315.654541015625 -179.734786987304688 0.0350649282336235046 268 1644764300.70306277 -0.185904785990715027 0.982263445854187012 -0.00468078674748539925 0.0240001175552606583
310.8994140625 -181.688644409179688 -0.238238856196403503 269 1644764301.40501165 -0.205351695418357849 0.978148460388183594 -0.0177299976348876953 0.027237866073846817
306.09783935546875 -183.7535400390625 -0.500252723693847656 270 1644764302.10488629 -0.195704668760299683 0.980198800563812256 -0.0139769511297345161 0.0267336126416921616
301.23748779296875 -185.77911376953125 -0.724042236804962158 271 1644764302.80402374 -0.193278953433036804 0.980622172355651855 -0.0218430701643228531 0.0233734510838985443
296.330169677734375 -187.73876953125 -0.918558895587921143 272 1644764303.50429535 -0.187746673822402954 0.981783866882324219 -0.0194814708083868027 0.0217290725558996201
291.411590576171875 -189.6021728515625 -1.0984417200088501 273 1644764304.20266581 -0.178793609142303467 0.983531415462493896 -0.0188239328563213348 0.0185592044144868851
286.456512451171875 -191.391265869140625 -1.26846921443939209 274 1644764304.90440559 -0.167753845453262329 0.985491693019866943 -0.0186038147658109665 0.0178527981042861938
281.5123291015625 -193.124603271484375 -1.42386734485626221 275 1644764305.60292196 -0.167303502559661865 0.985575675964355469 -0.0193029753863811493 0.0166589803993701935
276.559112548828125 -194.807418823242188 -1.57742321491241455 276 1644764306.30165982 -0.159030571579933167 0.986948847770690918 -0.0158613920211791992 0.0197392310947179794
271.59857177734375 -196.514862060546875 -1.75824034214019775 277 1644764307.00293446 -0.157986998558044434 0.987167000770568848 -0.00814478565007448196 0.0217957068234682083
266.68316650390625 -198.217315673828125 -1.90101814270019531 278 1644764307.70311117 -0.17834550142288208 0.983783245086669922 -0.014047134667634964 0.0128895211964845657
261.69891357421875 -199.835708618164062 -2.07016587257385254 279 1644764308.40782356 -0.145987376570701599 0.989060819149017334 -0.0139019116759300232 0.0159112662076950073
256.71844482421875 -201.333267211914062 -2.24254775047302246 280 1644764309.10224962 -0.141079127788543701 0.989790618419647217 -0.0116531457751989365 0.0165939312428236008
251.6815185546875 -202.723876953125 -2.41392374038696289 281 1644764309.80166721 -0.127156093716621399 0.991730391979217529 -0.00997047964483499527 0.0142386704683303833
246.609329223632812 -203.996185302734375 -2.58120584487915039 282 1644764310.50169754 -0.118074849247932434 0.992913484573364258 -0.00897155236452817917 0.0100316517055034637
241.479888916015625 -205.14892578125 -2.7734677791595459 283 1644764311.2021904 -0.107234694063663483 0.994026780128479004 -0.00769963301718235016 0.0187660828232765198
236.389053344726562 -206.269760131835938 -2.91022968292236328 284 1644764311.90163732 -0.107491306960582733 0.994110047817230225 -0.00684889033436775208 0.0119983777403831482
231.304763793945312 -207.396453857421875 -3.0496516227722168 285 1644764312.60118771 -0.109090089797973633 0.993877708911895752 -0.0117409294471144676 0.0129869980737566948
226.205398559570312 -208.566192626953125 -3.20667672157287598 286 1644764313.30336595 -0.114361189305782318 0.993265271186828613 -0.0136504527181386948 0.0126217054203152657
221.145294189453125 -209.732711791992188 -3.3799583911895752 287 1644764314.00131035 -0.113899879157543182 0.993297755718231201 -0.0130944028496742249 0.0146606862545013428
216.090682983398438 -210.916885375976562 -3.53515410423278809 288 1644764314.69974041 -0.108622826635837555 0.99394536018371582 -0.0103382198140025139 0.0129166627302765846
210.962493896484375 -212.085281372070312 -3.68281388282775879 289 1644764315.40802574 -0.11072152853012085 0.993716537952423096 -0.00797665584832429886 0.0143030658364295959
205.884384155273438 -212.96722412109375 -3.82602119445800781 290 1644764316.1031456 -0.0669306516647338867 0.997689902782440186 -0.00336214969865977764 0.0111281992867588997
200.72113037109375 -213.523223876953125 -3.94991421699523926 291 1644764316.80496955 -0.0524221323430538177 0.998600602149963379 -0.00691628502681851387 0.00095035182312130928
195.528656005859375 -214.002471923828125 -4.14322614669799805 292 1644764317.50000167 -0.0483307354152202606 0.998646974563598633 -0.0104059213772416115 0.0161261092871427536
190.299468994140625 -214.419509887695312 -4.29586029052734375 293 1644764318.20419478 -0.0330127254128456116 0.999304413795471191 -0.00825723353773355484 0.0152546670287847519
185.146652221679688 -214.74951171875 -4.43821287155151367 294 1644764318.89797211 -0.0258004050701856613 0.999564170837402344 -0.00463642552495002747 0.013574773445725441
179.907073974609375 -215.012466430664062 -4.60985851287841797 295 1644764319.60302687 -0.0240674279630184174 0.999609947204589844 0.000217769062146544456 0.0141638601198792458
174.669509887695312 -215.195343017578125 -4.79226493835449219 296 1644764320.30331564 -0.0105206873267889023 0.999790191650390625 0.000461759831523522735 0.01757032610476017
169.448226928710938 -215.338714599609375 -4.93004989624023438 297 1644764321.00245333 -0.00701397005468606949 0.999934017658233643 0.0058192727155983448 0.00699411984533071518
164.27886962890625 -215.377777099609375 -5.02126550674438477 298 1644764321.69834661 -0.00518060429021716118 0.999942779541015625 -0.00137281918432563543 0.00925955362617969513
159.087310791015625 -215.392532348632812 -5.09277725219726562 299 1644764322.40190101 0.00143316364847123623 0.999973893165588379 -0.0027406404260545969 0.00652685901150107384
153.98358154296875 -215.433273315429688 -5.15665388107299805 300 1644764323.09914446 -0.00395999569445848465 0.999987006187438965 0.00102255074307322502 0.00304318615235388279
148.848114013671875 -215.52386474609375 -5.22199583053588867 301 1644764323.80123186 -0.00717485183849930763 0.999952375888824463 0.00327515997923910618 0.00574979651719331741
143.770370483398438 -215.682388305664062 -5.25542736053466797 302 1644764324.50206685 -0.0148867415264248848 0.999880492687225342 0.00415518647059798241 0.000369074754416942596
138.725555419921875 -215.872085571289062 -5.26760530471801758 303 1644764325.20204234 -0.0218613520264625549 0.999760091304779053 -0.00113970157690346241 0.000762435724027454853
133.708450317382812 -216.16558837890625 -5.31380558013916016 304 1644764325.89860964 -0.0267432816326618195 0.999636530876159668 0.00286091072484850883 -0.00185466895345598459
128.689376831054688 -216.502670288085938 -5.31892108917236328 305 1644764326.60014629 -0.0345281064510345459 0.999402046203613281 0.00129155360627919436 -0.00131354294717311859
123.698944091796875 -216.8983154296875 -5.32721185684204102 306 1644764327.29821515 -0.038285769522190094 0.999240398406982422 0.00529343029484152794 -0.00497933989390730858
118.712745666503906 -217.352951049804688 -5.3336181640625 307 1644764327.99929094 -0.0432734191417694092 0.99901968240737915 0.00619644112884998322 -0.00697787245735526085
113.02667236328125 -217.849761962890625 -5.32452726364135742 308 1644764328.80116248 -0.0283716004341840744 0.999537765979766846 0.00924737751483917236 -0.00581372994929552078
107.319969177246094 -218.104736328125 -5.33486843109130859 309 1644764329.59777141 -0.0233018975704908371 0.999692440032958984 0.00845855381339788437 0.000683725578710436821
101.603569030761719 -218.44842529296875 -5.3341217041015625 310 1644764330.39914274 -0.0246629137545824051 0.999527096748352051 0.0182097610086202621 0.00239427085034549236
95.92633056640625 -218.739334106445312 -5.31785678863525391 311 1644764331.19873381 -0.0237705186009407043 0.999482691287994385 0.0213298015296459198 -0.00379063235595822334
90.232177734375 -218.994491577148438 -5.29634523391723633 312 1644764331.99886727 -0.0183314066380262375 0.999615073204040527 0.0205533206462860107 -0.00335650448687374592
84.5546112060546875 -219.23193359375 -5.28578424453735352 313 1644764332.797719 -0.0140254097059369087 0.999692618846893311 0.0201157908886671066 -0.00364075298421084881
78.8420257568359375 -219.42315673828125 -5.31257152557373047 314 1644764333.59761429 -0.0113033559173345566 0.99980318546295166 0.0161362066864967346 -0.0023330633994191885
73.1486663818359375 -219.525787353515625 -5.28901243209838867 315 1644764334.3965013 -0.000510079320520162582 0.999941229820251465 0.00863477960228919983 -0.0065372600220143795
67.4782562255859375 -219.503829956054688 -5.24027919769287109 316 1644764335.19676399 0.00976359006017446518 0.999900400638580322 2.50763150688726455e-05 -0.0101902903988957405
61.83514404296875 -219.350418090820312 -5.18814611434936523 317 1644764335.99684906 0.0208845995366573334 0.999731600284576416 -0.00790145713835954666 -0.00617838324978947639
56.1893463134765625 -219.037857055664062 -5.16096925735473633 318 1644764336.79765654 0.0369985029101371765 0.99927443265914917 -0.0080956658348441124 -0.00402731075882911682
50.5592842102050781 -218.448150634765625 -5.15868425369262695 319 1644764337.59728813 0.0730082541704177856 0.997329652309417725 -0.00181129039265215397 0.000329490314470604062
45.0356903076171875 -217.121170043945312 -5.15996885299682617 320 1644764338.3997767 0.134002730250358582 0.990940570831298828 -0.00849179737269878387 -0.00282071065157651901
39.711639404296875 -215.14111328125 -5.18792581558227539 321 1644764339.19751215 0.195053398609161377 0.980771303176879883 -0.00639983359724283218 -0.00095724576385691762
34.6464881896972656 -212.524185180664062 -5.20045328140258789 322 1644764339.99759197 0.251536071300506592 0.967806398868560791 -0.0078982887789607048 -0.00424561137333512306
29.8794898986816406 -209.387939453125 -5.22435808181762695 323 1644764340.79838109 0.300502628087997437 0.953747451305389404 -0.00748487794771790504 -0.00282433116808533669
25.3635673522949219 -205.907257080078125 -5.21322393417358398 324 1644764341.59877992 0.331704467535018921 0.943351984024047852 0.000323196261888369918 -0.00768314767628908157
21.1299495697021484 -202.199478149414062 -5.13106966018676758 325 1644764342.40073347 0.363033682107925415 0.931436240673065186 0.00891331210732460022 -0.0235297437757253647
17.0546951293945312 -198.348419189453125 -5.04537010192871094 326 1644764343.19993949 0.37923094630241394 0.925187766551971436 0.00486453436315059662 -0.0137065695598721504
13.088007926940918 -194.46826171875 -4.92556667327880859 327 1644764343.99984264 0.390134751796722412 0.920436978340148926 0.0169528648257255554 -0.0174140762537717819
9.19684410095214844 -190.511276245117188 -4.71586036682128906 328 1644764344.80118012 0.390384465456008911 0.920562446117401123 0.00692499848082661629 0.0108064990490674973
5.41115713119506836 -186.723297119140625 -4.56169700622558594 329 1644764345.60173464 0.379716068506240845 0.924425005912780762 0.0169522874057292938 -0.0310927499085664749
1.5284125804901123 -183.052093505859375 -4.29556989669799805 330 1644764346.39756107 0.362890005111694336 0.931179404258728027 0.00657611433416604996 -0.0342425554990768433
-2.49711370468139648 -179.562911987304688 -4.0245509147644043 331 1644764347.20157504 0.345736563205718994 0.937757790088653564 0.0116428686305880547 -0.030674956738948822
-6.54997968673706055 -176.299392700195312 -3.71583962440490723 332 1644764347.99763179 0.333693087100982666 0.941923618316650391 0.020827045664191246 -0.0315438397228717804
-10.5668048858642578 -173.047073364257812 -3.40084958076477051 333 1644764348.79930425 0.345752447843551636 0.937381863594055176 0.0284890737384557724 -0.0309661012142896652
-14.4177656173706055 -169.73480224609375 -3.0707697868347168 334 1644764349.59854889 0.352042287588119507 0.93497389554977417 0.0295308958739042282 -0.0319053530693054199
-18.1674633026123047 -166.4422607421875 -2.70183086395263672 335 1644764350.39657354 0.359544366598129272 0.932037472724914551 0.0297398064285516739 -0.0339047424495220184
-22.2483196258544922 -162.729339599609375 -2.29737710952758789 336 1644764351.29746056 0.366908907890319824 0.929208755493164062 0.0309112649410963058 -0.0315187722444534302
-26.2345790863037109 -159.105789184570312 -1.93330097198486328 337 1644764352.19766784 0.363840728998184204 0.930036306381225586 0.0389008074998855591 -0.0337503254413604736
-30.1046199798583984 -155.593414306640625 -1.48392224311828613 338 1644764353.09695554 0.360173225402832031 0.930736362934112549 0.0412434414029121399 -0.0480009019374847412
-33.828094482421875 -152.154922485351562 -1.03628444671630859 339 1644764353.99621248 0.363216638565063477 0.930450379848480225 0.0249517541378736496 -0.0413901321589946747
-37.8175544738769531 -148.48797607421875 -0.545994222164154053 340 1644764354.99669814 0.365479439496994019 0.929604828357696533 0.0219587888568639755 -0.0421603210270404816
-41.665130615234375 -144.930587768554688 -0.0967112928628921509 341 1644764355.99680424 0.364899128675460815 0.929823398590087891 0.0165373142808675766 -0.0447609014809131622
-45.3622169494628906 -141.378158569335938 0.316678315401077271 342 1644764356.99671364 0.377183765172958374 0.924875319004058838 0.00890095345675945282 -0.0475268140435218811
-48.8286323547363281 -137.783538818359375 0.722973763942718506 343 1644764357.99812436 0.400666028261184692 0.915029525756835938 0.0049239438958466053 -0.0465130321681499481
-52.29986572265625 -133.59527587890625 1.12317037582397461 344 1644764359.09619069 0.439199239015579224 0.897495150566101074 0.011512022465467453 -0.0383918993175029755
-55.1271705627441406 -129.480911254882812 1.48123383522033691 345 1644764360.09617686 0.475400656461715698 0.878650248050689697 0.0148242441937327385 -0.0418109335005283356
-57.59552001953125 -125.090751647949219 1.85624980926513672 346 1644764361.0960114 0.511832475662231445 0.857433438301086426 0.00877584889531135559 -0.0525201819837093353
-59.7262763977050781 -120.514518737792969 2.24659466743469238 347 1644764362.09556127 0.542480230331420898 0.838444054126739502 0.00303334626369178295 -0.0521308071911334991
-61.8076133728027344 -115.451171875 2.72160172462463379 348 1644764363.19569421 0.563809216022491455 0.824229598045349121 0.00853096693754196167 -0.0518845058977603912
-63.5788917541503906 -110.372665405273438 3.17473316192626953 349 1644764364.29578614 0.587576985359191895 0.807709336280822754 0.0119880186393857002 -0.0470656007528305054
-64.9098358154296875 -105.11383056640625 3.55562543869018555 350 1644764365.39694381 0.633744537830352783 0.772673070430755615 0.0136909456923604012 -0.0340111702680587769
-65.5191268920898438 -99.6814804077148438 3.91446828842163086 351 1644764366.49670148 0.683086216449737549 0.729027092456817627 0.0239614918828010559 -0.0365862399339675903
-65.5453338623046875 -94.6571884155273438 4.276702880859375 352 1644764367.49735832 0.710292518138885498 0.702115714550018311 0.0246463418006896973 -0.0437110401690006256
-65.3325424194335938 -89.2701034545898438 4.88064098358154297 353 1644764368.59701109 0.722575008869171143 0.686836719512939453 0.0524781905114650726 -0.0581957027316093445
-64.9575042724609375 -83.8479156494140625 5.23561429977416992 354 1644764369.6986804 0.7312774658203125 0.680041790008544922 0.0334016010165214539 -0.0407528281211853027
-64.513275146484375 -78.399017333984375 5.67807626724243164 355 1644764370.79694629 0.735697150230407715 0.675777554512023926 0.0288161057978868484 -0.0352714322507381439
-64.0764694213867188 -72.9480056762695312 6.08613681793212891 356 1644764371.89814687 0.734277963638305664 0.677405059337615967 0.0289431866258382797 -0.033475089818239212
-63.6162071228027344 -67.7162857055664062 6.50435304641723633 357 1644764372.99909306 0.738921761512756348 0.672498345375061035 0.0245778243988752365 -0.0337127745151519775
-62.9202346801757812 -62.4590263366699219 6.95118856430053711 358 1644764374.49854493 0.7619972825050354 0.645693302154541016 0.0287620294839143753 -0.0401626601815223694
-61.1912727355957031 -57.7286109924316406 7.3382878303527832 359 1644764376.29846787 0.845491170883178711 0.532295346260070801 0.0214743148535490036 -0.0366772450506687164
-57.5756454467773438 -53.9341621398925781 7.60295248031616211 360 1644764378.09974408 0.937391996383666992 0.34559217095375061 0.013410443440079689 -0.0410171151161193848
-53.0072975158691406 -51.5546913146972656 7.75684070587158203 361 1644764379.40011549 0.98016434907913208 0.194684803485870361 0.00251707690767943859 -0.0370048880577087402
-45.2575340270996094 -50.9435462951660156 7.44864034652709961 362 1644764381.40024137 0.999300599098205566 -0.0248816180974245071 -0.0275857057422399521 -0.00427842326462268829
-38.137847900390625 -51.4236373901367188 7.17769289016723633 363 1644764383.40198803 0.999792277812957764 -0.0148927699774503708 -0.013254605233669281 0.00423146830871701241
-34.56036376953125 -52.1807746887207031 7.06985282897949219 364 1644764384.70125794 0.980854928493499756 -0.192579418420791626 -0.0228119343519210815 0.0177861321717500687
-33.915252685546875 -55.726715087890625 7.00510406494140625 365 1644764386.30345321 0.687216103076934814 -0.725582420825958252 -0.0296329893171787262 0.0196481458842754364
-34.6438369750976562 -56.57696533203125 7.05151510238647461 366 1644764386.80235171 0.535297393798828125 -0.844024896621704102 -0.0209262799471616745 0.0253136157989501953
-35.5873336791992188 -57.0854301452636719 7.09440231323242188 367 1644764387.20277762 0.368171602487564087 -0.92930680513381958 -0.0195769853889942169 0.0213369540870189667
-36.8251152038574219 -57.2213973999023438 7.21552753448486328 368 1644764387.70336437 0.167566046118736267 -0.984527945518493652 -0.00880664307624101639 0.0504852905869483948
-42.4342422485351562 -56.590301513671875 7.30345392227172852 369 1644764389.70410633 -0.103793464601039886 -0.994575619697570801 -0.00227390928193926811 -0.00640950445085763931
-48.7624015808105469 -56.0147132873535156 7.45594644546508789 370 1644764391.79792619 0.0204464942216873169 -0.999682784080505371 -0.0105975288897752762 0.0101968627423048019
-52.95050048828125 -57.4210662841796875 7.30098247528076172 371 1644764392.90311813 0.198707103729248047 -0.979367673397064209 -0.0307156965136528015 -0.0202743876725435257
-55.3196220397949219 -59.5308036804199219 7.10425233840942383 372 1644764393.7030375 0.371401816606521606 -0.927892148494720459 -0.0276851598173379898 -0.0176192671060562134
-57.0071220397949219 -62.7317123413085938 6.84650850296020508 373 1644764394.49986982 0.534469962120056152 -0.844372987747192383 -0.0303950272500514984 -0.0212665311992168427
-58.5466842651367188 -67.775543212890625 6.46425294876098633 374 1644764395.49989176 0.613070666790008545 -0.789358913898468018 -0.0206744391471147537 -0.0250886119902133942
-59.1346092224121094 -74.1096649169921875 5.90918207168579102 375 1644764396.60369372 0.69053351879119873 -0.721888601779937744 -0.037637755274772644 -0.0249733589589595795
-59.0998306274414062 -79.519805908203125 5.48215436935424805 376 1644764397.49756646 0.709587335586547852 -0.703424811363220215 -0.0352550186216831207 -0.0208899527788162231
-59.3937568664550781 -84.8193359375 5.02105474472045898 377 1644764398.39848995 0.674469649791717529 -0.736446142196655273 -0.0441541485488414764 -0.0280745867639780045
-59.7737083435058594 -89.9362640380859375 4.65015983581542969 378 1644764399.3992002 0.680115103721618652 -0.730190634727478027 -0.0571526028215885162 -0.0316015519201755524
-59.9832611083984375 -95.3248062133789062 4.20034313201904297 379 1644764400.40009141 0.698679089546203613 -0.714759588241577148 -0.0276808682829141617 -0.0141439419239759445
-59.844818115234375 -100.357467651367188 3.77638673782348633 380 1644764401.19772911 0.723497867584228516 -0.689234077930450439 -0.0342866033315658569 -0.0182095393538475037
-59.2015304565429688 -105.761329650878906 3.29985880851745605 381 1644764401.99621582 0.753598392009735107 -0.655888974666595459 -0.0401594154536724091 -0.0169203858822584152
-58.2013473510742188 -110.70574951171875 2.83327770233154297 382 1644764402.69556832 0.775442600250244141 -0.629561960697174072 -0.0475593581795692444 -0.00886391010135412216
-56.7715377807617188 -115.792472839355469 2.32127547264099121 383 1644764403.39593077 0.808716058731079102 -0.58601844310760498 -0.0475845150649547577 -0.0172169599682092667
-54.6146812438964844 -120.773139953613281 1.82459366321563721 384 1644764404.09599566 0.845356404781341553 -0.532290995121002197 -0.0442022010684013367 -0.00922235846519470215
-51.8227577209472656 -125.554710388183594 1.39524161815643311 385 1644764404.79541349 0.872160971164703369 -0.487451016902923584 -0.0414156727492809296 -0.00338737503625452518
-48.5973014831542969 -130.143692016601562 1.02815818786621094 386 1644764405.49534297 0.893606603145599365 -0.447329163551330566 -0.0367163941264152527 -0.00397272082045674324
-44.8930015563964844 -134.386459350585938 0.620935738086700439 387 1644764406.19478583 0.917526602745056152 -0.395872205495834351 -0.0365485921502113342 -0.00971422437578439713
-40.7920341491699219 -138.32177734375 0.165295585989952087 388 1644764406.8946085 0.927691280841827393 -0.370663553476333618 -0.0427742749452590942 -0.0129528716206550598
-36.59881591796875 -142.180816650390625 -0.27987217903137207 389 1644764407.59535503 0.930512070655822754 -0.365345180034637451 -0.0246658306568861008 -0.00786185730248689651
-32.40130615234375 -146.1556396484375 -0.716575860977172852 390 1644764408.29472017 0.92670130729675293 -0.373726040124893188 -0.0366391502320766449 -0.0145313078537583351
-28.2622432708740234 -150.198074340820312 -1.19061040878295898 391 1644764408.99468732 0.924280643463134766 -0.379625320434570312 -0.0333315916359424591 -0.0218845885246992111
-24.6939754486083984 -153.701339721679688 -1.61778748035430908 392 1644764409.59552002 0.924590587615966797 -0.378924638032913208 -0.0332190953195095062 -0.0210929177701473236
-20.4949359893798828 -157.719528198242188 -2.04745936393737793 393 1644764410.29456449 0.928716123104095459 -0.368793874979019165 -0.0297314450144767761 -0.0243627652525901794
-16.1682033538818359 -161.627288818359375 -2.48711943626403809 394 1644764410.99396324 0.931958019733428955 -0.359386593103408813 -0.0403830036520957947 -0.0257832203060388565
-12.3968868255615234 -164.926010131835938 -2.89945244789123535 395 1644764411.59491324 0.932160437107086182 -0.359345585107803345 -0.0408813618123531342 -0.0166238564997911453
-6.24165678024291992 -170.510696411132812 -3.4860835075378418 396 1644764412.59445262 0.930179595947265625 -0.365609705448150635 -0.0323548726737499237 -0.00697316881269216537
5.65190553665161133 -181.90277099609375 -4.42870283126831055 397 1644764414.59462929 0.925807476043701172 -0.377384275197982788 -0.0200482569634914398 -0.00772919273003935814
16.8572654724121094 -193.09332275390625 -4.93071174621582031 398 1644764416.59584308 0.923934459686279297 -0.38243219256401062 0.00198141438886523247 -0.0093160802498459816
28.1594314575195312 -203.26202392578125 -5.27501916885375977 399 1644764418.59605193 0.944103121757507324 -0.329554438591003418 0.007529454305768013 -0.00254973373375833035
38.947052001953125 -209.456939697265625 -5.31066608428955078 400 1644764420.29430437 0.978223800659179688 -0.207229405641555786 0.0021059173159301281 0.0113889360800385475
43.5986480712890625 -211.375595092773438 -5.29496860504150391 401 1644764420.99446058 0.98137211799621582 -0.191821351647377014 0.00220447732135653496 0.0104129454120993614
48.3305130004882812 -213.033645629882812 -5.28039789199829102 402 1644764421.69757438 0.987260401248931885 -0.158635050058364868 0.00136803521309047937 0.0122450031340122223
53.8065071105957031 -214.543365478515625 -5.2684941291809082 403 1644764422.49432397 0.992199361324310303 -0.123880811035633087 -0.000607646943535655737 0.0139131955802440643
67.8572845458984375 -215.992019653320312 -5.29275894165039062 404 1644764424.4948678 0.999894440174102783 0.0126787265762686729 0.00187569542322307825 0.00684723397716879845
80.5396575927734375 -214.694168090820312 -5.28219461441040039 405 1644764426.29629207 0.998110532760620117 0.0600376725196838379 0.00395352113991975784 0.0124563602730631828
86.1626434326171875 -214.256668090820312 -5.26535701751708984 406 1644764427.09602189 0.999597728252410889 0.0186423361301422119 0.00704772956669330597 0.0201793964952230453
91.8333587646484375 -214.114105224609375 -5.27105474472045898 407 1644764427.89666772 0.999786794185638428 0.012310628779232502 0.00164886238053441048 0.0164937693625688553
97.4907073974609375 -213.988861083984375 -5.28437376022338867 408 1644764428.6946516 0.999817430973052979 0.0109196668490767479 0.00213873782195150852 0.0155332693830132484
103.9195556640625 -213.922943115234375 -5.30880498886108398 409 1644764429.59785151 0.999934971332550049 0.000198940164409577847 0.00156770134344696999 0.0112950224429368973
118.886375427246094 -213.746322631835938 -5.34954023361206055 410 1644764431.69627643 0.999616086483001709 0.0273338761180639267 0.00303934491239488125 0.00336371478624641895
133.722869873046875 -212.174835205078125 -5.38438892364501953 411 1644764433.79551601 0.999791383743286133 0.00617481674998998642 -0.00383147411048412323 0.0190878156572580338
148.522308349609375 -212.208160400390625 -5.27641820907592773 412 1644764435.89665389 0.999828338623046875 -0.000806851603556424379 0.00687313685193657875 0.0171876978129148483
162.513107299804688 -211.469268798828125 -5.10527753829956055 413 1644764437.89745402 0.998742580413818359 0.0466922596096992493 0.0109201390296220779 0.0146220438182353973
171.485183715820312 -210.5101318359375 -4.92257452011108398 414 1644764439.19601274 0.998528897762298584 0.0507333576679229736 0.0148366112262010574 0.0120864203199744225
176.9593505859375 -209.998016357421875 -4.76525306701660156 415 1644764439.99772596 0.998843133449554443 0.0411588959395885468 0.0218212530016899109 0.0119243273511528969
182.391098022460938 -209.561233520507812 -4.6123967170715332 416 1644764440.79608512 0.999054789543151855 0.0356371961534023285 0.0202992800623178482 0.0144049469381570816
187.821609497070312 -209.250289916992188 -4.44232273101806641 417 1644764441.59503365 0.999361515045166016 0.0287584252655506134 0.0186631921678781509 0.0100612565875053406
193.242965698242188 -208.873733520507812 -4.27539634704589844 418 1644764442.39541268 0.998867332935333252 0.0430590398609638214 0.0200490579009056091 0.00283068744465708733
198.599075317382812 -208.233322143554688 -4.10714149475097656 419 1644764443.1954658 0.997765958309173584 0.0639341920614242554 0.0189138464629650116 0.00421315431594848633
203.935287475585938 -207.329254150390625 -3.96022534370422363 420 1644764443.99661088 0.996082067489624023 0.08662385493516922 0.016371091827750206 0.00698842620477080345
209.208587646484375 -206.192642211914062 -3.80658602714538574 421 1644764444.79668784 0.993839502334594727 0.108937308192253113 0.0191765259951353073 0.00692203501239418983
214.439193725585938 -204.821731567382812 -3.65357112884521484 422 1644764445.59622312 0.990873336791992188 0.133938506245613098 0.0151616726070642471 0.000777920999098569155
219.612960815429688 -203.21728515625 -3.50539898872375488 423 1644764446.396878 0.988338112831115723 0.151723921298980713 0.00918753352016210556 0.00912257283926010132
224.702011108398438 -201.49615478515625 -3.34514141082763672 424 1644764447.19813704 0.986844420433044434 0.160614505410194397 0.0175862032920122147 0.0056430203840136528
229.821624755859375 -199.726913452148438 -3.20461440086364746 425 1644764447.99788833 0.986689448356628418 0.162024721503257751 0.0129811791703104973 0.00483597628772258759
234.9583740234375 -198.175537109375 -3.03057146072387695 426 1644764448.797261 0.992416203022003174 0.120172515511512756 0.0202637407928705215 0.0160620883107185364
240.258468627929688 -197.313446044921875 -2.87601923942565918 427 1644764449.59886503 0.998343348503112793 0.0515538454055786133 0.0185681171715259552 0.0175490416586399078
245.647171020507812 -196.962600708007812 -2.73084521293640137 428 1644764450.39673424 0.999033749103546143 0.0420980826020240784 -0.00958567392081022263 0.00820862315595149994
250.87481689453125 -196.317337036132812 -2.53137636184692383 429 1644764451.19829941 0.997526705265045166 0.0661420151591300964 0.0204849746078252792 0.0120877362787723541
256.103729248046875 -195.55010986328125 -2.34471583366394043 430 1644764451.99690866 0.996983885765075684 0.073285616934299469 0.0245097968727350235 0.00718664145097136497
261.351104736328125 -194.60186767578125 -2.15133500099182129 431 1644764452.79761553 0.995151102542877197 0.0950531810522079468 0.0232783947139978409 0.00986577663570642471
267.869659423828125 -193.15234375 -1.92943644523620605 432 1644764453.79704022 0.992969274520874023 0.116403155028820038 0.0207787323743104935 0.00553239462897181511
280.765380859375 -189.350296020507812 -1.50795161724090576 433 1644764455.7975862 0.987033367156982422 0.158677086234092712 0.0242207292467355728 -0.000247679388849064708
293.92425537109375 -184.163299560546875 -1.09139454364776611 434 1644764457.89566183 0.980154573917388916 0.197483688592910767 0.016371140256524086 0.00540251564234495163
301.825225830078125 -180.542098999023438 -0.805431663990020752 435 1644764459.19870901 0.977001368999481201 0.20929969847202301 0.0389057248830795288 0.0121769793331623077
306.697357177734375 -178.366836547851562 -0.541793644428253174 436 1644764459.99986649 0.977744996547698975 0.205982297658920288 0.038722064346075058 0.00930493511259555817
311.483184814453125 -176.271560668945312 -0.241851001977920532 437 1644764460.7989521 0.979124486446380615 0.200690016150474548 0.0311376564204692841 0.00831633806228637695
316.26611328125 -174.156265258789062 0.0586148276925086975 438 1644764461.6929996 0.977125227451324463 0.210351049900054932 0.0310562755912542343 0.00376937701366841793
320.7535400390625 -171.6373291015625 0.346793323755264282 439 1644764462.69919086 0.957388341426849365 0.286711424589157104 0.0341480299830436707 -0.00616544811055064201
323.79327392578125 -168.135467529296875 0.565860450267791748 440 1644764463.59864831 0.883735060691833496 0.467466503381729126 0.0213707555085420609 -0.00553804868832230568
324.894500732421875 -164.678466796875 0.748453021049499512 441 1644764464.29549456 0.773337483406066895 0.632551133632659912 0.0299409106373786926 -0.0305238757282495499
324.645416259765625 -161.69659423828125 1.10900115966796875 442 1644764464.89579415 0.647395968437194824 0.759920656681060791 0.0219121668487787247 -0.0540269576013088226
322.942779541015625 -158.4208984375 1.57385849952697754 443 1644764465.69401288 0.505293726921081543 0.860117256641387939 0.0468245558440685272 -0.0518075749278068542
318.30487060546875 -151.73773193359375 2.47977113723754883 444 1644764467.59641623 0.445550888776779175 0.893013834953308105 0.0416467450559139252 -0.0477104485034942627
312.22784423828125 -145.861618041992188 3.40656423568725586 445 1644764469.69532967 0.335905015468597412 0.93965989351272583 0.0434736683964729309 -0.0481372922658920288
306.517120361328125 -142.268524169921875 4.03685188293457031 446 1644764471.39659262 0.251030117273330688 0.966682016849517822 0.0315303988754749298 -0.0389306880533695221
301.78863525390625 -139.829376220703125 4.49895715713500977 447 1644764472.69679546 0.236447617411613464 0.970425903797149658 0.025442780926823616 -0.0414583608508110046
297.2503662109375 -137.475616455078125 4.91349124908447266 448 1644764473.89737821 0.255200207233428955 0.96566396951675415 0.0320797935128211975 -0.0365623012185096741
292.82080078125 -134.704299926757812 5.32578229904174805 449 1644764475.09630919 0.28605496883392334 0.957008123397827148 0.0308992955833673477 -0.0367870479822158813
288.186553955078125 -131.867843627929688 5.6298527717590332 450 1644764476.2942369 0.265252619981765747 0.963624715805053711 0.0247814897447824478 -0.0213151108473539352
283.57086181640625 -129.48828125 5.79413175582885742 451 1644764477.59960961 0.237710475921630859 0.971042931079864502 0.0199975688010454178 -0.0130187291651964188
279.171051025390625 -126.899948120117188 5.95867204666137695 452 1644764478.79891706 0.274058103561401367 0.961589634418487549 0.00795782171189785004 -0.0131988823413848877
274.802032470703125 -123.823341369628906 6.05977487564086914 453 1644764479.89320898 0.304658859968185425 0.952306807041168213 -0.00855352357029914856 -0.0148862013593316078
265.77191162109375 -116.927978515625 6.15921592712402344 454 1644764481.89373612 0.327760547399520874 0.944694757461547852 -0.00500828633084893227 -0.00998935941606760025
255.668243408203125 -108.752540588378906 6.22466373443603516 455 1644764483.89393687 0.340872436761856079 0.940048933029174805 -0.00995635241270065308 -0.00386045733466744423
246.05029296875 -97.9391403198242188 6.20917892456054688 456 1644764485.99272537 0.469737589359283447 0.882790148258209229 0.00260082422755658627 0.00462782615795731544
240.028427124023438 -84.59234619140625 6.29947280883789062 457 1644764488.09215426 0.58579552173614502 0.810395538806915283 -0.0011390333529561758 -0.0100671779364347458
236.8602294921875 -71.2150039672851562 6.33782291412353516 458 1644764490.09260082 0.640191555023193359 0.768154740333557129 -0.00541726965457201004 -0.00798017065972089767
235.340805053710938 -60.553985595703125 6.38347339630126953 459 1644764491.79320979 0.68496018648147583 0.728478133678436279 0.00623091496527194977 -0.0105023616924881935
233.423583984375 -49.8255729675292969 6.46166515350341797 460 1644764493.69345522 0.536100506782531738 0.844026863574981689 -0.0145723121240735054 -0.00158038875088095665
230.673065185546875 -46.8392982482910156 6.51916360855102539 461 1644764494.39374852 0.352737545967102051 0.935595452785491943 -0.0120300361886620522 -0.00962508376687765121
219.7037353515625 -41.2979698181152344 6.51845884323120117 462 1644764496.39551783 0.229318335652351379 0.972912132740020752 0.0284667704254388809 0.00669188052415847778
207.459487915039062 -34.0795516967773438 6.50421905517578125 463 1644764498.49537325 0.288123726844787598 0.957450628280639648 0.0165183674544095993 0.000446145626483485103
195.52911376953125 -25.6689815521240234 6.61404514312744141 464 1644764500.59460354 0.320728957653045654 0.947021186351776123 0.0162882525473833084 -0.00430614780634641647
184.796295166015625 -15.9851064682006836 6.78757810592651367 465 1644764502.69522333 0.382401734590530396 0.923954248428344727 0.00873632077127695084 -0.00108584074769169092
174.934402465820312 -5.56250667572021484 7.12157487869262695 466 1644764504.79371357 0.403937429189682007 0.914298772811889648 0.0270029380917549133 -0.0127723915502429008
164.8546142578125 4.13606357574462891 7.62457847595214844 467 1644764506.89325309 0.366080999374389648 0.930308997631072998 0.0163627006113529205 -0.0155615611001849174
155.3511962890625 13.0286149978637695 8.11548614501953125 468 1644764508.89336348 0.401809036731719971 0.91519320011138916 0.023736901581287384 -0.020186159759759903
146.574630737304688 22.5600605010986328 8.58660030364990234 469 1644764510.89555931 0.394140958786010742 0.918918788433074951 0.00991032831370830536 -0.0119542684406042099
138.246231079101562 30.6268272399902344 8.42317104339599609 470 1644764512.59697318 0.389490514993667603 0.920320451259613037 0.0342978201806545258 0.0114495223388075829
128.299423217773438 40.7212066650390625 8.13572025299072266 471 1644764514.59725118 0.376095503568649292 0.924508213996887207 0.006938170175999403 0.061551511287689209
118.458564758300781 51.3354835510253906 7.71652603149414062 472 1644764516.69471192 0.396799683570861816 0.917885899543762207 -0.00327774276956915855 0.0049740280956029892
111.653572082519531 58.6483879089355469 7.70906591415405273 473 1644764518.69801164 0.38614162802696228 0.922266125679016113 -0.0140160713344812393 -0.0111085120588541031
104.193305969238281 65.8516082763671875 7.70686626434326172 474 1644764520.79774165 0.367767661809921265 0.92984086275100708 0.00737748108804225922 -0.00940814614295959473
