# .PCD v0.7 - Point Cloud Data file format
VERSION 0.7
FIELDS x y z intensity t qx qy qz qw
SIZE 4 4 4 4 8 4 4 4 4
TYPE F F F F F F F F F
COUNT 1 1 1 1 1 1 1 1 1
WIDTH 277
HEIGHT 1
VIEWPOINT 0 0 0 1 0 0 0
POINTS 277
DATA ascii
144.422866821289062 -248.092391967773438 5.72995138168334961 177 1644759072.92712069 0.998963415622711182 -0.008546474389731884 -0.0229129884392023087 0.0383940897881984711
149.780563354492188 -248.040130615234375 5.48902273178100586 178 1644759074.22477126 0.998664259910583496 -0.00116243597585707903 -0.0249710660427808762 0.0452196784317493439
154.893966674804688 -248.206893920898438 5.3153986930847168 179 1644759075.72778726 0.998588919639587402 -0.0258752778172492981 -0.0212342832237482071 0.041228659451007843
160.01953125 -248.294158935546875 5.15166187286376953 180 1644759077.52255893 0.999195992946624756 0.0099148191511631012 -0.0143681121990084648 0.0360912270843982697
164.970916748046875 -248.388809204101562 5.05310297012329102 181 1644759079.5225842 0.998752474784851074 -0.0281547382473945618 -0.00898996554315090179 0.0402484200894832611
168.976531982421875 -248.662094116210938 5.00617027282714844 182 1644759081.52484679 0.998694777488708496 -0.027824079617857933 -0.0105180200189352036 0.0415207222104072571
173.261611938476562 -248.649627685546875 4.92977094650268555 183 1644759083.62438965 0.998986423015594482 0.0114924311637878418 -0.0081645231693983078 0.0427473559975624084
176.328155517578125 -248.626113891601562 4.91009664535522461 184 1644759085.62482595 0.999005734920501709 0.00632123742252588272 -0.000846037815790623426 0.0441232584416866302
177.77734375 -248.649810791015625 4.90836143493652344 185 1644759087.72635078 0.999127030372619629 -0.00509590888395905495 -0.000934560492169111967 0.0414532795548439026
181.325515747070312 -248.666946411132812 4.90702724456787109 186 1644759089.72664499 0.998992681503295898 0.0185672715306282043 0.00216303160414099693 0.0407942421734333038
184.277252197265625 -248.132583618164062 4.86098909378051758 187 1644759091.82677412 0.99550318717956543 0.0840550884604454041 -0.00297023332677781582 0.0435812473297119141
186.972747802734375 -247.5997314453125 4.84583377838134766 188 1644759093.92599964 0.994578540325164795 0.0951294973492622375 0.00403279997408390045 0.0418048761785030365
191.901016235351562 -246.654754638671875 4.81839847564697266 189 1644759095.82042217 0.994125723838806152 0.100907735526561737 0.0105810500681400299 0.0376798026263713837
196.73370361328125 -245.207275390625 4.7301030158996582 190 1644759097.12775373 0.986856639385223389 0.15803062915802002 -0.0016288303304463625 0.0337287560105323792
201.529129028320312 -242.923187255859375 4.59638357162475586 191 1644759098.42041039 0.971337080001831055 0.233978509902954102 0.00037457552389241755 0.0419314578175544739
206.06085205078125 -240.4195556640625 4.42584657669067383 192 1644759099.62192655 0.964665353298187256 0.260547101497650146 -0.00606478424742817879 0.0387197472155094147
210.198638916015625 -237.558822631835938 4.23201656341552734 193 1644759100.82374191 0.945508837699890137 0.323716014623641968 -0.00715718371793627739 0.0342015922069549561
214.007827758789062 -234.132003784179688 4.01580810546875 194 1644759102.11967564 0.93033897876739502 0.365176796913146973 -0.00207592104561626911 0.0333313047885894775
217.660507202148438 -230.644943237304688 3.74693489074707031 195 1644759103.42079329 0.927151739597320557 0.372533142566680908 -0.0104784639552235603 0.038716588169336319
221.389617919921875 -227.057540893554688 3.50440788269042969 196 1644759104.71951914 0.928374588489532471 0.369187891483306885 -0.0102327372878789902 0.0414277426898479462
225.357437133789062 -223.510971069335938 3.29076313972473145 197 1644759106.02196312 0.935349524021148682 0.351611852645874023 -0.012888588011264801 0.0363907516002655029
229.272598266601562 -220.009674072265625 3.06610298156738281 198 1644759107.32010984 0.931431591510772705 0.362417042255401611 -0.00842674914747476578 0.0319077819585800171
233.051864624023438 -216.302230834960938 2.83012938499450684 199 1644759108.62235832 0.925078153610229492 0.378019779920578003 -0.00619751028716564178 0.035958901047706604
236.634490966796875 -212.772354125976562 2.62187409400939941 200 1644759109.8217268 0.92501378059387207 0.378171086311340332 -0.00315687037073075771 0.0364165306091308594
240.358261108398438 -209.181060791015625 2.41601896286010742 201 1644759111.02131295 0.927077591419219971 0.373131811618804932 -0.00146563525777310133 0.0360232405364513397
244.229110717773438 -205.733200073242188 2.24023628234863281 202 1644759112.22109151 0.934116661548614502 0.355048298835754395 0.00132102600764483213 0.0369466319680213928
248.069732666015625 -202.217376708984375 2.0395207405090332 203 1644759113.42109799 0.930206954479217529 0.365619271993637085 -0.00682887900620698929 0.03147883340716362
251.709274291992188 -198.449478149414062 1.83828520774841309 204 1644759114.62212706 0.919839799404144287 0.390676766633987427 -0.00578251760452985764 0.0351143069565296173
255.49273681640625 -194.96502685546875 1.66482293605804443 205 1644759115.82087851 0.937474429607391357 0.346020787954330444 0.000852650497108697891 0.0375577397644519806
259.3521728515625 -191.569198608398438 1.53575813770294189 206 1644759117.02277756 0.930267632007598877 0.365397363901138306 0.000569912663195282221 0.0329629629850387573
263.18377685546875 -187.974090576171875 1.37669539451599121 207 1644759118.22078991 0.928661584854125977 0.369616180658340454 -0.00331768346950411797 0.0309928189963102341
266.942138671875 -184.485031127929688 1.21987974643707275 208 1644759119.42173529 0.929257512092590332 0.368212223052978516 -0.00435029575601220131 0.0296861417591571808
270.44842529296875 -180.920440673828125 1.07174587249755859 209 1644759120.62340689 0.920698106288909912 0.388795405626296997 -0.0018787275766953826 0.0339064747095108032
274.170867919921875 -177.063522338867188 0.906543552875518799 210 1644759121.92331409 0.923675954341888428 0.381188482046127319 0.0011777910403907299 0.0389439985156059265
278.018096923828125 -173.6181640625 0.824525177478790283 211 1644759123.22263145 0.931639671325683594 0.362380802631378174 0.00221277680248022079 0.0268847160041332245
281.666748046875 -170.1925048828125 0.875995516777038574 212 1644759124.52520776 0.930855929851531982 0.364288061857223511 0.0232369601726531982 0.0161698907613754272
285.322540283203125 -166.745864868164062 0.834473967552185059 213 1644759125.82401562 0.930140435695648193 0.366352945566177368 0.00923673436045646667 0.0232151802629232407
289.220428466796875 -163.0885009765625 0.831579923629760742 214 1644759127.22459745 0.932137191295623779 0.360677212476730347 0.0122054507955908775 0.0297185759991407394
292.95306396484375 -159.743270874023438 0.871464312076568604 215 1644759128.52597833 0.926066339015960693 0.376460373401641846 0.0169738829135894775 0.0197642650455236435
296.774627685546875 -155.949111938476562 0.928159594535827637 216 1644759129.92696142 0.925375878810882568 0.378036051988601685 0.0218871962279081345 0.0170040540397167206
300.44842529296875 -152.11566162109375 0.985712110996246338 217 1644759131.32728839 0.917831718921661377 0.396247774362564087 0.015399884432554245 0.0183168873190879822
303.769317626953125 -148.082977294921875 1.01180624961853027 218 1644759132.72611713 0.885777771472930908 0.463681608438491821 0.0129000525921583176 0.015189039520919323
306.1768798828125 -143.550369262695312 0.988282978534698486 219 1644759134.12699127 0.848673164844512939 0.528664708137512207 0.00871867779642343521 0.0138371698558330536
308.7303466796875 -138.965362548828125 0.973564743995666504 220 1644759135.62794256 0.879145979881286621 0.475659966468811035 0.0172534175217151642 0.0234999638050794601
311.870208740234375 -135.016830444335938 1.01817941665649414 221 1644759137.12688875 0.899422526359558105 0.436336100101470947 0.0152286458760499954 0.0204454008489847183
315.358367919921875 -131.24761962890625 0.984707057476043701 222 1644759138.93058729 0.932708621025085449 0.359675318002700806 -0.0249592065811157227 -0.00808600801974534988
318.14678955078125 -126.924812316894531 1.01953613758087158 223 1644759141.02509832 0.867759466171264648 0.496371686458587646 0.0118138110265135765 0.0216588638722896576
320.5623779296875 -122.522842407226562 1.03316628932952881 224 1644759142.92586994 0.892560839653015137 0.448412060737609863 0.0311116017401218414 0.0359693951904773712
324.11322021484375 -118.899932861328125 1.14964818954467773 225 1644759144.52267385 0.916038930416107178 0.398796409368515015 0.0284504666924476624 0.0320111177861690521
327.469268798828125 -114.864105224609375 1.24725723266601562 226 1644759146.12121558 0.902135193347930908 0.429716169834136963 0.0280396901071071625 0.0266438871622085571
330.49517822265625 -110.878517150878906 1.33135497570037842 227 1644759147.62049961 0.898184299468994141 0.437455505132675171 0.0258393604308366776 0.0350703559815883636
332.958160400390625 -106.453338623046875 1.36069703102111816 228 1644759149.31941223 0.836470961570739746 0.546261847019195557 0.023522205650806427 0.0368921831250190735
335.901458740234375 -102.140975952148438 1.40182220935821533 229 1644759151.31975269 0.900206029415130615 0.434178739786148071 0.0212615299969911575 0.0258050020784139633
339.37030029296875 -98.3864212036132812 1.4957430362701416 230 1644759153.01904607 0.920414865016937256 0.390367776155471802 0.016118684783577919 0.0137724773958325386
342.3448486328125 -95.4931564331054688 1.61959969997406006 231 1644759155.02088022 0.920234858989715576 0.391055166721343994 0.0136368740350008011 0.00759417098015546799
344.181304931640625 -93.0558013916015625 1.68453526496887207 232 1644759157.12011361 0.898820400238037109 0.437757998704910278 0.0157020632177591324 0.0155985532328486443
347.47100830078125 -89.2397918701171875 1.80889511108398438 233 1644759159.11958003 0.913931429386138916 0.405130952596664429 0.0198680255562067032 0.0142668820917606354
350.8299560546875 -85.5251007080078125 1.94778525829315186 234 1644759161.22201562 0.892604231834411621 0.450084716081619263 0.019428350031375885 0.0174337141215801239
352.797760009765625 -81.4477691650390625 2.03587770462036133 235 1644759163.22373056 0.881411314010620117 0.470542848110198975 0.0318606160581111908 0.0262380093336105347
356.20648193359375 -77.6722564697265625 2.42169189453125 236 1644759165.02070332 0.906193792819976807 0.416783958673477173 0.0713872238993644714 0.00279267085716128349
359.242462158203125 -73.3826370239257812 2.53376150131225586 237 1644759166.7191937 0.873661816120147705 0.485886484384536743 0.0136391278356313705 0.0210559070110321045
361.855712890625 -68.7871780395507812 2.66872096061706543 238 1644759168.32047796 0.86236119270324707 0.505409181118011475 0.0288085304200649261 0.00804838724434375763
364.64007568359375 -64.4788970947265625 2.77720999717712402 239 1644759169.81897998 0.884315669536590576 0.465921729803085327 0.0264457426965236664 0.0142616825178265572
367.26348876953125 -60.0411491394042969 2.57923793792724609 240 1644759171.21967101 0.871305406093597412 0.489281892776489258 -0.0143745690584182739 0.0349778719246387482
369.724853515625 -55.4813766479492188 2.77015948295593262 241 1644759172.6196022 0.850898563861846924 0.524586677551269531 0.0276580266654491425 0.00393518898636102676
371.933563232421875 -50.7724990844726562 2.95308852195739746 242 1644759173.92008591 0.842196166515350342 0.538098752498626709 0.0339126847684383392 0.00228671031072735786
374.16741943359375 -45.9161872863769531 3.18619203567504883 243 1644759175.22064209 0.842638492584228516 0.536724865436553955 0.0431190654635429382 0.00525294104591012001
376.322479248046875 -41.1411666870117188 3.40658164024353027 244 1644759176.52227569 0.843320548534393311 0.536641836166381836 0.0271345507353544235 0.00946864206343889236
378.123626708984375 -36.4087791442871094 3.62591958045959473 245 1644759178.12267184 0.818497717380523682 0.573405027389526367 0.0336243025958538055 0.0117293251678347588
379.6318359375 -31.5366439819335938 3.75806856155395508 246 1644759180.02419376 0.769986152648925781 0.63784182071685791 0.00265660486184060574 -0.0164958164095878601
379.2161865234375 -29.7778358459472656 3.85682296752929688 247 1644759180.82563496 0.644401192665100098 0.763995528221130371 0.0216077230870723724 -0.0243109986186027527
378.398040771484375 -28.4727249145507812 3.95086431503295898 248 1644759181.42347598 0.502644717693328857 0.863531291484832764 -0.00127976958174258471 -0.0407476238906383514
376.369873046875 -26.8822040557861328 4.07537603378295898 249 1644759182.32082129 0.332244277000427246 0.942641198635101318 0.00998849235475063324 -0.0306842867285013199
371.69244384765625 -25.0702953338623047 4.37767505645751953 250 1644759183.91964102 0.157356545329093933 0.98692476749420166 0.0114526664838194847 -0.0329744555056095123
366.506805419921875 -24.0872554779052734 4.60133647918701172 251 1644759185.42082405 0.0795134678483009338 0.996421337127685547 0.00433334801346063614 -0.0283425189554691315
361.21905517578125 -23.4634761810302734 4.86225557327270508 252 1644759186.81890726 0.0637642592191696167 0.99728858470916748 0.0109542282298207283 -0.0350660905241966248
356.10198974609375 -23.1516342163085938 5.14550685882568359 253 1644759188.11848736 0.0091961277648806572 0.999427080154418945 -0.00518308207392692566 -0.03215751051902771
350.797210693359375 -23.6202640533447266 5.37156534194946289 254 1644759189.41957951 -0.0645294487476348877 0.997552633285522461 -0.0130893448367714882 -0.0235243402421474457
345.704345703125 -24.767608642578125 5.59060764312744141 255 1644759190.61912632 -0.114529311656951904 0.99313199520111084 -0.0102472174912691116 -0.0216082464903593063
340.84765625 -26.0123710632324219 5.79326534271240234 256 1644759191.719203 -0.122116602957248688 0.992230713367462158 -0.00579994264990091324 -0.0230661984533071518
335.806121826171875 -27.4161300659179688 5.97186040878295898 257 1644759192.8189559 -0.134338438510894775 0.990681052207946777 -0.00535294925794005394 -0.0218075662851333618
330.94122314453125 -28.6175003051757812 6.05004072189331055 258 1644759193.81868815 -0.102618709206581116 0.994642972946166992 -0.00744268717244267464 -0.0099666127935051918
325.822784423828125 -29.3253402709960938 6.00667190551757812 259 1644759194.82247519 -0.0569370873272418976 0.99836498498916626 0.00460881320759654045 -0.00206112116575241089
320.716461181640625 -29.7833671569824219 5.96648979187011719 260 1644759195.82258391 -0.041543029248714447 0.999012231826782227 -0.014857189729809761 0.00528726866468787193
315.715606689453125 -30.1045646667480469 5.82876729965209961 261 1644759196.71916032 -0.0264194607734680176 0.999246358871459961 -0.0256353430449962616 0.0123108113184571266
310.32965087890625 -30.2849941253662109 5.64553976058959961 262 1644759197.62017274 -0.0288771074265241623 0.998816609382629395 -0.0375557392835617065 0.0110021000728011131
305.3502197265625 -30.7810173034667969 5.47703075408935547 263 1644759198.42149973 -0.0434150509536266327 0.998542964458465576 -0.02917478047311306 0.0132652595639228821
300.3282470703125 -31.1847782135009766 5.32099723815917969 264 1644759199.21878743 -0.0391610413789749146 0.998467683792114258 -0.0356055460870265961 0.0161550324410200119
295.235260009765625 -31.5173397064208984 5.13977479934692383 265 1644759200.0189786 -0.0257812477648258209 0.998962819576263428 -0.033120669424533844 0.0176527053117752075
290.123779296875 -31.5950088500976562 4.9434514045715332 266 1644759200.81916118 0.00664205476641654968 0.999346911907196045 -0.0287235081195831299 0.0208938922733068466
285.006317138671875 -31.2681617736816406 4.7426605224609375 267 1644759201.61958885 0.0487414970993995667 0.998259842395782471 -0.0271379780024290085 0.0191084761172533035
279.94024658203125 -30.5069503784179688 4.53839540481567383 268 1644759202.42044806 0.0880862846970558167 0.995704412460327148 -0.0240412577986717224 0.0153487427160143852
274.9346923828125 -29.2581005096435547 4.27127742767333984 269 1644759203.220783 0.150235399603843689 0.988443970680236816 -0.0069889104925096035 0.0189483705908060074
270.168426513671875 -27.248291015625 4.02920961380004883 270 1644759204.02153111 0.221495404839515686 0.974778711795806885 -0.0129774138331413269 0.0240387655794620514
265.627593994140625 -24.8551826477050781 3.8103029727935791 271 1644759204.82269168 0.240143090486526489 0.970309793949127197 -0.0238494798541069031 0.0161675550043582916
260.857147216796875 -22.1434516906738281 3.55306148529052734 272 1644759205.71991992 0.268547028303146362 0.962806820869445801 -0.022545207291841507 0.0194223672151565552
256.650848388671875 -19.2919597625732422 3.3153526782989502 273 1644759206.61985493 0.305771768093109131 0.951820254325866699 -0.0159122701734304428 0.0169896259903907776
252.588455200195312 -16.0162239074707031 3.06064295768737793 274 1644759207.61684299 0.344952166080474854 0.938363790512084961 -0.0153693361207842827 0.0156576260924339294
248.638458251953125 -12.2874374389648438 2.80321216583251953 275 1644759208.71777248 0.381949752569198608 0.923991203308105469 -0.00813899561762809753 0.0169826000928878784
244.886581420898438 -8.32198524475097656 2.55987429618835449 276 1644759209.7230885 0.396897464990615845 0.917730987071990967 -0.0116053568199276924 0.0103726927191019058
240.97552490234375 -4.60410404205322266 2.34076929092407227 277 1644759210.72116804 0.355977177619934082 0.934343278408050537 -0.0116180023178458214 0.0121638234704732895
236.414779663085938 -1.77071058750152588 2.16291427612304688 278 1644759211.71812868 0.225485771894454956 0.973848581314086914 -0.0236568786203861237 0.0146774882450699806
231.238525390625 -0.572754740715026855 2.00996565818786621 279 1644759212.7198143 0.0742432475090026855 0.996997654438018799 -0.020621100440621376 0.0076447795145213604
225.891098022460938 -0.643672525882720947 1.88819456100463867 280 1644759213.72236466 -0.0399001762270927429 0.998477339744567871 -0.035945456475019455 0.0126032941043376923
220.778289794921875 -2.38618183135986328 1.80562448501586914 281 1644759214.71836114 -0.190702095627784729 0.981473863124847412 -0.017451135441660881 0.00609783362597227097
215.96417236328125 -3.96394872665405273 1.70489859580993652 282 1644759215.61951852 -0.134185135364532471 0.990937411785125732 -0.00336720654740929604 0.00510945776477456093
210.759170532226562 -5.30714941024780273 1.58481121063232422 283 1644759216.51794219 -0.111150965094566345 0.993768811225891113 0.0083031216636300087 -0.000152594424434937537
205.789505004882812 -6.13953590393066406 1.47117376327514648 284 1644759217.32094693 -0.0642730221152305603 0.997723817825317383 0.0143834799528121948 0.0144678950309753418
200.788330078125 -6.54440498352050781 1.3722001314163208 285 1644759218.12050605 -0.0359625555574893951 0.999279201030731201 0.00986906047910451889 0.00709556462243199348
195.768463134765625 -6.75560188293457031 1.27660393714904785 286 1644759218.91923809 -0.0294722672551870346 0.999379456043243408 -0.0165209434926509857 -0.00995441712439060211
190.6884765625 -7.0812530517578125 1.24775123596191406 287 1644759219.71982932 -0.0215869173407554626 0.999757230281829834 -0.00049442431190982461 -0.00439176056534051895
185.1685791015625 -6.9096684455871582 1.22359752655029297 288 1644759220.62168741 0.0217041186988353729 0.99950706958770752 -0.0221483334898948669 -0.00489351758733391762
179.654342651367188 -6.61717081069946289 1.1321566104888916 289 1644759221.52166867 0.0332200787961483002 0.999178826808929443 -0.0207345187664031982 0.010399925522506237
174.205291748046875 -6.17581987380981445 1.02212762832641602 290 1644759222.42252254 0.0517003349959850311 0.998661041259765625 -0.0011831893352791667 0.0013309023343026638
168.6834716796875 -5.36958408355712891 0.972634315490722656 291 1644759223.32112932 0.0752055048942565918 0.997094511985778809 -0.012091832235455513 0.000631432863883674145
163.181320190429688 -4.47350454330444336 1.0282365083694458 292 1644759224.22399521 0.081066817045211792 0.996632397174835205 -0.00890090689063072205 -0.0085333697497844696
157.682815551757812 -4.03844165802001953 1.1003342866897583 293 1644759225.1203804 0.0248613152652978897 0.999495327472686768 -0.00560148013755679131 -0.0189629383385181427
152.089706420898438 -3.97900104522705078 1.15652585029602051 294 1644759226.02258992 0.00673447176814079285 0.999944806098937988 0.00359360990114510059 -0.00722167268395423889
146.570877075195312 -3.97879338264465332 1.26493847370147705 295 1644759226.91824627 0.00136954069603234529 0.999880373477935791 -0.00781764648854732513 -0.0132767409086227417
140.981399536132812 -3.88667821884155273 1.34902346134185791 296 1644759227.81849289 0.013635123148560524 0.999868273735046387 -0.00716957729309797287 -0.00511375628411769867
135.429656982421875 -3.45842385292053223 1.42203009128570557 297 1644759228.72397804 0.041551642119884491 0.998989582061767578 -0.0171174760907888412 -0.000566479109693318605
129.971328735351562 -2.89813399314880371 1.57068538665771484 298 1644759229.62361884 0.0611195266246795654 0.99788975715637207 -0.0131992865353822708 -0.0174990762025117874
124.5078125 -2.23285889625549316 1.62812316417694092 299 1644759230.52022243 0.0485798157751560211 0.998485922813415527 -0.02437560074031353 -0.00846463162451982498
119.261199951171875 -2.00387024879455566 1.52175295352935791 300 1644759231.41861892 0.00637623108923435211 0.999574720859527588 -0.0192226115614175797 0.020981447771191597
113.963394165039062 -3.05892372131347656 1.2744896411895752 301 1644759232.51852131 -0.153078362345695496 0.987729728221893311 -0.0102326348423957825 0.029193853959441185
111.474044799804688 -4.85304880142211914 1.13769328594207764 302 1644759233.22140265 -0.323750972747802734 0.945497751235961914 -0.0129181211814284325 0.0324404314160346985
109.886672973632812 -7.40835285186767578 0.99304276704788208 303 1644759233.92082286 -0.494178444147109985 0.868656456470489502 0.00024874255177564919 0.0349789783358573914
108.922622680664062 -11.8742303848266602 0.780077934265136719 304 1644759234.8170836 -0.640886366367340088 0.7672232985496521 0.00715623656287789345 0.0241210665553808212
108.566062927246094 -17.4376354217529297 0.579087138175964355 305 1644759235.71695614 -0.690916717052459717 0.722660243511199951 0.00971503276377916336 0.0173746384680271149
108.550262451171875 -22.8527259826660156 0.397288799285888672 306 1644759236.51698875 -0.705633819103240967 0.708450973033905029 0.00625850353389978409 0.01178705133497715
108.305168151855469 -28.5132694244384766 0.230063572525978088 307 1644759237.31980777 -0.687097787857055664 0.726420164108276367 0.00719383778050541878 0.0125971846282482147
108.109970092773438 -33.6045799255371094 0.0879781097173690796 308 1644759238.01676655 -0.693522632122039795 0.720199644565582275 0.00883545726537704468 0.0161473304033279419
107.796272277832031 -38.7715644836425781 -0.081149756908416748 309 1644759238.71686077 -0.675237059593200684 0.737348198890686035 0.014118710532784462 0.0131601113826036453
107.332618713378906 -44.0285301208496094 -0.21967102587223053 310 1644759239.41627073 -0.675469934940338135 0.737304508686065674 0.00414417264983057976 0.0102597204968333244
106.886886596679688 -49.3947944641113281 -0.353038042783737183 311 1644759240.11770391 -0.674233853816986084 0.738389313220977783 0.0085958186537027359 0.0107754049822688103
106.459091186523438 -54.8061408996582031 -0.426462322473526001 312 1644759240.8162241 -0.676604807376861572 0.736342489719390869 0.00149626692291349173 -0.00185215054079890251
105.996070861816406 -60.2594108581542969 -0.462065637111663818 313 1644759241.51570606 -0.675480544567108154 0.737356662750244141 -0.00440157996490597725 0.00343729788437485695
105.538276672363281 -65.7686538696289062 -0.475408375263214111 314 1644759242.21582484 -0.67486870288848877 0.737866461277008057 -0.00838894303888082504 0.00591352907940745354
105.048675537109375 -71.249847412109375 -0.482802093029022217 315 1644759242.91619611 -0.671640157699584961 0.740756452083587646 -0.0110501367598772049 0.00756353139877319336
104.526840209960938 -76.6962432861328125 -0.507035672664642334 316 1644759243.61548543 -0.673445999622344971 0.739038407802581787 -0.0076846657320857048 0.0152880595996975899
104.011886596679688 -82.200958251953125 -0.565110385417938232 317 1644759244.31538296 -0.670942127704620361 0.741482853889465332 -0.00133907201234251261 0.00616143876686692238
103.472122192382812 -87.6757049560546875 -0.458073198795318604 318 1644759245.01475263 -0.669180154800415039 0.742874801158905029 -0.0115567157045006752 -0.0141937220469117165
102.969985961914062 -93.1636276245117188 -0.320803046226501465 319 1644759245.71600986 -0.670490145683288574 0.741781949996948242 -0.0045396042987704277 -0.013486967422068119
102.479545593261719 -98.535919189453125 -0.167395800352096558 320 1644759246.41794038 -0.667620956897735596 0.744363725185394287 -0.00219076010398566723 -0.0141464415937662125
101.954605102539062 -103.766777038574219 0.0376305803656578064 321 1644759247.11590457 -0.668127179145812988 0.743611454963684082 -0.0107287997379899025 -0.0230867695063352585
101.392608642578125 -108.848243713378906 0.304483711719512939 322 1644759247.81504369 -0.664132297039031982 0.747145175933837891 -0.015260172076523304 -0.0216680783778429031
100.466209411621094 -114.349014282226562 0.675948023796081543 323 1644759248.61613941 -0.639065980911254883 0.768372714519500732 -0.0281325317919254303 -0.020162852481007576
99.1461334228515625 -119.453056335449219 1.05587267875671387 324 1644759249.41617608 -0.605343282222747803 0.794753670692443848 -0.0368953384459018707 -0.023766685277223587
97.3216476440429688 -124.724105834960938 1.48531818389892578 325 1644759250.31698275 -0.568140387535095215 0.821695685386657715 -0.0391981415450572968 -0.0222745053470134735
95.0855331420898438 -129.555831909179688 1.94064676761627197 326 1644759251.21823025 -0.526933908462524414 0.848533987998962402 -0.0426695048809051514 -0.0225851163268089294
92.5444869995117188 -133.990264892578125 2.40996909141540527 327 1644759252.11665559 -0.485622584819793701 0.872397780418395996 -0.0476518459618091583 -0.028672441840171814
89.6319046020507812 -138.496475219726562 2.94350934028625488 328 1644759253.01606178 -0.46981966495513916 0.881018638610839844 -0.0445609427988529205 -0.0330139808356761932
86.2062606811523438 -142.731124877929688 3.52744436264038086 329 1644759253.91482091 -0.412344932556152344 0.909008800983428955 -0.0487409010529518127 -0.0360418446362018585
82.2962799072265625 -146.553558349609375 4.10200881958007812 330 1644759254.81652999 -0.362927347421646118 0.929713249206542969 -0.0511301867663860321 -0.0360926166176795959
78.1477279663085938 -150.060684204101562 4.72102069854736328 331 1644759255.7176764 -0.343510895967483521 0.936558246612548828 -0.0534437522292137146 -0.0447511933743953705
74.0797653198242188 -153.532516479492188 5.41327524185180664 332 1644759256.61709976 -0.344211876392364502 0.936300098896026611 -0.0515437871217727661 -0.0469418317079544067
69.9789810180664062 -156.975738525390625 6.07979631423950195 333 1644759257.5171268 -0.340106427669525146 0.937782645225524902 -0.0527822747826576233 -0.0458839051425457001
65.7904815673828125 -160.333526611328125 6.77277469635009766 334 1644759258.42073631 -0.326378822326660156 0.942296504974365234 -0.0569517798721790314 -0.0480693206191062927
61.5410957336425781 -163.52813720703125 7.47897481918334961 335 1644759259.31856561 -0.3155517578125 0.945797145366668701 -0.0575758032500743866 -0.0507926382124423981
57.4976921081542969 -166.478668212890625 8.15353775024414062 336 1644759260.21777272 -0.307727515697479248 0.948378145694732666 -0.0562510751187801361 -0.0521395318210124969
53.4147071838378906 -169.349334716796875 8.82209396362304688 337 1644759261.11798978 -0.293206870555877686 0.953111827373504639 -0.0528227724134922028 -0.0530784614384174347
49.0960426330566406 -172.165878295898438 9.45817661285400391 338 1644759262.12028122 -0.267727494239807129 0.961240470409393311 -0.0498080290853977203 -0.0431034564971923828
44.1982879638671875 -174.13934326171875 10.0422277450561523 339 1644759263.21832347 -0.158699005842208862 0.984678924083709717 -0.0600583553314208984 -0.0401868298649787903
39.1464500427246094 -174.552520751953125 10.4338617324829102 340 1644759264.22035003 0.0206660311669111252 0.997939050197601318 -0.0509029179811477661 -0.0331577137112617493
34.9736213684082031 -173.176162719726562 10.6578388214111328 341 1644759265.11941504 0.208158433437347412 0.976197659969329834 -0.0457050837576389313 -0.0402392558753490448
30.6802654266357422 -169.740036010742188 10.7249021530151367 342 1644759266.21999025 0.385975033044815063 0.920884668827056885 -0.0428924746811389923 -0.0339843705296516418
25.4152259826660156 -162.093643188476562 10.6728315353393555 343 1644759268.22146225 0.51398932933807373 0.856272995471954346 -0.0460777133703231812 -0.0220992397516965866
20.2988319396972656 -153.015350341796875 10.4764318466186523 344 1644759270.31863523 0.51679152250289917 0.854258418083190918 -0.0447198972105979919 -0.0341926515102386475
16.7553348541259766 -142.986541748046875 10.1330118179321289 345 1644759272.41831565 0.630488812923431396 0.775061309337615967 -0.0415974408388137817 0.0057857884094119072
17.7535114288330078 -133.674713134765625 9.39070034027099609 346 1644759274.41832399 0.829922795295715332 0.555765092372894287 -0.0323998555541038513 0.0361040122807025909
19.6905708312988281 -131.31085205078125 9.12816905975341797 347 1644759275.02188587 0.9177359938621521 0.392816245555877686 -0.0260093417018651962 0.0527218356728553772
28.8976097106933594 -125.716804504394531 8.20961189270019531 348 1644759277.1183126 0.956247508525848389 0.285184204578399658 -0.0365772917866706848 0.0540624186396598816
37.5125579833984375 -117.123832702636719 6.48729705810546875 349 1644759279.21556354 0.903296887874603271 0.422424912452697754 -0.0523295402526855469 0.0536052919924259186
43.8883781433105469 -106.307723999023438 4.96949577331542969 350 1644759281.21940756 0.829121887683868408 0.557148873805999756 -0.0350821800529956818 0.0301863458007574081
45.8095321655273438 -93.4373016357421875 4.02127599716186523 351 1644759283.32061648 0.737152099609375 0.674879074096679688 -0.026556042954325676 0.0209721643477678299
46.5808219909667969 -80.4041061401367188 3.16460418701171875 352 1644759285.41912699 0.721189618110656738 0.691771864891052246 -0.035740334540605545 0.00773292593657970428
47.2577972412109375 -67.0408706665039062 2.32347202301025391 353 1644759287.51407456 0.728705286979675293 0.683775067329406738 -0.0368649773299694061 0.00901343952864408493
46.0901603698730469 -54.7440338134765625 1.77760148048400879 354 1644759289.61295819 0.700253546237945557 0.713806271553039551 -0.00898986589163541794 0.00668979482725262642
46.1649818420410156 -42.7884063720703125 1.47765803337097168 355 1644759291.61809444 0.717723548412322998 0.696187436580657959 -0.0139907645061612129 -0.000549778400454670191
44.81036376953125 -37.1618919372558594 1.29138529300689697 356 1644759292.61656737 0.557083368301391602 0.829941332340240479 -0.0292469151318073273 0.000354647374479100108
38.2411689758300781 -27.6779747009277344 1.04320859909057617 357 1644759294.71425104 0.515356004238128662 0.856898725032806396 -0.00506726419553160667 0.0103480452671647072
37.1242523193359375 -20.48785400390625 0.677507638931274414 358 1644759296.01228547 0.693062007427215576 0.720497667789459229 -0.0204923115670681 0.011324695311486721
37.7800979614257812 -9.32572269439697266 0.055777527391910553 359 1644759297.91335344 0.731970608234405518 0.680790841579437256 -0.0110859228298068047 0.0248975846916437149
39.2396163940429688 -3.97514200210571289 -0.18367786705493927 360 1644759299.01498079 0.841841161251068115 0.538576245307922363 -0.0180547628551721573 0.0302170068025588989
41.431976318359375 -1.67317545413970947 -0.336239486932754517 361 1644759299.71301579 0.928979396820068359 0.3691883385181427 -0.0131049817427992821 0.0229235980659723282
51.4946174621582031 0.946828305721282959 -0.584950447082519531 362 1644759301.71436524 0.998775482177734375 0.034315161406993866 0.00618252763524651527 0.0350974760949611664
63.9963188171386719 0.375809073448181152 -0.614505946636199951 363 1644759303.71675706 0.998251378536224365 -0.0440036170184612274 0.00101075833663344383 0.0394566617906093597
74.16534423828125 -0.641233265399932861 -0.55967634916305542 364 1644759305.71747541 0.997892379760742188 -0.0542799122631549835 0.00416294392198324203 0.0353157296776771545
83.5517425537109375 -1.82519662380218506 -0.452389538288116455 365 1644759307.71799469 0.997292876243591309 -0.0681372508406639099 0.00314489379525184631 0.0274650249630212784
89.146514892578125 -2.81566023826599121 -0.217524737119674683 366 1644759308.71766901 0.995138406753540039 -0.0888115987181663513 0.0415359623730182648 0.00931474752724170685
94.275299072265625 -3.99177289009094238 0.246647730469703674 367 1644759309.71886945 0.993102490901947021 -0.109918899834156036 0.0389604829251766205 -0.0121375536546111107
99.4799728393554688 -5.34450912475585938 0.335369229316711426 368 1644759310.91756058 0.993168354034423828 -0.112174235284328461 0.0157204363495111465 -0.028042670339345932
104.699424743652344 -5.61773586273193359 0.484334051609039307 369 1644759312.21676469 0.999395608901977539 0.0233958959579467773 0.00730989919975399971 -0.024650920182466507
114.053245544433594 -2.74985241889953613 1.25540637969970703 370 1644759314.31793356 0.987974941730499268 0.150931134819984436 0.0320538468658924103 0.00989176798611879349
124.8087158203125 -1.03530621528625488 1.49136853218078613 371 1644759316.41369033 0.999658524990081787 0.026087665930390358 0.00150843977462500334 7.33316992409527302e-05
136.467254638671875 -1.22919225692749023 1.36626303195953369 372 1644759318.41417241 0.999953866004943848 -0.00521711679175496101 -0.00572220189496874809 -0.00568164745345711708
149.381683349609375 -2.20786643028259277 1.15421462059020996 373 1644759320.5146277 0.997697174549102783 -0.0675338432192802429 -0.0060146762989461422 0.00182954466436058283
162.216400146484375 -3.51193547248840332 0.980513989925384521 374 1644759322.51532793 0.999259352684020996 -0.0376582443714141846 -0.0076744849793612957 -0.00191230745986104012
175.770004272460938 -4.74531316757202148 1.05816519260406494 375 1644759324.61294866 0.998806536197662354 -0.0485147386789321899 0.0053857387974858284 0.00168114819098263979
188.859359741210938 -5.25489902496337891 1.1652754545211792 376 1644759326.71100926 0.999571800231933594 0.0281336307525634766 -0.00799346994608640671 -0.000883182510733604431
200.483291625976562 -3.97374415397644043 1.31077742576599121 377 1644759328.71427011 0.996967434883117676 0.0773901864886283875 0.00707347085699439049 -0.00408766791224479675
211.698150634765625 -1.65598917007446289 1.52959597110748291 378 1644759330.71433163 0.992692768573760986 0.120197944343090057 0.0106521192938089371 -0.000298451923299580812
222.753890991210938 1.32440578937530518 1.74163174629211426 379 1644759332.71568656 0.990620911121368408 0.136487185955047607 0.00601339060813188553 0.00230032182298600674
232.250564575195312 2.47589254379272461 1.96497571468353271 380 1644759334.61396909 0.997706949710845947 -0.0665781721472740173 0.00309367990121245384 0.0117743676528334618
235.772079467773438 0.867315769195556641 2.03652596473693848 381 1644759335.4153223 0.968599259853363037 -0.24836944043636322 0.00818049628287553787 -0.00782002974301576614
244.129043579101562 -6.37595319747924805 2.33246469497680664 382 1644759337.51614881 0.923489212989807129 -0.383127391338348389 0.00976436305791139603 0.0169022567570209503
251.9595947265625 -13.9285173416137695 2.84116816520690918 383 1644759339.6137526 0.925338804721832275 -0.377846717834472656 0.019597882404923439 0.0244106687605381012
262.67596435546875 -20.8044338226318359 3.44866681098937988 384 1644759341.71408629 0.968772947788238525 -0.245597243309020996 0.0194800719618797302 0.0279558375477790833
275.145050048828125 -26.1807537078857422 4.0948486328125 385 1644759343.81526852 0.984608888626098633 -0.17065092921257019 0.0228354763239622116 0.0300357360392808914
287.272491455078125 -28.5028152465820312 4.64656352996826172 386 1644759345.81592131 0.999348342418670654 -0.0102874469012022018 0.0202433019876480103 0.028058961033821106
299.740966796875 -27.7737827301025391 5.08608818054199219 387 1644759347.91567183 0.997712194919586182 0.0564306899905204773 0.0179232992231845856 0.0326299183070659637
309.7410888671875 -25.8777446746826172 5.38817977905273438 388 1644759350.01327276 0.989364981651306152 0.143298536539077759 0.0148938726633787155 0.0200169850140810013
314.555633544921875 -24.2677383422851562 5.54922008514404297 389 1644759351.91408181 0.989365756511688232 0.139131531119346619 0.0177672989666461945 0.0384981967508792877
318.241729736328125 -23.4927310943603516 5.74469995498657227 390 1644759353.91823006 0.99308401346206665 0.108314521610736847 0.0436791740357875824 0.0120091428980231285
323.360809326171875 -22.3541011810302734 5.88540220260620117 391 1644759355.81131005 0.993898570537567139 0.106726422905921936 0.0237629059702157974 0.014504668302834034
328.473968505859375 -21.4029426574707031 5.99261856079101562 392 1644759357.40984511 0.995504677295684814 0.0942885503172874451 0.00854139775037765503 0.00268439948558807373
333.75537109375 -20.5139217376708984 5.87934303283691406 393 1644759358.91069078 0.996590316295623779 0.0804055258631706238 -0.0181309990584850311 0.00372975715436041355
338.9542236328125 -19.7766017913818359 5.71854162216186523 394 1644759360.20918417 0.997851192951202393 0.0616348609328269958 -0.0181240309029817581 0.0128698404878377914
344.322479248046875 -19.1870613098144531 5.52784872055053711 395 1644759361.40923142 0.998342931270599365 0.0525978654623031616 -0.0180502422153949738 0.0148015627637505531
351.914642333984375 -18.6840133666992188 5.29197025299072266 396 1644759362.909518 0.999524414539337158 0.0254797916859388351 -0.0171900857239961624 0.0025048782117664814
358.4586181640625 -18.5595855712890625 5.03348159790039062 397 1644759364.10882187 0.999690413475036621 0.00328627391718327999 -0.0236328821629285812 -0.00705494126304984093
363.847076416015625 -18.8437480926513672 4.79361343383789062 398 1644759365.11183619 0.998529434204101562 -0.0461940951645374298 -0.0268439464271068573 -0.0091916937381029129
369.72137451171875 -20.6908168792724609 4.53925132751464844 399 1644759366.30943489 0.975018560886383057 -0.220126748085021973 -0.0297131184488534927 0.000434569607023149729
375.17132568359375 -25.0428829193115234 4.04748058319091797 400 1644759367.91034508 0.918256759643554688 -0.393355131149291992 -0.0394291691482067108 -0.0228379629552364349
377.2901611328125 -29.0172195434570312 3.73558354377746582 401 1644759369.2078414 0.829933643341064453 -0.556136250495910645 -0.0375407375395298004 -0.0226547215133905411
377.168182373046875 -30.9132976531982422 3.68556046485900879 402 1644759369.90939951 0.723529338836669922 -0.689427196979522705 -0.0034735887311398983 -0.0344002358615398407
376.317718505859375 -33.2928199768066406 3.63092613220214844 403 1644759370.90923357 0.582830250263214111 -0.812383174896240234 0.0102766919881105423 -0.0153903299942612648
374.13275146484375 -38.7132682800292969 3.32709693908691406 404 1644759373.00949693 0.551961243152618408 -0.832613170146942139 0.0177548136562108994 -0.042177252471446991
371.148040771484375 -45.6202888488769531 2.95962786674499512 405 1644759375.01114869 0.536526143550872803 -0.843000650405883789 0.00573457218706607819 -0.0381677187979221344
367.30206298828125 -53.1715087890625 2.58118367195129395 406 1644759377.10823035 0.517505943775177002 -0.85473179817199707 0.0226534139364957809 -0.0332869254052639008
363.91607666015625 -60.0600395202636719 2.39734387397766113 407 1644759379.1083262 0.513838350772857666 -0.857604384422302246 0.0218330211937427521 0.00285641499795019627
360.5911865234375 -65.5791397094726562 2.45615887641906738 408 1644759381.10962558 0.485448122024536133 -0.873542964458465576 0.0221289880573749542 -0.0278055071830749512
357.4215087890625 -70.6539840698242188 2.29200506210327148 409 1644759383.11112595 0.497630298137664795 -0.866810381412506104 0.0191770400851964951 -0.0252210497856140137
354.288970947265625 -76.3764572143554688 2.20431947708129883 410 1644759385.21075869 0.473971724510192871 -0.879864335060119629 0.0250410493463277817 -0.0237174201756715775
349.56756591796875 -82.1463851928710938 1.78692066669464111 411 1644759387.21212816 0.415546536445617676 -0.909165263175964355 0.0206837449222803116 -0.0176568366587162018
344.7911376953125 -88.2581024169921875 1.61595237255096436 412 1644759389.31230783 0.439013063907623291 -0.898400783538818359 -0.000116176088340580463 -0.0119836339727044106
340.678436279296875 -94.0417022705078125 1.48680853843688965 413 1644759391.31258225 0.427580326795578003 -0.903773128986358643 0.0129198674112558365 -0.0142209986224770546
335.825469970703125 -99.4204788208007812 1.32437658309936523 414 1644759393.31293225 0.411639511585235596 -0.910766899585723877 0.0228736009448766708 -0.0230944789946079254
332.01312255859375 -105.276863098144531 1.28547203540802002 415 1644759395.31481719 0.545992076396942139 -0.836375236511230469 0.0421183556318283081 -0.0243960805237293243
328.19525146484375 -111.893257141113281 1.23090767860412598 416 1644759397.41098547 0.432428598403930664 -0.900768041610717773 0.0335766971111297607 -0.0222492367029190063
325.079345703125 -114.273712158203125 1.07378602027893066 417 1644759398.70951056 0.235181361436843872 -0.971344709396362305 0.0127005269750952721 -0.0319048464298248291
323.308685302734375 -114.232391357421875 0.958088457584381104 418 1644759399.41297579 0.0506738089025020599 -0.99795234203338623 0.0176039524376392365 -0.0348345786333084106
319.794525146484375 -118.825759887695312 0.948063850402832031 419 1644759401.51223135 0.515710115432739258 -0.855740487575531006 0.0348070673644542694 -0.0232334509491920471
316.022796630859375 -125.660346984863281 0.958580493927001953 420 1644759403.61016202 0.515760302543640137 -0.855903565883636475 0.0336254127323627472 -0.0170197449624538422
312.083892822265625 -132.9251708984375 0.970885396003723145 421 1644759405.61110258 0.499315142631530762 -0.865767717361450195 0.0273209251463413239 -0.0196027010679244995
308.613983154296875 -140.087112426757812 0.998385310173034668 422 1644759407.61110473 0.50084155797958374 -0.865171492099761963 0.0208216570317745209 -0.0142300538718700409
304.245086669921875 -146.8060302734375 0.991367161273956299 423 1644759409.61213875 0.476730167865753174 -0.878343760967254639 0.0318670757114887238 -0.0150016164407134056
298.971588134765625 -153.513015747070312 0.955219089984893799 424 1644759411.71141434 0.395170897245407104 -0.918180108070373535 0.0232496373355388641 -0.015644412487745285
292.2510986328125 -159.998504638671875 0.832561790943145752 425 1644759413.71270394 0.374679058790206909 -0.926645636558532715 0.0239161048084497452 -0.0192745476961135864
285.182403564453125 -166.854095458984375 0.825516760349273682 426 1644759415.80800509 0.37538185715675354 -0.926171183586120605 0.0333747789263725281 -0.0134716592729091644
278.59033203125 -173.025482177734375 0.810273349285125732 427 1644759417.81362653 0.370593369007110596 -0.927784264087677002 0.042552262544631958 -0.00813780352473258972
271.79296875 -179.398605346679688 1.0007929801940918 428 1644759419.90726256 0.355516254901885986 -0.933696389198303223 0.0425362549722194672 0.00315061956644058228
264.625701904296875 -186.028167724609375 1.27490818500518799 429 1644759421.90887594 0.370364069938659668 -0.928066492080688477 0.0389447174966335297 0.00252928654663264751
257.226806640625 -193.324722290039062 1.5961993932723999 430 1644759423.90963435 0.374779284000396729 -0.926255524158477783 0.0398823320865631104 0.000776343338657170534
248.14166259765625 -201.871246337890625 2.00891804695129395 431 1644759426.01019382 0.37388959527015686 -0.926562011241912842 0.0410482808947563171 0.00211135647259652615
238.97979736328125 -210.415664672851562 2.46447253227233887 432 1644759428.10873151 0.368302464485168457 -0.928790807723999023 0.0412407666444778442 0.000294668483547866344
230.2122802734375 -218.630783081054688 2.95097517967224121 433 1644759430.11046004 0.371966570615768433 -0.927288949489593506 0.0419904328882694244 0.00358508923090994358
221.070816040039062 -227.294036865234375 3.5088348388671875 434 1644759432.2109592 0.367816269397735596 -0.928801417350769043 0.0450974889099597931 0.00231943395920097828
212.474166870117188 -235.382064819335938 4.06663990020751953 435 1644759434.31176162 0.368082940578460693 -0.928691089153289795 0.0452444963157176971 0.00088260183110833168
204.355194091796875 -241.329177856445312 4.48295021057128906 436 1644759436.40886331 0.256130605936050415 -0.965493142604827881 0.0467152073979377747 0.0061446530744433403
195.452590942382812 -245.413650512695312 4.72760152816772461 437 1644759438.41198301 0.181775480508804321 -0.982487618923187256 0.040240902453660965 0.00750867323949933052
185.615509033203125 -248.14398193359375 4.86053085327148438 438 1644759440.50550842 0.0995419546961784363 -0.994075357913970947 0.0434998981654644012 -0.00365953799337148666
175.621307373046875 -249.026763916015625 4.94583225250244141 439 1644759442.50710726 0.00489453645423054695 -0.999036014080047607 0.0433423630893230438 0.00495555391535162926
165.23980712890625 -248.464431762695312 5.05457639694213867 440 1644759444.6110127 -0.0241366960108280182 -0.998453319072723389 0.0489507615566253662 0.0105942022055387497
154.644699096679688 -248.077972412109375 5.32126903533935547 441 1644759446.70540738 -0.0369217582046985626 -0.997322201728820801 0.0570032298564910889 0.0271273199468851089
144.621688842773438 -247.705810546875 5.68960189819335938 442 1644759448.7063036 -0.00863504782319068909 -0.998615443706512451 0.0485545247793197632 0.018305901437997818
134.953948974609375 -247.446044921875 6.17972850799560547 443 1644759450.70665932 -0.0177958309650421143 -0.998324155807495117 0.0476189479231834412 0.0276514831930398941
125.411865234375 -247.132965087890625 6.77816438674926758 444 1644759452.70716715 -0.019129997119307518 -0.998093962669372559 0.0427161715924739838 0.0402216687798500061
115.563362121582031 -246.84539794921875 7.52608060836791992 445 1644759454.70762634 -0.0147098768502473831 -0.997937440872192383 0.0450952649116516113 0.0432534962892532349
105.443038940429688 -246.291793823242188 8.3153533935546875 446 1644759456.806988 -0.0372760221362113953 -0.996857881546020508 0.049941234290599823 0.0488954409956932068
95.6947555541992188 -245.834716796875 8.96441841125488281 447 1644759458.80876279 -0.0119085852056741714 -0.998764276504516602 0.0431275404989719391 0.0216357577592134476
86.4004287719726562 -245.792739868164062 9.80575084686279297 448 1644759460.90733075 -0.0076513378880918026 -0.997715592384338379 0.0451932698488235474 0.0496248379349708557
77.654022216796875 -245.503677368164062 10.5010299682617188 449 1644759462.90829515 -0.0426960289478302002 -0.997843801975250244 0.029803035780787468 0.0399565286934375763
70.6412277221679688 -243.696319580078125 10.9484214782714844 450 1644759465.00686836 -0.17346973717212677 -0.983044087886810303 0.0416318178176879883 0.0424191020429134369
63.5620155334472656 -240.779891967773438 11.3428726196289062 451 1644759467.00804996 -0.214007064700126648 -0.975817263126373291 0.0328320227563381195 0.0300617553293704987
56.4464759826660156 -237.154190063476562 11.87872314453125 452 1644759469.00875854 -0.247989356517791748 -0.967306196689605713 0.0284043028950691223 0.0448685958981513977
49.8978347778320312 -232.658432006835938 12.3296775817871094 453 1644759471.01013947 -0.336090207099914551 -0.940783560276031494 0.0225782468914985657 0.0382088348269462585
