# .PCD v0.7 - Point Cloud Data file format
VERSION 0.7
FIELDS x y z intensity t qx qy qz qw
SIZE 4 4 4 4 8 4 4 4 4
TYPE F F F F F F F F F
COUNT 1 1 1 1 1 1 1 1 1
WIDTH 276
HEIGHT 1
VIEWPOINT 0 0 0 1 0 0 0
POINTS 276
DATA ascii
59.6812286376953125 108.430778503417969 7.81566286087036133 3 1644758461.34317708 0.99989241361618042 6.58502467558719218e-05 0.00489333784207701683 -0.0138265490531921387
59.683990478515625 108.427513122558594 7.81640481948852539 4 1644758461.44321299 0.999890625476837158 5.54679536435287446e-05 0.00450235558673739433 -0.0140870735049247742
59.6853523254394531 108.429771423339844 7.81728553771972656 5 1644758461.54297233 0.999891340732574463 0.000126642145914956927 0.00455932179465889931 -0.0140174943953752518
59.68505859375 108.431358337402344 7.81771421432495117 6 1644758461.64299202 0.999888777732849121 -7.52493433537892997e-05 0.0048031909391283989 -0.0141196008771657944
59.685333251953125 108.430465698242188 7.81603717803955078 7 1644758461.7458632 0.999887645244598389 3.21406841976568103e-05 0.00482608051970601082 -0.0141909895464777946
59.6854934692382812 108.431320190429688 7.81627655029296875 8 1644758461.84269547 0.999891877174377441 4.3440573790576309e-05 0.00455931900069117546 -0.0139797618612647057
59.6869544982910156 108.430831909179688 7.81656503677368164 9 1644758461.9451592 0.999887824058532715 0.000138947798404842615 0.00476211728528141975 -0.0141981486231088638
59.6864700317382812 108.431304931640625 7.81627607345581055 10 1644758462.04265976 0.999887406826019287 7.24353740224614739e-05 0.00467495061457157135 -0.0142582627013325691
59.6858329772949219 108.4322509765625 7.81637239456176758 11 1644758462.1426146 0.999888360500335693 -6.98837757227011025e-05 0.00465226499363780022 -0.0141975656151771545
59.6853828430175781 108.431793212890625 7.81620883941650391 12 1644758462.24243641 0.99989008903503418 0.000252347002970054746 0.00453712465241551399 -0.0141141870990395546
59.6857452392578125 108.431190490722656 7.81618452072143555 13 1644758462.34223628 0.999888360500335693 -2.94256569759454578e-05 0.00473983772099018097 -0.0141692496836185455
59.6852760314941406 108.431129455566406 7.8166813850402832 14 1644758462.44507456 0.999891400337219238 -3.3890504710143432e-05 0.00457723671570420265 -0.0140069853514432907
59.6852607727050781 108.430328369140625 7.81643009185791016 15 1644758462.54267645 0.999887764453887939 6.07279471296351403e-05 0.00481390766799449921 -0.0141863450407981873
59.6855506896972656 108.430839538574219 7.81611061096191406 16 1644758462.64283299 0.999890744686126709 0.000142769509693607688 0.00458909943699836731 -0.0140521200373768806
59.6848030090332031 108.430938720703125 7.81674861907958984 17 1644758462.74246526 0.999890744686126709 -8.56136175571009517e-05 0.00452832132577896118 -0.0140701523050665855
59.6849517822265625 108.429969787597656 7.81606245040893555 18 1644758462.84229255 0.999888598918914795 -0.000111239663965534419 0.00473469356074929237 -0.0141569506376981735
59.6857833862304688 108.430458068847656 7.81663036346435547 19 1644758462.94255829 0.999888300895690918 0.000181983195943757892 0.00464465934783220291 -0.0142052583396434784
59.6858787536621094 108.4300537109375 7.8166046142578125 20 1644758463.04228306 0.999890148639678955 8.39414587971987203e-06 0.00467131519690155983 -0.0140651939436793327
59.6885795593261719 108.429878234863281 7.81096553802490234 21 1644758467.24305987 0.949704408645629883 -0.312940299510955811 0.00504907220602035522 -0.0102181416004896164
59.6836318969726562 108.438636779785156 7.81151676177978516 22 1644758483.24733758 0.949679136276245117 -0.312981218099594116 0.00758454017341136932 -0.00973661337047815323
59.6868782043457031 108.431015014648438 7.81920003890991211 23 1644758486.04514837 0.949908137321472168 -0.312027007341384888 0.0153617355972528458 -0.00881091039627790451
62.1727485656738281 106.968353271484375 7.87820005416870117 24 1644758488.0456512 0.962862312793731689 -0.269176453351974487 0.0207784175872802734 -0.00290905125439167023
66.5116653442382812 104.174575805664062 7.89461374282836914 25 1644758489.84735084 0.952299654483795166 -0.304646521806716919 0.00321721704676747322 0.0174792613834142685
70.2762222290039062 100.863883972167969 7.91051387786865234 26 1644758491.24675846 0.931212961673736572 -0.364202320575714111 0.0110580874606966972 0.00876700691878795624
74.0665740966796875 97.1290969848632812 7.92210912704467773 27 1644758492.64572883 0.923806190490722656 -0.382617473602294922 0.002706542843952775 0.0133667187765240669
77.7305450439453125 93.553375244140625 7.90994167327880859 28 1644758494.04913044 0.929040074348449707 -0.369737476110458374 0.0132368272170424461 0.00186799594666808844
81.5737533569335938 89.8912887573242188 7.88608455657958984 29 1644758495.24770164 0.925751388072967529 -0.378019779920578003 0.00562943238765001297 0.00733114592730998993
85.1311187744140625 86.216705322265625 7.86600589752197266 30 1644758496.34709358 0.918360114097595215 -0.395664513111114502 0.0073938458226621151 0.00310729979537427425
88.6915359497070312 82.4186477661132812 7.83440065383911133 31 1644758497.44680643 0.919084668159484863 -0.393793672323226929 0.0129044270142912865 -0.00658429879695177078
92.4021072387695312 78.8027572631835938 7.79973220825195312 32 1644758498.55037308 0.921413838863372803 -0.38831639289855957 -0.000918055186048150063 0.0143533758819103241
96.1420822143554688 74.9689483642578125 7.73461294174194336 33 1644758499.74818277 0.924347102642059326 -0.381291419267654419 0.00756819779053330421 0.0119163794443011284
100.236000061035156 71.8950271606445312 7.71187925338745117 34 1644758500.94861031 0.960860908031463623 -0.276585042476654053 0.0126632619649171829 -0.00931242294609546661
103.173965454101562 71.0920867919921875 7.76134824752807617 35 1644758501.74755716 0.994643449783325195 -0.0995002612471580505 0.0198171418160200119 -0.0197840910404920578
105.578598022460938 71.5193710327148438 7.7504582405090332 36 1644758502.44807506 0.995206534862518311 0.0951038151979446411 0.00231697945855557919 -0.0226691160351037979
107.437179565429688 72.7247390747070312 7.74671792984008789 37 1644758503.14699602 0.960980534553527832 0.27549898624420166 -0.0047204834409058094 -0.0243801828473806381
108.755424499511719 74.5283279418945312 7.7507481575012207 38 1644758503.8450284 0.894645750522613525 0.445930421352386475 0.000489569269120693207 -0.02747349813580513
109.368156433105469 76.6834487915039062 7.75821924209594727 39 1644758504.44707537 0.80024951696395874 0.598982334136962891 -0.00706119183450937271 -0.0277670081704854965
109.191184997558594 79.0384292602539062 7.73713970184326172 40 1644758505.04665399 0.684450984001159668 0.728562355041503906 -0.0183657612651586533 -0.0196564923971891403
108.063697814941406 81.61431884765625 7.67112445831298828 41 1644758505.74849629 0.546487629413604736 0.837372481822967529 -0.0102213071659207344 -0.00735845509916543961
104.710594177246094 85.7898406982421875 7.63356447219848633 42 1644758507.04900098 0.411658287048339844 0.911186337471008301 0.0116819795221090317 -0.0118512632325291634
101.151809692382812 89.5443649291992188 7.62165117263793945 43 1644758508.14873576 0.398039966821670532 0.91727060079574585 0.0119125433266162872 -0.00607525510713458061
97.3908462524414062 93.3721160888671875 7.63053131103515625 44 1644758509.24721861 0.388211578130722046 0.92141646146774292 0.0138562452048063278 -0.00956592243164777756
93.85247802734375 97.0050735473632812 7.62342071533203125 45 1644758510.24733138 0.386744886636734009 0.922118008136749268 0.00647304020822048187 -0.0092153642326593399
90.1848831176757812 100.615745544433594 7.64652729034423828 46 1644758511.24456668 0.380502015352249146 0.92468714714050293 0.00953321624547243118 -0.00899933371692895889
86.4742507934570312 104.261611938476562 7.66195344924926758 47 1644758512.24902272 0.38179391622543335 0.924153387546539307 0.00541921285912394524 -0.0120224226266145706
82.756805419921875 107.908683776855469 7.64648675918579102 48 1644758513.24688053 0.380306124687194824 0.924817562103271484 0.00580328982323408127 -0.00678478740155696869
78.9034271240234375 111.674552917480469 7.65971612930297852 49 1644758514.35107708 0.375907868146896362 0.926462113857269287 0.00904214661568403244 -0.0167157799005508423
75.1161041259765625 115.356483459472656 7.67280817031860352 50 1644758515.5476265 0.380783408880233765 0.924553155899047852 0.0101003311574459076 -0.0101733831688761711
71.1975784301757812 118.5206298828125 7.68673419952392578 51 1644758516.84395194 0.279702156782150269 0.959970295429229736 -5.50329496036283672e-05 -0.0149589153006672859
68.5551528930664062 119.225250244140625 7.72671175003051758 52 1644758517.64467859 0.102886594831943512 0.994433283805847168 -0.015092998743057251 -0.0170008409768342972
66.2115707397460938 118.824478149414062 7.70818662643432617 53 1644758518.34435844 -0.0979369208216667175 0.994284212589263916 -0.0423783920705318451 -0.00336434575729072094
63.7342376708984375 117.380699157714844 7.76061868667602539 54 1644758519.14563942 -0.277122706174850464 0.959915637969970703 -0.041269306093454361 -0.00786607246845960617
62.3203086853027344 115.426177978515625 7.79262161254882812 55 1644758519.84588027 -0.455590516328811646 0.889525651931762695 -0.0342153161764144897 -0.0032699864823371172
61.778350830078125 113.238624572753906 7.84052562713623047 56 1644758520.44485879 -0.613825023174285889 0.788508474826812744 -0.0381920970976352692 -0.00381566002033650875
62.167633056640625 110.501747131347656 7.86934947967529297 57 1644758521.14656425 -0.754559040069580078 0.656036257743835449 -0.0154756130650639534 -0.00419469317421317101
64.21636962890625 106.33807373046875 7.8724970817565918 58 1644758522.34656572 -0.86044764518737793 0.509262442588806152 -0.00829895399510860443 -0.0145849091932177544
69.7249374389648438 100.380134582519531 7.91565799713134766 59 1644758524.34758568 -0.936254024505615234 0.351173430681228638 -0.00481799105182290077 -0.00907768309116363525
76.2307968139648438 94.611083984375 7.9292449951171875 60 1644758526.4465816 -0.928418159484863281 0.37142452597618103 0.00905920937657356262 0.00123028887901455164
82.6901473999023438 88.4587173461914062 7.87863349914550781 61 1644758528.44786453 -0.92836374044418335 0.371578037738800049 -0.00458251265808939934 -0.0070352647453546524
89.6966629028320312 81.362579345703125 7.81236171722412109 62 1644758530.54137659 -0.920862495899200439 0.389862298965454102 0.000425900536356493831 -0.00440536392852663994
96.6263046264648438 74.759246826171875 7.72700738906860352 63 1644758532.54554009 -0.931537389755249023 0.363314807415008545 -0.00719460286200046539 -0.013733954168856144
103.925277709960938 68.0424346923828125 7.72118234634399414 64 1644758534.64037824 -0.930183529853820801 0.366916805505752563 -0.00999916158616542816 0.00553994486108422279
107.61407470703125 64.5930252075195312 7.68413448333740234 65 1644758535.64151382 -0.926969468593597412 0.375035226345062256 -0.00742698134854435921 -0.00458256993442773819
111.379539489746094 61.0360679626464844 7.67130231857299805 66 1644758536.64154196 -0.926468849182128906 0.376106917858123779 -0.00445658992975950241 -0.0133867207914590836
115.2210693359375 57.3414535522460938 7.78124427795410156 67 1644758537.74107599 -0.925380051136016846 0.374977767467498779 -0.0433004721999168396 -0.0344753563404083252
118.958915710449219 53.7963447570800781 7.66729497909545898 68 1644758538.84119463 -0.927039146423339844 0.374521076679229736 -0.00580895924940705299 -0.0172801613807678223
122.687744140625 50.1252326965332031 7.70247840881347656 69 1644758539.94122291 -0.923913478851318359 0.382343173027038574 -0.00879122223705053329 -0.0109680704772472382
126.46783447265625 46.280731201171875 7.73387241363525391 70 1644758541.04385734 -0.917487919330596924 0.396921068429946899 -0.0160789694637060165 -0.0202737357467412949
129.799530029296875 42.4587554931640625 8.15527153015136719 71 1644758542.14305854 -0.906591951847076416 0.415514320135116577 -0.0705556422472000122 -0.021466406062245369
132.805343627929688 38.1533622741699219 8.50034618377685547 72 1644758543.44244289 -0.869764387607574463 0.492633312940597534 -0.0232252273708581924 0.0168216805905103683
133.8634033203125 34.0486602783203125 8.38297176361083984 73 1644758544.54238892 -0.76354748010635376 0.644922971725463867 -0.0123451948165893555 0.0302839819341897964
133.419708251953125 30.3822536468505859 8.20225620269775391 74 1644758545.44188166 -0.636740446090698242 0.770472943782806396 -0.00708811031654477119 0.0297128781676292419
131.454498291015625 26.4343299865722656 7.8747258186340332 75 1644758546.44326425 -0.492667168378829956 0.869729280471801758 0.0194312334060668945 0.0217364020645618439
128.240966796875 22.4654026031494141 7.46784162521362305 76 1644758547.44278955 -0.40567094087600708 0.913527905941009521 0.0250381194055080414 0.0164614077657461166
124.286636352539062 18.6185016632080078 7.05363130569458008 77 1644758548.3435936 -0.371595203876495361 0.927887976169586182 0.0226623788475990295 0.0206732787191867828
120.413360595703125 14.8572473526000977 6.65937614440917969 78 1644758549.14281273 -0.376349687576293945 0.92607414722442627 0.0157738924026489258 0.0223337467759847641
116.4073486328125 10.8749494552612305 6.26225185394287109 79 1644758549.94384217 -0.375671416521072388 0.926262855529785156 0.0186004862189292908 0.0237090308219194412
112.826255798339844 7.28384304046630859 5.88299179077148438 80 1644758550.64306831 -0.382548123598098755 0.923382341861724854 0.02128608338534832 0.0238505322486162186
109.146965026855469 3.60151433944702148 5.49017667770385742 81 1644758551.34202433 -0.377531647682189941 0.925347864627838135 0.0245481543242931366 0.0244649909436702728
105.393013000488281 -0.137237250804901123 5.11219406127929688 82 1644758552.04232883 -0.377619564533233643 0.925444960594177246 0.0236599985510110855 0.0198827944695949554
101.595230102539062 -3.96168684959411621 4.74558305740356445 83 1644758552.74230623 -0.382699102163314819 0.923496901988983154 0.0228049680590629578 0.013219740241765976
97.764801025390625 -7.8741912841796875 4.41151714324951172 84 1644758553.44320154 -0.389885216951370239 0.920530259609222412 0.0207923837006092072 0.0134614678099751472
93.9931411743164062 -11.8358974456787109 4.10020160675048828 85 1644758554.14224768 -0.393067449331283569 0.919238507747650146 0.0169678907841444016 0.0145135428756475449
90.203857421875 -15.8105888366699219 3.78991889953613281 86 1644758554.84223795 -0.391358911991119385 0.919937789440155029 0.0166518483310937881 0.0165953207761049271
86.3288345336914062 -19.7105007171630859 3.47919631004333496 87 1644758555.54234695 -0.37966156005859375 0.924834132194519043 0.0130821475759148598 0.0191763807088136673
82.4152603149414062 -23.6342582702636719 3.11212611198425293 88 1644758556.24306059 -0.38146403431892395 0.923952817916870117 0.0126134352758526802 0.0252439230680465698
78.557952880859375 -27.5610828399658203 2.82961773872375488 89 1644758556.94168735 -0.384178996086120605 0.923192858695983887 0.0097108474001288414 0.00520892255008220673
74.6863021850585938 -31.5053386688232422 2.64972925186157227 90 1644758557.64547729 -0.382406711578369141 0.92386782169342041 0.0144280446693301201 -0.00502002285793423653
70.9031982421875 -35.3774871826171875 2.47216939926147461 91 1644758558.34349775 -0.379432350397109985 0.924896657466888428 0.0244233850389719009 -0.000883838511072099209
67.1452865600585938 -39.1171836853027344 2.32388186454772949 92 1644758559.04445481 -0.376878201961517334 0.925845623016357422 0.0220174528658390045 -0.016968434676527977
63.3767166137695312 -42.7038917541503906 2.23075151443481445 93 1644758559.74257302 -0.364884883165359497 0.930862545967102051 0.0163398347795009613 -0.0093263210728764534
59.4864273071289062 -45.8912887573242188 2.22165179252624512 94 1644758560.44400072 -0.32011944055557251 0.947251319885253906 0.00486158207058906555 -0.0146594317629933357
54.8601646423339844 -48.8558616638183594 2.26255011558532715 95 1644758561.24244308 -0.265818387269973755 0.963947892189025879 -0.0043151327408850193 -0.0112439580261707306
50.12646484375 -51.43255615234375 2.31524777412414551 96 1644758562.04582477 -0.231818690896034241 0.97264331579208374 -0.00377759756520390511 -0.0145178455859422684
45.4076080322265625 -53.6022720336914062 2.42445135116577148 97 1644758562.84415579 -0.203191876411437988 0.978762924671173096 -0.0105144213885068893 -0.0250130593776702881
40.6387138366699219 -55.4950065612792969 2.57633423805236816 98 1644758563.6448493 -0.177449509501457214 0.983690977096557617 -0.00885402131825685501 -0.0280237682163715363
35.8483619689941406 -57.0863800048828125 2.76663756370544434 99 1644758564.44527149 -0.147098302841186523 0.988656103610992432 -0.00583964213728904724 -0.0297841764986515045
30.4456138610839844 -58.4758453369140625 3.02705574035644531 100 1644758565.34620357 -0.110669933259487152 0.993136107921600342 -0.0053394087590277195 -0.037474900484085083
24.9976367950439453 -59.4019966125488281 3.3162696361541748 101 1644758566.24663544 -0.067137107253074646 0.997026920318603516 -0.0049022953025996685 -0.0374946296215057373
19.5832023620605469 -59.8420181274414062 3.62913608551025391 102 1644758567.14778757 -0.0232438035309314728 0.998759686946868896 -0.000680140452459454536 -0.044026695191860199
14.2158632278442383 -59.8440895080566406 3.99636411666870117 103 1644758568.0458684 0.0130594316869974136 0.998857557773590088 0.000777297827880829573 -0.045960795134305954
8.89831256866455078 -59.5462799072265625 4.33872461318969727 104 1644758568.94407892 0.0334079712629318237 0.998570799827575684 0.000572629913222044706 -0.0417131930589675903
3.58712267875671387 -59.1934051513671875 4.67482948303222656 105 1644758569.84559345 0.0367454290390014648 0.998396635055541992 -0.000689776847139000893 -0.0430522561073303223
-1.680206298828125 -58.8367385864257812 5.02437162399291992 106 1644758570.74803734 0.0296726524829864502 0.998478412628173828 -0.00301504926756024361 -0.0463823489844799042
-6.90557050704956055 -58.6623725891113281 5.38899087905883789 107 1644758571.64761686 0.0210065692663192749 0.998659789562225342 0.0025135725736618042 -0.0472338534891605377
-12.066009521484375 -58.4602508544921875 5.73987340927124023 108 1644758572.54597759 0.0227604769170284271 0.9985007643699646 0.00465379748493432999 -0.0495630726218223572
-17.2265834808349609 -58.2091331481933594 6.06763792037963867 109 1644758573.44676709 0.0282478276640176773 0.99859541654586792 -1.94415806618053466e-05 -0.0448250770568847656
-22.3566570281982422 -57.932373046875 6.37561178207397461 110 1644758574.3457408 0.0285696964710950851 0.998660683631896973 0.000152788401464931667 -0.0431342087686061859
-27.4177131652832031 -57.74969482421875 6.69658231735229492 111 1644758575.34629107 0.00959051121026277542 0.999199748039245605 -0.00480118067935109138 -0.0385336391627788544
-32.6049728393554688 -57.8265037536621094 6.96307706832885742 112 1644758576.64509249 -0.00547270383685827255 0.999437510967254639 0.00585433421656489372 -0.0325636006891727448
-37.7276573181152344 -57.567108154296875 7.17277288436889648 113 1644758578.5467124 0.0343976244330406189 0.999322175979614258 -0.00705456594005227089 -0.011053919792175293
-41.5079078674316406 -57.3911590576171875 7.31481599807739258 114 1644758580.64386415 0.0255545526742935181 0.999185442924499512 -0.009951065294444561 -0.0296035576611757278
-46.077606201171875 -56.8537254333496094 7.3937067985534668 115 1644758582.64693213 0.0875773504376411438 0.995856285095214844 0.00630632834509015083 -0.0236795078963041306
-51.1752166748046875 -56.6867256164550781 7.39717388153076172 116 1644758584.53931952 -0.0525201745331287384 0.998487770557403564 0.016097143292427063 0.00215793401002883911
-53.4274978637695312 -57.8344612121582031 7.27391147613525391 117 1644758585.43936753 -0.225453197956085205 0.973971247673034668 0.0220589041709899902 0.00801498722285032272
-55.8004531860351562 -60.2322235107421875 7.04047441482543945 118 1644758586.44157863 -0.391479611396789551 0.919484496116638184 0.035042833536863327 0.00800055451691150665
-57.8859710693359375 -64.1828536987304688 6.73945140838623047 119 1644758587.64477992 -0.551667690277099609 0.833360731601715088 0.0313670635223388672 0.0137374456971883774
-58.7307510375976562 -69.4314193725585938 6.31266403198242188 120 1644758588.93865609 -0.671332478523254395 0.740225255489349365 0.025874011218547821 0.0266426429152488708
-59.0777359008789062 -74.87786865234375 5.84775400161743164 121 1644758590.14248395 -0.678212523460388184 0.733971595764160156 0.0329749956727027893 0.01503741554915905
-59.4300346374511719 -80.1988372802734375 5.42085790634155273 122 1644758591.23934436 -0.68457794189453125 0.727812767028808594 0.0365162976086139679 0.017552986741065979
-59.700286865234375 -85.3313446044921875 5.0225682258605957 123 1644758592.34239721 -0.687817156314849854 0.725337445735931396 0.0279921311885118484 0.0030940626747906208
-59.8734779357910156 -90.5036468505859375 4.59824514389038086 124 1644758593.43969917 -0.695521295070648193 0.716098189353942871 0.0517179630696773529 0.0279056522995233536
-59.9868278503417969 -95.6812820434570312 4.15865325927734375 125 1644758594.54015303 -0.702642858028411865 0.710692465305328369 0.0302810817956924438 0.0170957073569297791
-59.9279251098632812 -100.72735595703125 3.74962544441223145 126 1644758595.54022121 -0.715021252632141113 0.698302328586578369 0.0307459291070699692 0.0131600946187973022
-59.1824378967285156 -106.105194091796875 3.27047276496887207 127 1644758596.5419786 -0.762375235557556152 0.645786762237548828 0.0395264625549316406 0.0134595409035682678
-57.9299659729003906 -111.164413452148438 2.78114199638366699 128 1644758597.43857431 -0.791290938854217529 0.610296487808227539 0.0373493209481239319 0.00136422202922403812
-56.2969627380371094 -116.205047607421875 2.25233769416809082 129 1644758598.24142098 -0.816238939762115479 0.576103150844573975 0.0425652787089347839 0.00687975715845823288
-53.9774436950683594 -121.348289489746094 1.74225175380706787 130 1644758599.04089975 -0.845438539981842041 0.532729744911193848 0.0378472954034805298 -0.000526229094248265028
-51.4374237060546875 -125.799835205078125 1.359413743019104 131 1644758599.73830104 -0.871641993522644043 0.489167511463165283 0.0305592622607946396 -0.00463180430233478546
-48.3915786743164062 -130.070892333984375 1.0185006856918335 132 1644758600.43941927 -0.894245266914367676 0.44676479697227478 0.0268735568970441818 -0.00210062949918210506
-44.8903541564941406 -134.090774536132812 0.63103717565536499 133 1644758601.13926911 -0.916636228561401367 0.398552268743515015 0.0304075945168733597 0.00307679688557982445
-41.1061439514160156 -137.927597045898438 0.205187216401100159 134 1644758601.83837461 -0.923683583736419678 0.381802469491958618 0.0315755307674407959 0.00620290730148553848
-37.1170158386230469 -141.739715576171875 -0.229807958006858826 135 1644758602.53931522 -0.926788926124572754 0.374593138694763184 0.0268753115087747574 0.00447083543986082077
-33.0821533203125 -145.664688110351562 -0.650462150573730469 136 1644758603.2407999 -0.925518035888671875 0.377735316753387451 0.0252808555960655212 0.00965624582022428513
-28.9787216186523438 -149.656204223632812 -1.11966657638549805 137 1644758603.94046807 -0.926446855068206787 0.374217808246612549 0.0349034518003463745 0.0209519956260919571
-24.8051624298095703 -153.68341064453125 -1.61075913906097412 138 1644758604.64098763 -0.926126599311828613 0.375927358865737915 0.0252415593713521957 0.018192678689956665
-21.1630039215087891 -157.167526245117188 -1.9806973934173584 139 1644758605.23990393 -0.926676928997039795 0.374826282262802124 0.0220592841506004333 0.0169854406267404556
-17.4641990661621094 -160.725616455078125 -2.35863375663757324 140 1644758605.83989882 -0.926395595073699951 0.375316590070724487 0.0238442979753017426 0.0189758148044347763
-13.676640510559082 -164.319015502929688 -2.7884821891784668 141 1644758606.44165087 -0.926663875579833984 0.374691575765609741 0.0275175962597131729 0.0119598349556326866
-9.84753227233886719 -167.907913208007812 -3.17993664741516113 142 1644758607.04043889 -0.928699195384979248 0.369786232709884644 0.0268046017736196518 0.00758176995441317558
-6.04216718673706055 -171.4588623046875 -3.52989983558654785 143 1644758607.64142966 -0.929111123085021973 0.368823021650314331 0.0263591445982456207 0.0052187042310833931
-1.87367165088653564 -175.342330932617188 -3.88503026962280273 144 1644758608.34038854 -0.930414021015167236 0.365680694580078125 0.0236158613115549088 0.00705030746757984161
2.06300926208496094 -178.929367065429688 -4.18706893920898438 145 1644758609.04370189 -0.933490931987762451 0.357972502708435059 0.018929043784737587 0.00959466118365526199
5.86242580413818359 -182.304275512695312 -4.45671415328979492 146 1644758609.74413037 -0.933636069297790527 0.357553154230117798 0.0203650034964084625 0.0080415923148393631
9.79772663116455078 -185.805145263671875 -4.65162801742553711 147 1644758610.54299998 -0.934747159481048584 0.355110496282577515 0.00897364411503076553 0.00798364169895648956
13.6496410369873047 -189.2901611328125 -4.67605876922607422 148 1644758611.44332361 -0.931278407573699951 0.364234596490859985 -0.00653104810044169426 0.00332478596828877926
17.6001300811767578 -193.028518676757812 -4.9356541633605957 149 1644758612.44016361 -0.925785720348358154 0.377929985523223877 -0.00679170712828636169 0.00660391151905059814
21.4458179473876953 -196.9244384765625 -5.09360790252685547 150 1644758613.33702016 -0.920616745948791504 0.390458554029464722 -0.00150533765554428101 0.0021565915085375309
25.2239170074462891 -200.429977416992188 -5.19621562957763672 151 1644758614.13973188 -0.933318734169006348 0.358525365591049194 -0.0162518192082643509 -0.0105647658929228783
29.4239292144775391 -203.711105346679688 -5.30715560913085938 152 1644758614.94210196 -0.948516368865966797 0.316616982221603394 -0.0041654505766928196 -0.00728370482102036476
33.7940521240234375 -206.632766723632812 -5.32187175750732422 153 1644758615.74005985 -0.959819555282592773 0.28020167350769043 -0.00933164358139038086 -0.0120971165597438812
38.3412094116210938 -209.20367431640625 -5.30501890182495117 154 1644758616.5412457 -0.971341371536254883 0.237103864550590515 -0.014720134437084198 -0.00780913233757019043
43.11981201171875 -211.231643676757812 -5.28988456726074219 155 1644758617.34142733 -0.982765376567840576 0.184247344732284546 -0.0122953299432992935 -0.00859899353235960007
48.0606575012207031 -212.776580810546875 -5.28276729583740234 156 1644758618.14222503 -0.989120244979858398 0.145952865481376648 -0.012542051263153553 -0.0134772593155503273
53.1046981811523438 -213.985214233398438 -5.28019428253173828 157 1644758618.94113469 -0.994019269943237305 0.107852861285209656 -0.00833863578736782074 -0.0149650527164340019
58.233245849609375 -214.814666748046875 -5.29359292984008789 158 1644758619.74183416 -0.997574210166931152 0.067031174898147583 -0.0110012423247098923 -0.0152153503149747849
63.391693115234375 -215.17230224609375 -5.30460453033447266 159 1644758620.53925419 -0.999603688716888428 0.0238307267427444458 -0.0103593626990914345 -0.0108275832608342171
68.5809707641601562 -215.19696044921875 -5.31080961227416992 160 1644758621.33985472 -0.999858617782592773 -0.00483021838590502739 -0.0106502454727888107 -0.0120805473998188972
73.747161865234375 -214.989273071289062 -5.30955076217651367 161 1644758622.13951659 -0.999573826789855957 -0.0234327241778373718 -0.0153932617977261543 -0.0081330128014087677
78.9224090576171875 -214.633056640625 -5.29094314575195312 162 1644758622.93969226 -0.999390602111816406 -0.0299044288694858551 -0.0136002935469150543 -0.0117961959913372993
84.0671005249023438 -214.303543090820312 -5.26463937759399414 163 1644758623.7376523 -0.999454975128173828 -0.0265346989035606384 -0.0132095906883478165 -0.0145321125164628029
89.2650833129882812 -214.054733276367188 -5.27618122100830078 164 1644758624.54022765 -0.999558329582214355 -0.0183347295969724655 -0.0121859600767493248 -0.0199622642248868942
94.4522247314453125 -213.869461059570312 -5.27121210098266602 165 1644758625.33873439 -0.999642312526702881 -0.0192951150238513947 -0.0105843022465705872 -0.015194157138466835
99.665771484375 -213.636322021484375 -5.28887748718261719 166 1644758626.14003801 -0.999648392200469971 -0.0222098343074321747 -0.00969601329416036606 -0.0107629727572202682
104.897430419921875 -213.392196655273438 -5.32732915878295898 167 1644758626.93802595 -0.999731004238128662 -0.0191069487482309341 -0.00819022394716739655 -0.0102834915742278099
110.11224365234375 -213.144744873046875 -5.33448076248168945 168 1644758627.73766375 -0.999690711498260498 -0.0227929819375276566 -0.00738139962777495384 -0.00666535785421729088
115.342552185058594 -212.86871337890625 -5.36159133911132812 169 1644758628.54035521 -0.999630868434906006 -0.0242317542433738708 -0.0097419004887342453 -0.00748872151598334312
120.54144287109375 -212.604827880859375 -5.37664699554443359 170 1644758629.33906269 -0.999664068222045898 -0.0229943245649337769 -0.00961511209607124329 -0.00710869906470179558
125.755645751953125 -212.351303100585938 -5.39157962799072266 171 1644758630.13896227 -0.999715328216552734 -0.0202247258275747299 -0.00699738180264830589 -0.0105483178049325943
130.9541015625 -212.114013671875 -5.38317060470581055 172 1644758630.93918037 -0.999728977680206299 -0.0194193106144666672 -0.0079788481816649437 -0.0100599722936749458
136.1279296875 -211.870223999023438 -5.36393594741821289 173 1644758631.74039173 -0.999613106250762939 -0.019158167764544487 -0.0145940324291586876 -0.0139137245714664459
141.293548583984375 -211.667449951171875 -5.32240581512451172 174 1644758632.53872108 -0.999651908874511719 -0.0226133540272712708 -0.00698703201487660408 -0.0116582689806818962
146.451278686523438 -211.420486450195312 -5.31622838973999023 175 1644758633.33968973 -0.999615967273712158 -0.0207047555595636368 -0.0120409633964300156 -0.0139373447746038437
151.596572875976562 -211.186019897460938 -5.26553773880004883 176 1644758634.14084792 -0.999534249305725098 -0.0183749552816152573 -0.0194429494440555573 -0.0146835045889019966
156.683837890625 -210.973617553710938 -5.20940780639648438 177 1644758634.93925571 -0.999579787254333496 -0.021000375971198082 -0.0159212742000818253 -0.012072274461388588
162.043304443359375 -210.71807861328125 -5.1341710090637207 178 1644758635.84022498 -0.999508559703826904 -0.0206297356635332108 -0.0175430644303560257 -0.0157873351126909256
167.469558715820312 -210.50262451171875 -5.02838420867919922 179 1644758636.84158039 -0.999606966972351074 -0.0179894231259822845 -0.0196335930377244949 -0.00876712799072265625
172.715103149414062 -210.290573120117188 -4.89869928359985352 180 1644758637.94123697 -0.99955439567565918 -0.0161920506507158279 -0.023268507793545723 -0.00934777595102787018
177.907241821289062 -210.067794799804688 -4.7260594367980957 181 1644758639.13991594 -0.999331951141357422 -0.021635277196764946 -0.0274484716355800629 -0.0106828548014163971
183.247650146484375 -209.62701416015625 -4.57461071014404297 182 1644758640.34165668 -0.998668134212493896 -0.0437997318804264069 -0.0247574970126152039 -0.0114306937903165817
188.547637939453125 -209.111175537109375 -4.42710256576538086 183 1644758641.74003887 -0.998787164688110352 -0.0417459197342395782 -0.0245468877255916595 -0.00888709910213947296
193.914703369140625 -208.73028564453125 -4.24458074569702148 184 1644758643.23814869 -0.998705446720123291 -0.0380750671029090881 -0.0337012894451618195 -0.00139679014682769775
199.278594970703125 -207.971221923828125 -4.07999658584594727 185 1644758644.44297791 -0.996964156627655029 -0.0727174058556556702 -0.026442529633641243 -0.00868323072791099548
204.244735717773438 -207.194412231445312 -3.94227027893066406 186 1644758645.43778324 -0.996746957302093506 -0.0741014331579208374 -0.0301832035183906555 -0.00966997165232896805
209.688568115234375 -206.412063598632812 -3.77895975112915039 187 1644758646.4422164 -0.997201859951019287 -0.0669170394539833069 -0.0326793640851974487 -0.00652981223538517952
214.848587036132812 -205.687164306640625 -3.62046933174133301 188 1644758647.34327507 -0.997131764888763428 -0.0688738971948623657 -0.0312197841703891754 -0.003148647490888834
220.206634521484375 -204.832672119140625 -3.46146798133850098 189 1644758648.24049377 -0.996152341365814209 -0.0820000916719436646 -0.0308609176427125931 -0.00201223813928663731
225.662368774414062 -203.810928344726562 -3.29234480857849121 190 1644758649.14073491 -0.995068490505218506 -0.0951758995652198792 -0.0278301965445280075 -0.00240012002177536488
231.062240600585938 -202.626617431640625 -3.14109683036804199 191 1644758650.03940868 -0.993505477905273438 -0.110714025795459747 -0.0258538462221622467 -0.00456857308745384216
236.356460571289062 -201.409942626953125 -2.95232915878295898 192 1644758650.94207072 -0.993882179260253906 -0.106145069003105164 -0.0301803834736347198 -0.00454274844378232956
241.742477416992188 -200.23944091796875 -2.78723311424255371 193 1644758651.83961129 -0.99376291036605835 -0.108288846909999847 -0.0265796147286891937 -0.00153306557331234217
247.153778076171875 -198.90557861328125 -2.61250615119934082 194 1644758652.74342585 -0.991801679134368896 -0.123973995447158813 -0.0308590549975633621 -0.00275373179465532303
252.260833740234375 -197.47723388671875 -2.46423554420471191 195 1644758653.642838 -0.990116715431213379 -0.137109965085983276 -0.0286684352904558182 -0.00691795116290450096
257.107818603515625 -196.182479858398438 -2.29843521118164062 196 1644758654.54266405 -0.991917848587036133 -0.122541442513465881 -0.0326398462057113647 -0.00414535170421004295
261.998199462890625 -194.894317626953125 -2.13666105270385742 197 1644758655.54235721 -0.991213977336883545 -0.12966330349445343 -0.0257341638207435608 -0.00448129978030920029
267.152496337890625 -193.460464477539062 -1.96004855632781982 198 1644758656.6440053 -0.990737795829772949 -0.133119925856590271 -0.0261446740478277206 -0.00584001699462532997
272.35882568359375 -191.89776611328125 -1.82088768482208252 199 1644758657.740031 -0.988812685012817383 -0.146799162030220032 -0.0256707631051540375 -0.00636275438591837883
277.177825927734375 -190.248092651367188 -1.67147719860076904 200 1644758658.74087024 -0.986163735389709473 -0.161461636424064636 -0.0349052473902702332 -0.0138890231028199196
281.99285888671875 -188.628128051757812 -1.48326671123504639 201 1644758659.7391293 -0.986471891403198242 -0.161899730563163757 -0.0256941206753253937 -0.00123522640205919743
286.795654296875 -186.999130249023438 -1.3401334285736084 202 1644758660.73826456 -0.987107217311859131 -0.157894119620323181 -0.0260008741170167923 -0.00356650166213512421
291.64276123046875 -185.379959106445312 -1.16372799873352051 203 1644758661.74575901 -0.986683309078216553 -0.159878432750701904 -0.0299022272229194641 -0.000901324616279453039
296.545135498046875 -183.533782958984375 -1.01647782325744629 204 1644758662.84145808 -0.982980966567993164 -0.181004300713539124 -0.0280370749533176422 -0.0141325471922755241
301.184539794921875 -181.344467163085938 -0.838410019874572754 205 1644758664.13916993 -0.972629368305206299 -0.229285672307014465 -0.0291903316974639893 -0.0238361954689025879
305.720703125 -178.880416870117188 -0.61362004280090332 206 1644758665.73830581 -0.969156980514526367 -0.243058055639266968 -0.038287632167339325 -0.0138426953926682472
310.40582275390625 -176.562896728515625 -0.318106859922409058 207 1644758667.53835011 -0.974586546421051025 -0.220504507422447205 -0.0388385429978370667 -0.00709643354639410973
313.806671142578125 -174.991119384765625 -0.0984651520848274231 208 1644758669.54171371 -0.976457357406616211 -0.211562931537628174 -0.0420598536729812622 -0.00176746072247624397
316.3291015625 -173.83697509765625 0.0662788152694702148 209 1644758671.63614678 -0.976350903511047363 -0.211751952767372131 -0.0435838028788566589 -0.000673052389174699783
318.9932861328125 -172.499771118164062 0.221688166260719299 210 1644758673.63645244 -0.972371757030487061 -0.22902834415435791 -0.0450239144265651703 -0.00346631836146116257
322.4190673828125 -169.8089599609375 0.46904340386390686 211 1644758675.73614788 -0.922818779945373535 -0.381894588470458984 -0.0501698143780231476 0.0067116888239979744
323.712371826171875 -167.174118041992188 0.573485195636749268 212 1644758676.63848972 -0.837975382804870605 -0.544203996658325195 -0.0394342690706253052 0.00917910318821668625
324.086029052734375 -164.28692626953125 0.803150594234466553 213 1644758677.43681884 -0.725284397602081299 -0.684010803699493408 -0.0660664662718772888 0.0415569767355918884
323.30804443359375 -160.647323608398438 1.25731205940246582 214 1644758678.43762517 -0.595950961112976074 -0.799045681953430176 -0.0492046847939491272 0.0628277212381362915
320.989532470703125 -156.203720092773438 1.91354620456695557 215 1644758679.83695698 -0.506329178810119629 -0.858518064022064209 -0.0488175153732299805 0.0647639483213424683
318.17364501953125 -152.041641235351562 2.45512819290161133 216 1644758681.23635793 -0.44832909107208252 -0.890729546546936035 -0.0453581996262073517 0.0595357231795787811
314.619293212890625 -148.294479370117188 3.01236224174499512 217 1644758682.63770008 -0.382445096969604492 -0.920571625232696533 -0.0526828691363334656 0.0592300035059452057
310.67108154296875 -144.890655517578125 3.58983659744262695 218 1644758684.03591514 -0.331604868173599243 -0.940552473068237305 -0.040251806378364563 0.0614739954471588135
306.516387939453125 -142.1278076171875 4.04889011383056641 219 1644758685.33639693 -0.267525672912597656 -0.961566448211669922 -0.0314417779445648193 0.0532103441655635834
301.826416015625 -139.720993041992188 4.49453115463256836 220 1644758686.63875771 -0.241929292678833008 -0.968500912189483643 -0.0323050282895565033 0.0493208654224872589
297.387939453125 -137.251983642578125 4.91875123977661133 221 1644758687.83654165 -0.256821095943450928 -0.964671134948730469 -0.0347272008657455444 0.047397315502166748
292.76641845703125 -134.7119140625 5.3229522705078125 222 1644758689.0387342 -0.250134706497192383 -0.966517627239227295 -0.034124322235584259 0.0459545664489269257
288.2716064453125 -132.307693481445312 5.60064220428466797 223 1644758690.33877158 -0.243071019649505615 -0.968925893306732178 -0.0297631118446588516 0.034831169992685318
283.60205078125 -129.587432861328125 5.7883448600769043 224 1644758691.73958302 -0.276972770690917969 -0.960279881954193115 -0.0201941020786762238 0.027218228206038475
279.216217041015625 -126.739936828613281 5.95992422103881836 225 1644758692.94015265 -0.288481354713439941 -0.95705646276473999 -0.0136982426047325134 0.0251758769154548645
274.692596435546875 -123.623931884765625 6.05824136734008789 226 1644758694.04091072 -0.293860852718353271 -0.955550670623779297 0.002027939073741436 0.0237612593919038773
270.125396728515625 -120.513710021972656 6.11891698837280273 227 1644758695.03968143 -0.298889070749282837 -0.95403134822845459 0.000614043790847063065 0.0221149995923042297
265.74053955078125 -117.36676025390625 6.16129970550537109 228 1644758695.93983722 -0.314794421195983887 -0.948945403099060059 -0.00416331365704536438 0.0197410527616739273
261.462432861328125 -113.720375061035156 6.20227241516113281 229 1644758696.84050798 -0.358613193035125732 -0.933346450328826904 0.00407673697918653488 0.015633072704076767
257.84442138671875 -110.15228271484375 6.21037101745605469 230 1644758697.6386528 -0.385246306657791138 -0.922599673271179199 0.00290172011591494083 0.0196642708033323288
254.28662109375 -106.392265319824219 6.21208047866821289 231 1644758698.44120336 -0.40274319052696228 -0.915163159370422363 0.00350143155083060265 0.0161867104470729828
250.876571655273438 -102.511436462402344 6.23718786239624023 232 1644758699.2417233 -0.418441236019134521 -0.908061206340789795 0.00481807487085461617 0.0175676904618740082
247.726150512695312 -98.399017333984375 6.21848392486572266 233 1644758700.03847218 -0.457422435283660889 -0.889212608337402344 0.000585066445637494326 0.0080820620059967041
245.042877197265625 -93.985687255859375 6.23159599304199219 234 1644758700.83713317 -0.509259462356567383 -0.860502958297729492 -0.0112776188179850578 0.00788886845111846924
242.883712768554688 -89.2496566772460938 6.25984477996826172 235 1644758701.63985229 -0.550264537334442139 -0.834814608097076416 -0.00323498528450727463 0.0168238431215286255
241.034652709960938 -84.4576644897460938 6.27958393096923828 236 1644758702.43719077 -0.573908388614654541 -0.81885218620300293 0.00141127931419759989 0.0104055888950824738
239.42010498046875 -79.2033920288085938 6.30639934539794922 237 1644758703.33977127 -0.604777395725250244 -0.79629206657409668 0.000814729777630418539 0.0127516761422157288
238.304183959960938 -74.2124862670898438 6.31636333465576172 238 1644758704.23958707 -0.634120583534240723 -0.773140549659729004 -0.000496728694997727871 0.0120216105133295059
237.573684692382812 -68.9647750854492188 6.32880115509033203 239 1644758705.23887038 -0.666408002376556396 -0.745533764362335205 -0.000271932833129540086 0.00892947055399417877
237.052627563476562 -63.6082077026367188 6.34213685989379883 240 1644758706.33747816 -0.667125046253204346 -0.744763553142547607 -0.00282629881985485554 0.0162287391722202301
236.328933715820312 -58.4860496520996094 6.38140296936035156 241 1644758707.34100056 -0.653640449047088623 -0.756650626659393311 -0.00346881849691271782 0.0148999197408556938
235.160781860351562 -53.6122817993164062 6.44765233993530273 242 1644758708.33885145 -0.597560763359069824 -0.801642179489135742 -0.0102146267890930176 0.0136608332395553589
232.917709350585938 -49.0076332092285156 6.49737739562988281 243 1644758709.43887377 -0.493843555450439453 -0.869079530239105225 -0.0132249277085065842 0.0253855828195810318
229.609390258789062 -45.9277458190917969 6.52628087997436523 244 1644758710.4404006 -0.315942883491516113 -0.948722183704376221 -0.00289462576620280743 0.00989605206996202469
224.866592407226562 -44.0014305114746094 6.53539419174194336 245 1644758711.73918438 -0.179168850183486938 -0.983502566814422607 -0.0244024749845266342 0.00507928384467959404
220.195693969726562 -42.0251312255859375 6.50364923477172852 246 1644758713.3414216 -0.215855449438095093 -0.976338565349578857 -0.0125532988458871841 0.00343375187367200851
215.669281005859375 -39.7051162719726562 6.48853921890258789 247 1644758715.43977952 -0.245801985263824463 -0.969120442867279053 -0.019138457253575325 0.00455268332734704018
212.443069458007812 -37.8978538513183594 6.48265647888183594 248 1644758717.44169879 -0.254880964756011963 -0.966785252094268799 -0.017453119158744812 0.00757373310625553131
209.817581176757812 -36.528411865234375 6.48676204681396484 249 1644758719.5401938 -0.251069396734237671 -0.967489540576934814 -0.0290708914399147034 0.0091136246919631958
205.4903564453125 -33.7319488525390625 6.48046779632568359 250 1644758721.24098349 -0.288979411125183105 -0.957119584083557129 -0.019392695277929306 0.00607636943459510803
201.155746459960938 -30.5488624572753906 6.50519561767578125 251 1644758722.44216228 -0.318659216165542603 -0.947534024715423584 -0.0202837809920310974 0.0149695323780179024
197.17791748046875 -27.5161075592041016 6.56284713745117188 252 1644758723.43850923 -0.314617663621902466 -0.948576033115386963 -0.0234540216624736786 0.0258687082678079605
192.899627685546875 -24.0120849609375 6.67307806015014648 253 1644758724.44122338 -0.348542958498001099 -0.93693387508392334 -0.0192215368151664734 0.0174140613526105881
189.037368774414062 -20.4493236541748047 6.76099920272827148 254 1644758725.34160376 -0.371335059404373169 -0.928021490573883057 -0.0254791025072336197 0.0154029559344053268
185.190963745117188 -16.45709228515625 6.7864532470703125 255 1644758726.23813415 -0.393936514854431152 -0.919010281562805176 -0.00960679259151220322 0.0119087677448987961
181.605819702148438 -12.8570165634155273 6.80929756164550781 256 1644758727.04261684 -0.379308700561523438 -0.925084769725799561 -0.0143888555467128754 0.011662021279335022
177.62701416015625 -8.881072998046875 6.97870588302612305 257 1644758727.93814659 -0.387589573860168457 -0.921490609645843506 -0.0185050684958696365 0.0169387329369783401
174.038467407226562 -5.33612298965454102 7.12440967559814453 258 1644758728.74608302 -0.385267019271850586 -0.922201931476593018 -0.0269131641834974289 0.0197122003883123398
170.058441162109375 -1.44112205505371094 7.31715202331542969 259 1644758729.64341164 -0.385026842355728149 -0.921953976154327393 -0.0323471762239933014 0.0266236439347267151
166.162353515625 2.45596027374267578 7.52711153030395508 260 1644758730.53723907 -0.384129643440246582 -0.922528743743896484 -0.0264962278306484222 0.0261356215924024582
162.162643432617188 6.32573366165161133 7.75989484786987305 261 1644758731.4406817 -0.373126596212387085 -0.927266359329223633 -0.0295671336352825165 0.0089137079194188118
158.242111206054688 10.1466960906982422 7.96971845626831055 262 1644758732.34326482 -0.385333418846130371 -0.921835005283355713 -0.0359572432935237885 0.0211046542972326279
154.422439575195312 14.1436710357666016 8.17693042755126953 263 1644758733.24458027 -0.394390702247619629 -0.918448567390441895 -0.0177466832101345062 0.0243578627705574036
150.552154541015625 18.0565929412841797 8.38729000091552734 264 1644758734.2423594 -0.390619605779647827 -0.920179843902587891 -0.0117248008027672768 0.0234074965119361877
146.879348754882812 21.8078861236572266 8.53729438781738281 265 1644758735.34132361 -0.393491774797439575 -0.919295728206634521 -0.00755572598427534103 0.00158361985813826323
143.227935791015625 25.5300712585449219 8.48960494995117188 266 1644758736.63889384 -0.379921972751617432 -0.924941539764404297 -0.00854278914630413055 -0.00833284668624401093
139.487167358398438 27.6348724365234375 8.35333061218261719 267 1644758737.83719802 -0.207120299339294434 -0.977894902229309082 -0.0263511035591363907 -0.0113306734710931778
136.663986206054688 27.8509998321533203 8.22221279144287109 268 1644758738.63959885 -0.0136197851970791817 -0.99974822998046875 -0.0105715179815888405 -0.0143604325130581856
133.871658325195312 26.8427925109863281 8.00465106964111328 269 1644758739.43797946 0.185986369848251343 -0.982165932655334473 -0.0118085620924830437 -0.0248944889754056931
125.901161193847656 19.4596958160400391 7.16967296600341797 270 1644758741.43880773 0.395421504974365234 -0.917961955070495605 -0.0238411519676446915 -0.0204767584800720215
116.035469055175781 9.65341663360595703 6.16520547866821289 271 1644758743.439147 0.373156726360321045 -0.927305996417999268 -0.0172694381326436996 -0.023651760071516037
104.826866149902344 -1.454864501953125 4.99293613433837891 272 1644758745.54035187 0.379860430955886841 -0.924431800842285156 -0.0269092470407485962 -0.0201939065009355545
94.1873092651367188 -12.1166839599609375 4.08842897415161133 273 1644758747.64100647 0.385163575410842896 -0.922620713710784912 -0.0169236566871404648 -0.011560722254216671
83.7334823608398438 -22.7803077697753906 3.21863770484924316 274 1644758749.73616886 0.382649064064025879 -0.923597037792205811 -0.0116330021992325783 -0.0203193947672843933
73.1406631469726562 -33.9917945861816406 2.53714728355407715 275 1644758751.83594465 0.385236442089080811 -0.922584593296051025 -0.0207079183310270309 0.00130504474509507418
62.0001869201660156 -43.9264907836914062 2.22507691383361816 276 1644758753.9365828 0.328043341636657715 -0.94434887170791626 -0.0148308919742703438 0.0193083211779594421
50.1063919067382812 -51.2289695739746094 2.31446003913879395 277 1644758756.03438091 0.224449411034584045 -0.974343538284301758 0.00223952834494411945 0.0164952501654624939
37.5782699584960938 -55.8730087280273438 2.68990349769592285 278 1644758758.13294911 0.141847878694534302 -0.989274978637695312 0.00656801741570234299 0.0342210941016674042
