# .PCD v0.7 - Point Cloud Data file format
VERSION 0.7
FIELDS x y z intensity t qx qy qz qw
SIZE 4 4 4 4 8 4 4 4 4
TYPE F F F F F F F F F
COUNT 1 1 1 1 1 1 1 1 1
WIDTH 230
HEIGHT 1
VIEWPOINT 0 0 0 1 0 0 0
POINTS 230
DATA ascii
0 0 0 0 1645021150.49882555 0.9996224045753479 2.96422258543316275e-05 0.0274573750793933868 -0.00107916479464620352
-0.00346170179545879364 -0.00137876858934760094 -0.000595926074311137199 1 1645021150.59845424 0.999620676040649414 0.000183407551958225667 0.0275202859193086624 -0.00106865272391587496
-0.0212537515908479691 -0.000478435045806691051 -0.00169739639386534691 2 1645021150.69852805 0.999617695808410645 0.000373078335542231798 0.0276217162609100342 -0.00116487522609531879
-0.00627577444538474083 -0.0056304209865629673 -0.00107022316660732031 3 1645021150.79817271 0.999619662761688232 -0.00023563703871332109 0.0275431293994188309 -0.00136740528978407383
-0.0128632634878158569 -0.00544899981468915939 -0.00139398605097085238 4 1645021150.89834285 0.999623656272888184 0.000249002681812271476 0.0274042394012212753 -0.00120434467680752277
-0.00408807536587119102 -0.00477805128321051598 -0.00140819675289094448 5 1645021150.99806976 0.999616086483001709 8.39490094222128391e-05 0.0276778023689985275 -0.0012894792016595602
-0.00839895009994506836 -0.00420232675969600677 -0.00152592954691499472 6 1645021151.0981636 0.999625027179718018 0.000426729500759392977 0.027353951707482338 -0.00117298727855086327
-0.00494075939059257507 -0.00629461230710148811 -0.00175189273431897163 7 1645021151.19794083 0.999615073204040527 0.00036410105531103909 0.0277185216546058655 -0.00113460235297679901
-0.00492772972211241722 -0.00383027060888707638 -0.00143952528014779091 8 1645021151.30060625 0.9996146559715271 0.000113569069071672857 0.0277149379253387451 -0.00153705687262117863
-0.00751203857362270355 -0.00480419723317027092 -0.00166542909573763609 9 1645021151.40154529 0.999617218971252441 -3.35030890710186213e-05 0.0276218783110380173 -0.00157309859059751034
-0.00798457954078912735 -0.00444646086543798447 -0.00221772794611752033 10 1645021151.4976294 0.999634325504302979 0.000393076392356306314 0.0269966255873441696 -0.00148629897739738226
-0.0122548853978514671 -0.00518745509907603264 -0.00272946874611079693 11 1645021151.59892464 0.999604284763336182 -8.63975074025802314e-05 0.0280954595655202866 -0.00138088699895888567
-0.0183786563575267792 -0.00798929855227470398 -0.00246734009124338627 12 1645021151.69824576 0.999629318714141846 0.00079998065484687686 0.0271598007529973984 -0.00170627085026353598
-0.0234016738831996918 -0.0108238793909549713 -0.00268406257964670658 13 1645021151.79762888 0.999614357948303223 -0.000368245586287230253 0.0277037844061851501 -0.00187650276347994804
-0.0332404747605323792 -0.0113832941278815269 -0.00348309613764286041 14 1645021151.89812589 0.99963688850402832 0.00119060941506177187 0.0268188528716564178 -0.00234023947268724442
-0.0484021417796611786 -0.0112839182838797569 -0.00249736360274255276 15 1645021151.99962473 0.999605655670166016 -0.000416088674683123827 0.0280374456197023392 -0.0014849584549665451
-0.0555324442684650421 -0.00810567755252122879 -0.00152965029701590538 16 1645021152.10217714 0.999583125114440918 0.00147488026414066553 0.0287453010678291321 -0.00225423881784081459
-0.048417951911687851 -0.0117583591490983963 0.00175294431392103434 17 1645021152.20195341 0.999486625194549561 -0.000459911621874198318 0.03194471076130867 -0.00240914244204759598
-0.0321025736629962921 -0.0159348901361227036 0.00904340483248233795 18 1645021152.30083609 0.999193370342254639 -0.000904084183275699615 0.0399504341185092926 -0.00396209303289651871
0.0310239829123020172 -0.0114244744181632996 0.0158106181770563126 19 1645021152.40009785 0.999321162700653076 0.00035869461135007441 0.0367416180670261383 -0.00268089934252202511
0.109049074351787567 -0.0104983905330300331 0.0198263227939605713 20 1645021152.49884653 0.999345660209655762 -0.0020394069142639637 0.0360746309161186218 -0.00164184253662824631
4.26539039611816406 0.00651246262714266777 0.279044687747955322 21 1645021154.49963331 0.999419927597045898 0.00158007105346769094 0.0339032597839832306 0.00280093797482550144
9.57112503051757812 0.12850402295589447 0.612514078617095947 22 1645021156.0993154 0.999281227588653564 0.013638610951602459 0.0350737310945987701 0.00456343498080968857
14.5729465484619141 0.328577965497970581 0.957643330097198486 23 1645021157.39933228 0.998917639255523682 0.0182328969240188599 0.0417575165629386902 0.00934754777699708939
19.5717563629150391 0.563670575618743896 1.30394089221954346 24 1645021158.60042143 0.999248683452606201 0.02363584004342556 0.0298836566507816315 0.00710094394162297249
24.7529010772705078 0.862730801105499268 1.68011128902435303 25 1645021159.8019495 0.99893343448638916 0.0282561350613832474 0.0358899310231208801 0.00674900691956281662
30.0793075561523438 1.23678207397460938 2.09635353088378906 26 1645021161.002671 0.998543739318847656 0.0324400737881660461 0.0423433482646942139 0.00806731637567281723
35.4045677185058594 1.68394660949707031 2.54851365089416504 27 1645021162.20275784 0.998157143592834473 0.0400239564478397369 0.0445182695984840393 0.00992813985794782639
40.7632026672363281 1.90005958080291748 3.00899982452392578 28 1645021163.40322876 0.998840630054473877 0.0105488672852516174 0.04591403529047966 0.00989791657775640488
46.0663528442382812 1.92199277877807617 3.48284411430358887 29 1645021164.60105515 0.998800694942474365 -0.00595683278515934944 0.048000190407037735 0.00759402802214026451
51.3409690856933594 1.83249235153198242 3.96616411209106445 30 1645021165.79988098 0.998749911785125732 -0.00848013162612915039 0.0492497384548187256 -0.00109769834671169519
56.5561599731445312 2.07614707946777344 4.45787143707275391 31 1645021167.00063396 0.998329639434814453 0.0328797809779644012 0.0474783033132553101 -0.00162238150369375944
61.6795616149902344 2.72250175476074219 4.92822885513305664 32 1645021168.1993885 0.997259914875030518 0.0575336925685405731 0.0454787760972976685 0.00970406085252761841
66.8004302978515625 3.45604395866394043 5.39524078369140625 33 1645021169.39873147 0.996369123458862305 0.071433238685131073 0.0458117872476577759 0.00686957407742738724
70.7991943359375 4.88867092132568359 5.77378654479980469 34 1645021170.3987174 0.967591464519500732 0.248753577470779419 0.043456297367811203 -9.59038297878578305e-05
72.18798828125 6.60208368301391602 5.90272998809814453 35 1645021170.89991307 0.902522921562194824 0.429344326257705688 0.0329195223748683929 0.00567170511931180954
72.8065643310546875 8.74499797821044922 5.97149896621704102 36 1645021171.40012884 0.808852136135101318 0.586869478225708008 0.0322472043335437775 0.0173945575952529907
72.7789382934570312 14.202880859375 5.6574711799621582 37 1645021172.49969029 0.687397658824920654 0.724361598491668701 0.0146437399089336395 0.0506980158388614655
72.3599090576171875 19.4163627624511719 5.49453067779541016 38 1645021173.40307641 0.678379952907562256 0.73417508602142334 0.017071649432182312 0.0222751256078481674
72.1329269409179688 24.4991474151611328 5.51508903503417969 39 1645021174.20322776 0.699093520641326904 0.714587152004241943 0.0211082939058542252 0.0137091074138879776
71.9469680786132812 29.7825183868408203 5.54474687576293945 40 1645021174.9995513 0.694745063781738281 0.718978345394134521 0.017619675025343895 0.00943242292851209641
71.7239456176757812 34.8602180480957031 5.52951145172119141 41 1645021175.90215111 0.706251263618469238 0.706331551074981689 -0.000287345523247495294 0.0480089336633682251
72.4951171875 40.2261428833007812 5.66466331481933594 42 1645021177.10393977 0.812531709671020508 0.581774473190307617 0.031964082270860672 0.0175787098705768585
75.6980361938476562 44.1973152160644531 5.7425837516784668 43 1645021178.10073948 0.917654216289520264 0.39717826247215271 0.0124943144619464874 -0.00201318133622407913
80.177154541015625 47.4628219604492188 5.91095256805419922 44 1645021179.10194182 0.956093728542327881 0.292265832424163818 0.0158054996281862259 -0.0146869327872991562
84.3399581909179688 50.6678428649902344 6.09793710708618164 45 1645021180.00307798 0.928182780742645264 0.371140927076339722 0.00624527363106608391 -0.0263078492134809494
87.1624298095703125 55.4046134948730469 6.15245580673217773 46 1645021180.9007833 0.83041006326675415 0.557033896446228027 -0.0101166302338242531 -0.00548449251800775528
87.952392578125 60.3881301879882812 6.2018585205078125 47 1645021181.70179915 0.733734548091888428 0.679392874240875244 0.00765753956511616707 0.000541344401426613331
87.6863632202148438 65.5754013061523438 6.2624049186706543 48 1645021182.50215626 0.669467568397521973 0.742512702941894531 0.0220244638621807098 -0.00173238816205412149
87.1867904663085938 70.9185714721679688 6.33225250244140625 49 1645021183.30141902 0.680829226970672607 0.732076048851013184 0.0197018198668956757 0.0121673131361603737
86.8851852416992188 76.3356399536132812 6.41469955444335938 50 1645021184.10114789 0.691844642162322998 0.721832513809204102 0.0163040235638618469 0.00656067393720149994
86.5667190551757812 81.7520217895507812 6.53045463562011719 51 1645021184.90105367 0.683040916919708252 0.730132043361663818 0.0189003497362136841 0.00225039105862379074
86.1027603149414062 87.1872100830078125 6.63242959976196289 52 1645021185.70164204 0.672032535076141357 0.740350067615509033 0.015811452642083168 -0.00202664849348366261
85.529754638671875 92.6298980712890625 6.71348190307617188 53 1645021186.50142908 0.675827264785766602 0.736899077892303467 0.0140549931675195694 0.00630744872614741325
85.0944976806640625 98.0714340209960938 6.82749271392822266 54 1645021187.30267739 0.689127922058105469 0.724336445331573486 0.0201423559337854385 -0.00580584490671753883
84.810791015625 103.465469360351562 6.92674779891967773 55 1645021188.10212708 0.694335699081420898 0.719414055347442627 0.0166795533150434494 0.00794780626893043518
84.113494873046875 108.446182250976562 7.03021001815795898 56 1645021189.00399995 0.619602859020233154 0.784910500049591064 0.00148720596916973591 -0.00236812839284539223
82.9971771240234375 110.236007690429688 7.08266353607177734 57 1645021189.50172615 0.469548523426055908 0.882703602313995361 -0.0176992863416671753 -0.00672619836404919624
81.4701766967773438 111.06549072265625 7.06634759902954102 58 1645021190.00175118 0.283137500286102295 0.958911120891571045 -0.0158109962940216064 0.00852411333471536636
78.30120849609375 111.758743286132812 7.06478357315063477 59 1645021191.00219512 0.101218782365322113 0.99465632438659668 -0.0202322825789451599 0.00203746533952653408
75.5955352783203125 111.417930603027344 7.01675033569335938 60 1645021191.70337033 -0.0756419375538825989 0.996853351593017578 -0.0231265798211097717 0.00517694978043437004
73.7805938720703125 110.406951904296875 6.99763059616088867 61 1645021192.20174026 -0.255476951599121094 0.96608436107635498 -0.0343724712729454041 0.0152006363496184349
72.5406265258789062 108.620819091796875 6.94664144515991211 62 1645021192.70196486 -0.468268841505050659 0.882555067539215088 -0.0250931382179260254 0.034514106810092926
72.1031265258789062 106.118362426757812 6.89673662185668945 63 1645021193.30332541 -0.621396780014038086 0.783315896987915039 0.00196232600137591362 0.0166861061006784439
72.2475814819335938 101.081565856933594 6.79838657379150391 64 1645021194.40679383 -0.728333592414855957 0.685169637203216553 0.00329575152136385441 0.0078698890283703804
73.0151901245117188 96.0190048217773438 6.72063827514648438 65 1645021195.40461707 -0.749875664710998535 0.661515355110168457 0.00913275685161352158 -0.000713442743290215731
73.3067092895507812 90.4691925048828125 6.62327241897583008 66 1645021196.40284133 -0.702842235565185547 0.711216747760772705 -0.00666818674653768539 0.0117918746545910835
73.4439849853515625 85.1470565795898438 6.50513696670532227 67 1645021197.30588317 -0.704737365245819092 0.709401905536651611 0.00513700069859623909 0.00823322776705026627
73.5946807861328125 79.5600509643554688 6.40322017669677734 68 1645021198.20497918 -0.716341018676757812 0.697647511959075928 0.00753478612750768661 0.00931224413216114044
73.7903289794921875 74.424041748046875 6.29995441436767578 69 1645021199.00381231 -0.722722828388214111 0.691129863262176514 -0.000961399578955024481 0.0032060935627669096
73.9661407470703125 69.0707778930664062 6.17132091522216797 70 1645021199.80532551 -0.715412378311157227 0.698433756828308105 0.00700610317289829254 0.0180649273097515106
74.2459869384765625 63.6695404052734375 6.05429506301879883 71 1645021200.60636806 -0.712312757968902588 0.701833605766296387 0.00482540298253297806 0.00410678703337907791
74.5359039306640625 58.1512603759765625 5.89752006530761719 72 1645021201.40681601 -0.723851144313812256 0.689771831035614014 0.00724225956946611404 0.0142069533467292786
74.614715576171875 52.6963081359863281 5.85877799987792969 73 1645021202.20689201 -0.710396647453308105 0.703656136989593506 -0.00933777540922164917 0.0108376545831561089
75.0501632690429688 38.9568214416503906 5.66756296157836914 74 1645021204.20830798 -0.727043628692626953 0.686500966548919678 0.00560144474729895592 0.00962587166577577591
75.4815139770507812 28.2439937591552734 5.59805870056152344 75 1645021206.20833659 -0.713331282138824463 0.700825929641723633 0.000342052720952779055 -0.00117271032650023699
75.8782501220703125 17.9913368225097656 5.58718967437744141 76 1645021208.20934296 -0.720657944679260254 0.693213164806365967 -0.00783707387745380402 -0.00679797306656837463
76.2908935546875 7.39590549468994141 6.3169703483581543 77 1645021210.2093749 -0.737731635570526123 0.674274265766143799 -0.0298150181770324707 0.0147407269105315208
76.4326553344726562 2.20995664596557617 6.36006546020507812 78 1645021211.20912933 -0.723640739917755127 0.688276767730712891 -0.0383124388754367828 0.0339317433536052704
76.7888565063476562 -2.79049324989318848 6.3066248893737793 79 1645021212.10851359 -0.736086666584014893 0.674915790557861328 -0.024899657815694809 0.045222356915473938
77.091583251953125 -7.99146938323974609 6.38491916656494141 80 1645021213.01163912 -0.72207796573638916 0.690437853336334229 -0.0329535454511642456 0.0285146776586771011
77.3015670776367188 -13.4285659790039062 6.40056705474853516 81 1645021213.90958905 -0.713647603988647461 0.700182735919952393 -0.0139771988615393639 0.0159957483410835266
77.4949264526367188 -18.5158958435058594 6.26829242706298828 82 1645021214.70705318 -0.728556931018829346 0.684188425540924072 -0.00385916139930486679 0.032804541289806366
78.0467681884765625 -23.8654766082763672 6.08020973205566406 83 1645021215.50774741 -0.745765089988708496 0.665395736694335938 -0.00778553774580359459 0.0319734141230583191
78.567840576171875 -29.4469375610351562 5.87222766876220703 84 1645021216.3109982 -0.737175881862640381 0.674641191959381104 -0.00484075583517551422 0.0375171080231666565
79.1845855712890625 -35.1288299560546875 5.70327663421630859 85 1645021217.1128993 -0.754541635513305664 0.655250132083892822 -0.00978310499340295792 0.0349068082869052887
79.7410964965820312 -40.1054344177246094 5.57730436325073242 86 1645021217.80930686 -0.743818342685699463 0.667395174503326416 -0.00326748588122427464 0.0361563675105571747
80.0192108154296875 -45.7654151916503906 5.39702177047729492 87 1645021218.60907221 -0.721473753452301025 0.691325843334197998 -0.0183875765651464462 0.0347292199730873108
80.278656005859375 -50.7845916748046875 5.26157760620117188 88 1645021219.31027508 -0.725973844528198242 0.686717033386230469 -0.0163389965891838074 0.0333879850804805756
80.5535202026367188 -55.8024253845214844 5.13689565658569336 89 1645021220.00873661 -0.729035913944244385 0.683322906494140625 -0.0159276053309440613 0.0363696292042732239
80.850555419921875 -60.8342857360839844 5.04619312286376953 90 1645021220.71119642 -0.727631092071533203 0.685218214988708496 -0.0150360045954585075 0.0283354111015796661
81.116668701171875 -66.53338623046875 5.00596904754638672 91 1645021221.51222515 -0.724546492099761963 0.688301503658294678 -0.0286806318908929825 0.021234169602394104
81.3812026977539062 -72.1573638916015625 5.02949142456054688 92 1645021222.31173396 -0.718539118766784668 0.694679737091064453 -0.024892415851354599 0.0224035996943712234
81.6873397827148438 -77.7403030395507812 5.01657724380493164 93 1645021223.11053061 -0.756281793117523193 0.65224766731262207 -0.0295247659087181091 0.0417022779583930969
82.8442230224609375 -83.2154998779296875 5.00199270248413086 94 1645021223.90857553 -0.78135383129119873 0.623339533805847168 -0.024759385734796524 0.0179150421172380447
84.0061416625976562 -88.6576919555664062 5.0191349983215332 95 1645021224.70627713 -0.768733203411102295 0.638520121574401855 -0.0286053847521543503 0.022870142012834549
85.0367050170898438 -94.1555862426757812 5.09013462066650391 96 1645021225.50745225 -0.778045654296875 0.627201855182647705 -0.0270365122705698013 0.0230607166886329651
86.3852386474609375 -99.4975509643554688 5.21059560775756836 97 1645021226.30705047 -0.798999428749084473 0.599978029727935791 -0.0324554368853569031 0.0239357165992259979
88.215240478515625 -104.671920776367188 5.32326841354370117 98 1645021227.10798645 -0.822384834289550781 0.567735850811004639 -0.0308048389852046967 0.0202555917203426361
90.4217453002929688 -109.714889526367188 5.45329046249389648 99 1645021227.90721416 -0.843356192111968994 0.536346316337585449 -0.0278467591851949692 0.0175377186387777328
92.6737442016601562 -114.680290222167969 5.58662796020507812 100 1645021228.70577812 -0.834585189819335938 0.550144731998443604 -0.0236546546220779419 0.0157714188098907471
94.6360321044921875 -119.382865905761719 5.70499420166015625 101 1645021229.50681305 -0.829718708992004395 0.557546854019165039 -0.0195380840450525284 0.0180719848722219467
95.7818374633789062 -124.29571533203125 5.80061864852905273 102 1645021230.40824127 -0.738776445388793945 0.673910617828369141 -0.00556385423988103867 0.00478676473721861839
94.9874267578125 -128.722396850585938 5.80628538131713867 103 1645021231.30726767 -0.608235657215118408 0.793595850467681885 -0.00971128512173891068 0.0126794474199414253
92.5037765502929688 -133.42376708984375 5.7085576057434082 104 1645021232.40461731 -0.485857546329498291 0.873753666877746582 -0.0156175410374999046 0.0159075483679771423
88.9461135864257812 -137.580429077148438 5.58796834945678711 105 1645021233.40389609 -0.39273563027381897 0.919576585292816162 -0.00349914631806313992 0.0111967567354440689
85.1490554809570312 -141.347366333007812 5.55270767211914062 106 1645021234.30551076 -0.380668222904205322 0.924678266048431396 -0.00662193261086940765 -0.00424033123999834061
81.886444091796875 -145.184951782226562 5.54641962051391602 107 1645021235.1059556 -0.444903194904327393 0.895557820796966553 -0.00353935873135924339 0.0049796542152762413
79.0385360717773438 -149.514816284179688 5.55559682846069336 108 1645021235.90567183 -0.483353167772293091 0.875405251979827881 -0.00584102468565106392 0.00110658560879528522
76.5179443359375 -154.204727172851562 5.58588266372680664 109 1645021236.70572472 -0.521745383739471436 0.853057682514190674 -0.00803052634000778198 -0.00314814178273081779
74.3111648559570312 -159.160110473632812 5.63657665252685547 110 1645021237.50734282 -0.558608949184417725 0.829398393630981445 -0.00734712043777108192 -0.000601645035203546286
72.5141372680664062 -164.280197143554688 5.70252704620361328 111 1645021238.30528808 -0.590285003185272217 0.807129144668579102 -0.00950018502771854401 -0.00399314099922776222
71.1660842895507812 -169.581436157226562 5.799835205078125 112 1645021239.10494685 -0.625656783580780029 0.780071496963500977 -0.00630493555217981339 -0.00150538212619721889
70.4109725952148438 -174.972457885742188 5.90989160537719727 113 1645021239.90433526 -0.668780982494354248 0.743313014507293701 -0.00768802454695105553 -0.0125956404954195023
70.182708740234375 -180.460617065429688 6.04988527297973633 114 1645021240.70520616 -0.700465619564056396 0.713550329208374023 -0.0118609583005309105 -0.00729528162628412247
70.52813720703125 -185.931167602539062 6.20113849639892578 115 1645021241.50675988 -0.735531806945800781 0.677353620529174805 -0.00681715412065386772 -0.0117727862671017647
71.3604278564453125 -191.26287841796875 6.35557460784912109 116 1645021242.30450273 -0.768258333206176758 0.639999687671661377 -0.00636869017034769058 -0.0117891151458024979
72.4740371704101562 -196.158447265625 6.50061655044555664 117 1645021243.10586524 -0.782484471797943115 0.622596621513366699 -0.00718272430822253227 -0.00631373748183250427
73.8969192504882812 -200.956253051757812 6.6441502571105957 118 1645021244.00500917 -0.804486691951751709 0.593437910079956055 -0.00200702296569943428 -0.0250718332827091217
75.7941360473632812 -205.840499877929688 6.80212116241455078 119 1645021245.10537529 -0.830654799938201904 0.556599080562591553 -0.00220613926649093628 -0.0143248913809657097
77.7177658081054688 -210.5927734375 6.96007013320922852 120 1645021246.50701332 -0.822564840316772461 0.568229198455810547 0.0218076333403587341 -0.00520613696426153183
79.3973617553710938 -215.355987548828125 7.19287729263305664 121 1645021248.30911326 -0.811139762401580811 0.584233522415161133 -0.0253244135528802872 -0.00906312093138694763
80.8529052734375 -220.204864501953125 7.36958932876586914 122 1645021249.60785484 -0.800474405288696289 0.598729550838470459 -0.0266381725668907166 0.00734973419457674026
82.1126708984375 -225.360549926757812 7.38154792785644531 123 1645021250.70954514 -0.784092962741851807 0.619565606117248535 -0.0114803686738014221 0.0347119346261024475
83.128204345703125 -230.256057739257812 7.20479202270507812 124 1645021251.70940447 -0.768995344638824463 0.638537287712097168 0.00817570090293884277 0.0291446354240179062
83.9572982788085938 -235.2374267578125 6.99647045135498047 125 1645021252.71031666 -0.761518120765686035 0.647148847579956055 0.00479827960953116417 0.0355734266340732574
84.8235702514648438 -240.335769653320312 6.78216457366943359 126 1645021253.70974588 -0.774662792682647705 0.631441771984100342 0.00191306706983596087 0.0342813432216644287
86.1947708129882812 -245.582290649414062 6.58138513565063477 127 1645021254.70857406 -0.796909511089324951 0.602792084217071533 -0.0014232507674023509 0.0396849997341632843
87.65673828125 -250.412551879882812 6.38430404663085938 128 1645021255.61017227 -0.799622237682342529 0.599251210689544678 0.00252488930709660053 0.0386760570108890533
88.6618194580078125 -255.59979248046875 6.14431667327880859 129 1645021256.60731959 -0.759102702140808105 0.649429857730865479 0.00559769989922642708 0.0444145984947681427
88.92559814453125 -260.928802490234375 5.873779296875 130 1645021257.90719056 -0.714455485343933105 0.697363376617431641 -0.00935197155922651291 0.0561266131699085236
88.553680419921875 -265.9619140625 5.61313629150390625 131 1645021259.6072433 -0.6615944504737854 0.747539818286895752 -0.0140928775072097778 0.0572568997740745544
87.3541793823242188 -269.0426025390625 5.40745449066162109 132 1645021261.20821261 -0.513479650020599365 0.856568396091461182 0.00427330844104290009 0.0510979294776916504
86.3012924194335938 -269.539764404296875 5.2687530517578125 133 1645021261.80713487 -0.342676311731338501 0.937178373336791992 0.0124627361074090004 0.0641433894634246826
85.2408065795898438 -269.535308837890625 5.15202474594116211 134 1645021262.30713749 -0.148593753576278687 0.986333131790161133 0.0281622894108295441 0.0653736293315887451
84.2817459106445312 -269.12982177734375 5.05948448181152344 135 1645021262.80704594 0.0442266836762428284 0.995833158493041992 0.0387590155005455017 0.0696997418999671936
83.5439834594726562 -268.4046630859375 5.01015901565551758 136 1645021263.30678391 0.239920884370803833 0.967370212078094482 0.0547735057771205902 0.0602722838521003723
83.11138916015625 -267.50732421875 5.01598548889160156 137 1645021263.70889211 0.413897931575775146 0.90609133243560791 0.0635874420404434204 0.0603623576462268829
83.0079116821289062 -266.339691162109375 5.09682130813598633 138 1645021264.20595455 0.571979343891143799 0.817262887954711914 0.0648956522345542908 0.0266372095793485641
83.0891876220703125 -263.793548583984375 5.26959848403930664 139 1645021265.20631051 0.709437727928161621 0.702281832695007324 0.0588292963802814484 0.00612176349386572838
84.0156707763671875 -258.805999755859375 5.62235832214355469 140 1645021267.10681057 0.769163966178894043 0.63720703125 0.0480742901563644409 0.00654921820387244225
84.4247207641601562 -253.304916381835938 6.01982688903808594 141 1645021269.10697174 0.698748350143432617 0.713293075561523438 0.0544173009693622589 0.00157485890667885542
83.9300765991210938 -247.473358154296875 6.37230110168457031 142 1645021271.20849133 0.661495864391326904 0.749178946018218994 0.0335115417838096619 -0.00557982362806797028
82.3061294555664062 -241.790817260742188 6.60009956359863281 143 1645021273.20932269 0.587928414344787598 0.808361709117889404 0.0297239683568477631 0.00282080168835818768
79.6828842163085938 -235.570144653320312 6.81427478790283203 144 1645021275.30912352 0.541941642761230469 0.839872539043426514 0.0298940222710371017 0.0044442364014685154
77.7539901733398438 -230.807952880859375 6.96414947509765625 145 1645021276.80994463 0.57535851001739502 0.81734919548034668 0.02980000339448452 0.00385552737861871719
76.1389846801757812 -226.052871704101562 7.07392263412475586 146 1645021278.20977235 0.573211133480072021 0.818890869617462158 0.0287037976086139679 0.00477395951747894287
74.3447494506835938 -221.326873779296875 7.01036262512207031 147 1645021279.51040959 0.591207504272460938 0.806106269359588623 0.00922935549169778824 0.0241083186119794846
73.2498931884765625 -216.430984497070312 7.01554441452026367 148 1645021280.71166682 0.633599281311035156 0.773474752902984619 0.0119985798373818398 0.0120305987074971199
72.1082611083984375 -211.116622924804688 6.94016933441162109 149 1645021281.9110558 0.619207799434661865 0.785184264183044434 -0.00485141808167099953 0.00661802338436245918
70.4948348999023438 -205.969390869140625 6.78702926635742188 150 1645021283.01119328 0.592267155647277832 0.805679023265838623 -0.00867143087089061737 0.00507139181718230247
68.9199295043945312 -200.400741577148438 6.60157060623168945 151 1645021284.11135173 0.608529448509216309 0.79323124885559082 -0.0149839259684085846 0.0158619601279497147
67.1763763427734375 -188.55584716796875 6.29170083999633789 152 1645021286.21299529 0.684576094150543213 0.728882968425750732 -0.00870280060917139053 0.00306683545932173729
66.5663604736328125 -175.478530883789062 5.93805742263793945 153 1645021288.31352568 0.704718053340911865 0.709397017955780029 -0.00448445603251457214 0.0103994887322187424
68.881500244140625 -163.976364135742188 5.67089033126831055 154 1645021290.10979843 0.821581602096557617 0.569868922233581543 0.00820290576666593552 0.0136296181008219719
74.683135986328125 -151.178390502929688 5.54655122756958008 155 1645021292.21102405 0.847556948661804199 0.530692815780639648 4.90246820845641196e-05 0.00351931853219866753
81.32147216796875 -139.4615478515625 5.46293878555297852 156 1645021294.21354747 0.886761963367462158 0.461866140365600586 0.00677970191463828087 0.0169394109398126602
87.5027694702148438 -132.437484741210938 5.53431892395019531 157 1645021295.61275554 0.90707165002822876 0.420923322439193726 0.00563144078478217125 -0.00358129036612808704
90.8842086791992188 -125.886695861816406 5.54802703857421875 158 1645021296.81506348 0.792574405670166016 0.609388291835784912 -0.0216373298317193985 0.00188829365652054548
90.6343231201171875 -122.568374633789062 5.53209495544433594 159 1645021297.41338897 0.663026571273803711 0.748462378978729248 0.00660692760720849037 0.0124957440420985222
86.8382720947265625 -111.635322570800781 5.28603553771972656 160 1645021299.41456866 0.573241949081420898 0.819304525852203369 0.00273375678807497025 0.011237800121307373
82.570770263671875 -99.0216522216796875 4.99120330810546875 161 1645021301.51300383 0.594895124435424805 0.803688585758209229 0.00288879661820828915 0.0132696386426687241
79.5170440673828125 -86.1245269775390625 4.78724908828735352 162 1645021303.5139277 0.633337974548339844 0.773612380027770996 0.01779133640229702 0.00950554758310317993
77.8042526245117188 -72.3438949584960938 4.84627723693847656 163 1645021305.60911512 0.688775718212127686 0.724678516387939453 0.0153901716694235802 0.0138637460768222809
77.4706344604492188 -58.4099540710449219 4.91312026977539062 164 1645021307.70877171 0.686585903167724609 0.726833581924438477 0.0173935741186141968 -0.00319799152202904224
76.7672576904296875 -45.4555625915527344 5.23812627792358398 165 1645021309.70972729 0.701335906982421875 0.712208092212677002 0.0297426767647266388 -0.00172833807300776243
76.0768585205078125 -33.0690460205078125 5.65156936645507812 166 1645021311.71208596 0.685775578022003174 0.726913273334503174 0.0361053459346294403 0.00232192990370094776
75.6053237915039062 -20.5626373291015625 6.10662078857421875 167 1645021313.80908298 0.701170265674591064 0.712493956089019775 0.0262842047959566116 -0.00467057386413216591
75.1180038452148438 -9.15840911865234375 6.22508668899536133 168 1645021315.80988812 0.683118999004364014 0.729833304882049561 0.00133646128233522177 0.0262672398239374161
73.8175201416015625 -5.41294479370117188 6.04478740692138672 169 1645021316.60996127 0.544315755367279053 0.837721109390258789 0.000939620367716997862 0.0440773442387580872
71.9011383056640625 -3.39329099655151367 5.89942264556884766 170 1645021317.21115613 0.385620027780532837 0.922227084636688232 0.00228126952424645424 0.0280932653695344925
68.7363662719726562 -1.73404443264007568 5.5749211311340332 171 1645021317.90912127 0.212500765919685364 0.976168930530548096 -0.00531089399009943008 0.0436964593827724457
64.125732421875 -1.16951858997344971 5.13452768325805664 172 1645021318.70938492 0.0194172468036413193 0.998582541942596436 -0.00471653183922171593 0.04933132603764534
49.7930030822753906 -2.37106752395629883 3.77979373931884766 173 1645021320.80849886 -0.0521199032664299011 0.997430026531219482 0.0089104771614074707 0.0483469292521476746
43.8674507141113281 -2.8107450008392334 3.2544560432434082 174 1645021321.61034513 -0.0295683387666940689 0.998373031616210938 0.00797430705279111862 0.0480985715985298157
38.5713310241699219 -3.09768247604370117 2.76638293266296387 175 1645021322.30964494 -0.021209418773651123 0.998578965663909912 0.0129616893827915192 0.0471402108669281006
33.2190055847167969 -3.35689687728881836 2.30299472808837891 176 1645021323.00962448 -0.022360730916261673 0.998943984508514404 0.0111155407503247261 0.0385670103132724762
27.7787971496582031 -3.64385509490966797 1.83986413478851318 177 1645021323.70978546 -0.0257396381348371506 0.99864572286605835 0.0156155414879322052 0.0424311608076095581
22.3190746307373047 -3.89231181144714355 1.43463623523712158 178 1645021324.41044068 -0.0242018233984708786 0.99892270565032959 0.0136437006294727325 0.0371698327362537384
16.8729171752929688 -4.12442350387573242 1.06753802299499512 179 1645021325.11000371 -0.0225135758519172668 0.99909818172454834 0.00911668501794338226 0.0348266139626502991
7.57344436645507812 -4.53757095336914062 0.484270393848419189 180 1645021326.31163406 -0.0240375902503728867 0.999076604843139648 0.00366275804117321968 0.0354217700660228729
2.2039647102355957 -4.82203435897827148 0.14774419367313385 181 1645021327.01140976 -0.0253546666353940964 0.999307394027709961 0.0012016927357763052 0.0272097978740930557
-3.21888184547424316 -5.15866470336914062 -0.260446399450302124 182 1645021327.71047688 -0.0239915549755096436 0.998826920986175537 0.0057276594452559948 0.0416697859764099121
-8.59210205078125 -5.50574016571044922 -0.563343286514282227 183 1645021328.41162658 -0.0294303689152002335 0.999209463596343994 0.00250248541124165058 0.0266085490584373474
-13.8953151702880859 -5.86457204818725586 -0.760095953941345215 184 1645021329.11021852 -0.0243091154843568802 0.999504327774047852 0.0111908875405788422 0.0165797900408506393
-19.1501789093017578 -6.18115758895874023 -0.949410438537597656 185 1645021329.81011248 -0.024392295628786087 0.999386608600616455 0.0152544658631086349 0.0199695341289043427
-24.3164806365966797 -6.40699958801269531 -1.11834549903869629 186 1645021330.50948238 -0.0109204640612006187 0.999576926231384277 0.0259220041334629059 0.00740005820989608765
-29.4160690307617188 -6.28999853134155273 -1.20117199420928955 187 1645021331.2109201 0.0254595503211021423 0.999494314193725586 0.0165466051548719406 0.00944340974092483521
-35.0566520690917969 -5.74176883697509766 -1.20343625545501709 188 1645021332.01151705 0.0547866001725196838 0.998489737510681152 0.00175963714718818665 -0.00369120319373905659
-40.5207672119140625 -4.92111921310424805 -1.16054284572601318 189 1645021332.81015134 0.0790945515036582947 0.996844351291656494 -0.00433528563007712364 -0.00516007980331778526
-45.8674049377441406 -3.84669399261474609 -1.09164822101593018 190 1645021333.61282706 0.112854033708572388 0.993581533432006836 -0.00288710766471922398 -0.00716570764780044556
-51.01873779296875 -2.47468876838684082 -0.956338226795196533 191 1645021334.41237426 0.139135017991065979 0.990083694458007812 -0.00233216816559433937 -0.0192428715527057648
-56.0000801086425781 -0.77540290355682373 -0.79301154613494873 192 1645021335.21278191 0.18497033417224884 0.98255312442779541 0.00323628843761980534 -0.0191016513854265213
-60.625518798828125 1.57851481437683105 -0.554851293563842773 193 1645021336.01169133 0.2641620934009552 0.96408545970916748 0.00646645668894052505 -0.026753745973110199
-64.853607177734375 4.41662073135375977 -0.29128795862197876 194 1645021336.81272888 0.290713369846343994 0.956313252449035645 0.000163960241479799151 -0.0308332238346338272
-69.4359130859375 7.52946186065673828 0.0358856171369552612 195 1645021337.71333909 0.301771879196166992 0.952884852886199951 0.000498171721119433641 -0.0307237748056650162
-73.6699066162109375 10.7162504196166992 0.382433265447616577 196 1645021338.61230874 0.326731890439987183 0.944522380828857422 0.00688392436131834984 -0.032808743417263031
-77.519805908203125 13.9823932647705078 0.772700786590576172 197 1645021339.51318121 0.356153577566146851 0.933548033237457275 0.0104551650583744049 -0.0391584150493144989
-81.333038330078125 17.7569446563720703 1.17369318008422852 198 1645021340.51522493 0.38981097936630249 0.920091807842254639 0.00808864738792181015 -0.0375911779701709747
-84.7541046142578125 21.5544776916503906 1.54733848571777344 199 1645021341.51441121 0.415239512920379639 0.908819794654846191 0.00731457257643342018 -0.039613921195268631
-88.3494796752929688 25.5911483764648438 1.96562457084655762 200 1645021342.6156981 0.402984648942947388 0.914164185523986816 0.0090110069140791893 -0.0427325628697872162
-92.024505615234375 29.2901535034179688 2.38725662231445312 201 1645021343.71600628 0.383453428745269775 0.922560334205627441 0.0140514113008975983 -0.0406011044979095459
-95.5664825439453125 32.844268798828125 2.77948641777038574 202 1645021344.81534719 0.383970499038696289 0.92242509126663208 0.0130136385560035706 -0.0391050912439823151
-99.3271636962890625 36.6070823669433594 3.19985532760620117 203 1645021346.01301861 0.384188741445541382 0.922449409961700439 0.0100626815110445023 -0.0372138731181621552
-103.003036499023438 40.2823410034179688 3.57927298545837402 204 1645021347.21761107 0.384862840175628662 0.922033429145812988 0.012386709451675415 -0.0397684015333652496
-106.580284118652344 43.925537109375 3.97468328475952148 205 1645021348.41561365 0.386823922395706177 0.921351373195648193 0.00705834105610847473 -0.0378027260303497314
-110.204841613769531 47.4695358276367188 4.29959821701049805 206 1645021349.61501503 0.379930645227432251 0.924458682537078857 0.0111645963042974472 -0.0300698764622211456
-114.017730712890625 51.0540695190429688 4.65275764465332031 207 1645021351.01693988 0.357913374900817871 0.932914614677429199 0.00560356350615620613 -0.0392043963074684143
-117.789482116699219 54.6107978820800781 4.81620979309082031 208 1645021352.81548667 0.376124471426010132 0.926526486873626709 0.00296108494512736797 0.00838502030819654465
-118.885810852050781 57.1962890625 4.93166255950927734 209 1645021353.91557598 0.601722180843353271 0.798520207405090332 0.0127632142975926399 -0.0115320971235632896
-118.449539184570312 58.5355453491210938 4.96248817443847656 210 1645021354.41671467 0.758791089057922363 0.651306033134460449 0.00507110543549060822 -0.00329043925739824772
-117.536399841308594 59.3556938171386719 4.98623847961425781 211 1645021354.91557717 0.878818988800048828 0.476796716451644897 -0.00274396734312176704 -0.0182910449802875519
-116.395492553710938 59.7661552429199219 4.94965505599975586 212 1645021355.41474748 0.95488661527633667 0.296175628900527954 -0.0184479467570781708 -0.0114526292309165001
-115.353744506835938 59.7000923156738281 4.91759300231933594 213 1645021355.8147409 0.993559300899505615 0.110947579145431519 -0.0193320047110319138 -0.0125232497230172157
-114.400634765625 59.2692832946777344 4.89187049865722656 214 1645021356.21623397 0.997709393501281738 -0.0644550025463104248 -0.013770238496363163 -0.0152295911684632301
-113.220001220703125 58.2919540405273438 4.81719493865966797 215 1645021356.71648645 0.966546416282653809 -0.254112690687179565 -0.0163331422954797745 -0.030789470300078392
-110.517227172851562 55.3235435485839844 4.60462760925292969 216 1645021357.81927705 0.905550956726074219 -0.423738628625869751 -0.0196995846927165985 -0.00591131625697016716
-105.229652404785156 48.8724784851074219 4.11074447631835938 217 1645021359.51476693 0.908363044261932373 -0.416819274425506592 -0.0276481509208679199 -0.0193345826119184494
-96.4493179321289062 39.5707359313964844 3.12618041038513184 218 1645021361.51873779 0.918652713298797607 -0.393028974533081055 -0.0395383574068546295 -0.00649054767563939095
-85.797821044921875 28.6237354278564453 1.93129909038543701 219 1645021363.61548781 0.91532057523727417 -0.400470227003097534 -0.0423557162284851074 -0.00421775737777352333
-74.6405410766601562 17.1343421936035156 0.712056100368499756 220 1645021365.7132709 0.929867982864379883 -0.365134209394454956 -0.0442289896309375763 -0.00814488716423511505
-61.8382530212402344 7.02784299850463867 -0.432062745094299316 221 1645021367.81238031 0.959069311618804932 -0.282018572092056274 -0.0254949834197759628 -0.00128123036120086908
-47.8827400207519531 0.975258588790893555 -1.08434009552001953 222 1645021369.8162086 0.990796923637390137 -0.134396180510520935 -0.0160691235214471817 -0.000953626120463013649
-37.1627845764160156 -0.942628562450408936 -1.25639903545379639 223 1645021371.316149 0.997572481632232666 -0.0686592310667037964 -0.00399808725342154503 0.0109139345586299896
-31.6070423126220703 -1.54439663887023926 -1.23854446411132812 224 1645021372.11250758 0.998698532581329346 -0.0501508414745330811 0.00311866332776844501 0.00874280091375112534
-22.1350784301757812 -1.70841324329376221 -0.980742692947387695 225 1645021373.51505494 0.999625742435455322 0.0180911719799041748 0.0200054887682199478 0.00457119103521108627
-16.9177379608154297 -1.29458415508270264 -0.77084815502166748 226 1645021374.31347919 0.998469769954681396 0.0499709136784076691 0.0225539542734622955 -0.00723202154040336609
-11.7955484390258789 -0.509539961814880371 -0.610755264759063721 227 1645021375.11340165 0.997169137001037598 0.0732762664556503296 0.0168538819998502731 -0.000513699022121727467
-6.80322933197021484 0.161630392074584961 -0.419138938188552856 228 1645021375.91300893 0.998224377632141113 0.0561828501522541046 0.0195916574448347092 0.00278852740302681923
0.906613945960998535 0.460896521806716919 0.0284095276147127151 229 1645021377.91320276 0.999740898609161377 0.0165392346680164337 0.015565904788672924 -0.00150052097160369158
