# .PCD v0.7 - Point Cloud Data file format
VERSION 0.7
FIELDS x y z intensity t qx qy qz qw
SIZE 4 4 4 4 8 4 4 4 4
TYPE F F F F F F F F F
COUNT 1 1 1 1 1 1 1 1 1
WIDTH 276
HEIGHT 1
VIEWPOINT 0 0 0 1 0 0 0
POINTS 276
DATA ascii
82.7760086059570312 87.926849365234375 7.87703704833984375 5 1645008381.75554585 0.995939433574676514 0.0237533077597618103 0.0159674007445573807 -0.0853546932339668274
82.3978118896484375 88.3458480834960938 7.88012075424194336 6 1645008381.85501742 0.995728909969329834 0.029392806813120842 0.0174787603318691254 -0.0857584252953529358
81.99298095703125 88.7825241088867188 7.88211345672607422 7 1645008381.95494366 0.99553525447845459 0.0362576209008693695 0.0243399124592542648 -0.0836808234453201294
81.546539306640625 89.2539825439453125 7.88501834869384766 8 1645008382.05510783 0.995342016220092773 0.0370367877185344696 0.0220936667174100876 -0.0862227380275726318
81.09906005859375 89.7106170654296875 7.88907003402709961 9 1645008382.15508628 0.994971513748168945 0.0479110367596149445 0.0270996242761611938 -0.0836767628788948059
80.6633758544921875 90.1583480834960938 7.88437747955322266 10 1645008382.25489116 0.99522709846496582 0.0484349802136421204 0.0193279627710580826 -0.0824833959341049194
80.2446746826171875 90.5876846313476562 7.88683891296386719 11 1645008382.35566974 0.99465256929397583 0.0559185780584812164 0.0231830161064863205 -0.0836774930357933044
79.8260421752929688 91.0175552368164062 7.88140535354614258 12 1645008382.45368433 0.994503974914550781 0.0610465444624423981 0.0162939075380563736 -0.0834846273064613342
79.4075088500976562 91.440338134765625 7.88415002822875977 13 1645008382.55528069 0.994342923164367676 0.0583911463618278503 0.0184914916753768921 -0.0867794603109359741
78.9898757934570312 91.8374710083007812 7.8944544792175293 14 1645008382.65531492 0.993879497051239014 0.0702235177159309387 0.0238461177796125412 -0.0818749815225601196
78.5707855224609375 92.2556076049804688 7.89612007141113281 15 1645008382.75605798 0.993828058242797852 0.0674158334732055664 0.0202538557350635529 -0.085736393928527832
78.1596908569335938 92.6460494995117188 7.89993906021118164 16 1645008382.85593247 0.99348604679107666 0.0727780610322952271 0.0210423022508621216 -0.0851234197616577148
77.7543258666992188 93.0374908447265625 7.89594030380249023 17 1645008382.95489907 0.99331057071685791 0.0738343298435211182 0.0157297048717737198 -0.0873792469501495361
77.3568115234375 93.420806884765625 7.89728260040283203 18 1645008383.05591559 0.993280589580535889 0.0745907649397850037 0.0146326636895537376 -0.0872681513428688049
76.9822540283203125 93.7807693481445312 7.90163278579711914 19 1645008383.15551734 0.9929923415184021 0.0756310597062110901 0.0195394214242696762 -0.0886811688542366028
76.605438232421875 94.1424789428710938 7.90281867980957031 20 1645008383.25628757 0.992750227451324463 0.0776600390672683716 0.0195199977606534958 -0.0896372050046920776
72.9363479614257812 97.5912017822265625 7.92583274841308594 21 1645008384.35420823 0.99309694766998291 0.072815239429473877 0.0221100281924009323 -0.0892611965537071228
69.1318817138671875 101.331138610839844 7.93416738510131836 22 1645008385.45704174 0.994427025318145752 0.0613452307879924774 0.0276549942791461945 -0.0811596885323524475
68.2019882202148438 102.128471374511719 7.91311216354370117 23 1645008385.65480542 0.384947866201400757 0.922672092914581299 -0.0206634625792503357 -0.0080260932445526123
64.1903305053710938 105.581008911132812 7.87800312042236328 24 1645008386.55537009 0.395035386085510254 0.918590545654296875 -0.011693224310874939 0.00130316894501447678
61.3424644470214844 110.246452331542969 7.86585617065429688 25 1645008387.65744591 0.563032627105712891 0.826221108436584473 0.0142289558425545692 0.0122685050591826439
61.1448745727539062 113.067413330078125 7.82300662994384766 26 1645008388.25645375 0.70403289794921875 0.709637999534606934 0.00705064553767442703 0.0264924149960279465
61.8914642333984375 115.22314453125 7.7702937126159668 27 1645008388.75387669 0.819179892539978027 0.572496294975280762 0.00127643509767949581 0.0345063358545303345
63.345672607421875 116.894210815429688 7.75492572784423828 28 1645008389.25665426 0.91009223461151123 0.41317334771156311 -0.000143668527016416192 0.0319352485239505768
65.2378616333007812 117.826393127441406 7.7497248649597168 29 1645008389.75661373 0.970034897327423096 0.241917684674263 -0.00288644176907837391 0.0223565772175788879
70.3648223876953125 118.463447570800781 7.69731616973876953 30 1645008391.05313563 0.999619603157043457 -0.0239520743489265442 -0.010156397707760334 0.00915505550801753998
72.8598098754882812 117.331001281738281 7.67968225479125977 31 1645008391.65197325 0.976542472839355469 -0.215278550982475281 0.00113882264122366905 -0.00431574927642941475
76.9941024780273438 114.118247985839844 7.67553901672363281 32 1645008392.65599084 0.935344696044921875 -0.353656023740768433 0.00525239435955882072 -0.0054942891001701355
80.7264480590820312 110.324813842773438 7.63900470733642578 33 1645008393.54990172 0.919507801532745361 -0.392887622117996216 -0.00395330507308244705 -0.0113634848967194557
84.1405487060546875 106.618507385253906 7.64528226852416992 34 1645008394.35199094 0.916887223720550537 -0.398815929889678955 0.00851064082235097885 -0.0138304093852639198
87.8241348266601562 102.9896240234375 7.64306354522705078 35 1645008395.15107989 0.925764918327331543 -0.377894490957260132 0.00234874896705150604 -0.012230665422976017
91.5556488037109375 99.3587265014648438 7.63618087768554688 36 1645008395.95334029 0.926366746425628662 -0.376344740390777588 0.00533339427784085274 -0.0134485373273491859
95.2944259643554688 95.7028656005859375 7.61775493621826172 37 1645008396.75241137 0.924184978008270264 -0.381786167621612549 0.00434569595381617546 -0.0101249795407056808
98.99603271484375 91.9864349365234375 7.61535406112670898 38 1645008397.55274677 0.92265629768371582 -0.385261654853820801 0.00199138280004262924 -0.0165793877094984055
102.634346008300781 88.2553863525390625 7.61758995056152344 39 1645008398.35234499 0.920122206211090088 -0.391236752271652222 0.00784372631460428238 -0.0157290156930685043
106.05914306640625 84.5472030639648438 7.62329816818237305 40 1645008399.15335989 0.911873817443847656 -0.410233527421951294 0.0081258406862616539 -0.0113385468721389771
108.727371215820312 80.3119964599609375 7.67976236343383789 41 1645008400.0537324 0.847829997539520264 -0.530248701572418213 -0.00155910954345017672 0.00426305225118994713
109.43524169921875 76.4160003662109375 7.73810863494873047 42 1645008400.85437655 0.731558024883270264 -0.681473612785339355 -0.0199166852980852127 0.00445971358567476273
108.513595581054688 72.307586669921875 7.70966434478759766 43 1645008401.75373673 0.597877919673919678 -0.801399409770965576 -0.0167497750371694565 -0.00451853731647133827
107.207717895507812 67.1705245971679688 7.69559288024902344 44 1645008403.05322456 0.671830475330352783 -0.740656793117523193 0.00682051666080951691 -0.00497991451993584633
109.026321411132812 62.1548690795898438 7.69727277755737305 45 1645008404.15647602 0.858877599239349365 -0.512052059173583984 0.0112386904656887054 0.00237230630591511726
112.284172058105469 58.3358497619628906 7.69872093200683594 46 1645008405.05569077 0.915994584560394287 -0.401171326637268066 -0.0022051115520298481 0.00326456991024315357
116.095977783203125 54.8035659790039062 7.69556808471679688 47 1645008406.15580153 0.934731841087341309 -0.355258315801620483 -0.00667724898084998131 -0.00482782162725925446
120.098953247070312 51.7734909057617188 7.67330360412597656 48 1645008407.35778666 0.953172028064727783 -0.302417933940887451 -0.00132770487107336521 -0.0021804426796734333
123.031028747558594 50.8752021789550781 7.66700649261474609 49 1645008408.15489602 0.995655238628387451 -0.0897761359810829163 -0.00617727963253855705 -0.0239310804754495621
124.48431396484375 51.335113525390625 7.66237115859985352 50 1645008408.55562901 0.996276617050170898 0.0847792923450469971 -0.00923987105488777161 -0.012650378979742527
126.956825256347656 52.8369712829589844 7.64598274230957031 51 1645008409.25732565 0.963718831539154053 0.266654759645462036 -0.00121743988711386919 -0.0118211181834340096
131.211441040039062 56.2710914611816406 7.62340021133422852 52 1645008410.35161424 0.930000126361846924 0.366563200950622559 -0.0120367351919412613 -0.0242128577083349228
133.268569946289062 59.3568077087402344 7.60228157043457031 53 1645008411.05414963 0.849245250225067139 0.525654911994934082 -0.0293911732733249664 -0.0400690361857414246
133.491531372070312 61.3626136779785156 7.61451482772827148 54 1645008411.4544754 0.738741755485534668 0.6712493896484375 -0.0461050756275653839 -0.039486415684223175
132.716049194335938 63.5647621154785156 7.64619016647338867 55 1645008411.95405078 0.596521317958831787 0.80221790075302124 -0.0235986374318599701 -0.00719900568947196007
129.751846313476562 67.8044586181640625 7.69807291030883789 56 1645008413.05299163 0.438755542039871216 0.898566782474517822 -0.00253781699575483799 -0.00805246550589799881
125.988693237304688 71.77020263671875 7.67955350875854492 57 1645008414.05632019 0.391100764274597168 0.920343160629272461 -0.00267509184777736664 0.00124534941278398037
122.856689453125 75.9190597534179688 7.6677098274230957 58 1645008415.05682898 0.512100636959075928 0.858808577060699463 0.00617887824773788452 0.0127499857917428017
122.540184020996094 80.1597213745117188 7.63145923614501953 59 1645008416.05120564 0.748045742511749268 0.6633186936378479 -0.00353313097730278969 0.0205764342099428177
123.341773986816406 81.4272613525390625 7.60964012145996094 60 1645008416.45204258 0.85224074125289917 0.522488594055175781 -0.00730169005692005157 0.0252609550952911377
124.532501220703125 82.193267822265625 7.58367156982421875 61 1645008416.85253978 0.939221978187561035 0.341128796339035034 -0.0166271533817052841 0.0348824635148048401
125.840652465820312 82.2911300659179688 7.55968427658081055 62 1645008417.25198293 0.98942410945892334 0.140638858079910278 -0.0244827065616846085 0.0257147122174501419
127.016059875488281 81.88421630859375 7.5431060791015625 63 1645008417.65081716 0.997924983501434326 -0.0566988326609134674 -0.0235222205519676208 0.0194324608892202377
128.014297485351562 81.1165695190429688 7.54865407943725586 64 1645008418.05105829 0.972591161727905273 -0.23177008330821991 -0.0112385591492056847 0.0149231245741248131
129.928680419921875 78.8946609497070312 7.55462265014648438 65 1645008418.85028744 0.917748034000396729 -0.397138327360153198 -0.00221093744039535522 0.0038480756338685751
133.341171264648438 75.1130752563476562 7.55738925933837891 66 1645008419.95080543 0.914769411087036133 -0.403961241245269775 0.000887268455699086189 0.00337877427227795124
136.949432373046875 71.1891937255859375 7.55301046371459961 67 1645008420.95169783 0.910032808780670166 -0.414373517036437988 -0.00743134133517742157 0.00892496388405561447
138.9862060546875 67.4386520385742188 7.57451105117797852 68 1645008421.8516469 0.820436298847198486 -0.571122407913208008 -0.0172969065606594086 0.0201078485697507858
138.98651123046875 64.92352294921875 7.5854496955871582 69 1645008422.45114422 0.690098106861114502 -0.723028481006622314 -0.0288828443735837936 0.0126583967357873917
138.029678344726562 62.8543701171875 7.58066463470458984 70 1645008423.05074739 0.543680012226104736 -0.83894878625869751 -0.0233350954949855804 0.00569484755396842957
133.372100830078125 57.5826835632324219 7.59820413589477539 71 1645008424.65093899 0.388921529054641724 -0.921226382255554199 -0.00390499853529036045 0.00817377679049968719
127.474082946777344 50.1374473571777344 7.60356378555297852 72 1645008426.55219221 0.544069588184356689 -0.838947534561157227 -0.000477862660773098469 -0.0124545786529779434
127.142189025878906 46.6880531311035156 7.6835474967956543 73 1645008427.35264969 0.689587533473968506 -0.723996222019195557 0.00991864688694477081 0.0141480173915624619
127.816757202148438 43.7496528625488281 7.90506887435913086 74 1645008428.05388927 0.80650097131729126 -0.589302361011505127 0.0476290397346019745 0.00322153535671532154
131.107940673828125 39.5815773010253906 8.45165252685546875 75 1645008429.25205374 0.914488077163696289 -0.40019264817237854 0.0596367083489894867 0.000919500365853309631
134.890167236328125 35.8324127197265625 8.51580524444580078 76 1645008430.35139585 0.932753443717956543 -0.357804477214813232 0.0254826080054044724 -0.0360224433243274689
139.1824951171875 32.4845962524414062 8.54359149932861328 77 1645008431.35408807 0.945566892623901367 -0.322692424058914185 0.0081112254410982132 -0.0413172170519828796
143.292388916015625 29.18914794921875 8.58327388763427734 78 1645008432.25221872 0.942249417304992676 -0.330196976661682129 0.00406537717208266258 -0.0558520220220088959
147.261962890625 26.0197315216064453 8.63717174530029297 79 1645008433.15284252 0.937124192714691162 -0.348382830619812012 0.0119932573288679123 -0.0168458204716444016
151.267898559570312 22.5051765441894531 8.56966972351074219 80 1645008434.05226493 0.934367537498474121 -0.355559051036834717 -0.00169368879869580269 -0.0230683423578739166
155.076461791992188 19.0680084228515625 8.37234306335449219 81 1645008434.85338497 0.930141031742095947 -0.366425037384033203 -0.0104447193443775177 -0.0214781872928142548
158.906005859375 15.4236392974853516 8.15149974822998047 82 1645008435.65617752 0.925759732723236084 -0.376890480518341064 -0.0192351862788200378 -0.0235061943531036377
162.557388305664062 11.7795248031616211 7.96318721771240234 83 1645008436.45596004 0.924446403980255127 -0.380615651607513428 -0.00875521264970302582 -0.0213043875992298126
166.137954711914062 8.17225551605224609 7.78427314758300781 84 1645008437.25433469 0.922478139400482178 -0.385351240634918213 -0.00387951545417308807 -0.0228797178715467453
169.729202270507812 4.58074522018432617 7.59840869903564453 85 1645008438.05574775 0.923590779304504395 -0.382086485624313354 -0.0151056824252009392 -0.0276005472987890244
173.493621826171875 0.673662424087524414 7.38928031921386719 86 1645008438.95776248 0.917294681072235107 -0.396921902894973755 -0.0148991309106349945 -0.0283101256936788559
177.0146484375 -2.98321366310119629 7.24057960510253906 87 1645008439.85481691 0.920515835285186768 -0.389914900064468384 -0.00586716830730438232 -0.0241365917026996613
181.39678955078125 -6.16264629364013672 7.06646537780761719 88 1645008440.9562664 0.967268168926239014 -0.251169919967651367 -0.0107959294691681862 -0.0344886183738708496
185.9273681640625 -7.23074769973754883 7.03800630569458008 89 1645008442.05360293 0.996682584285736084 -0.0735831707715988159 -0.00296646216884255409 -0.0346496589481830597
191.11285400390625 -6.66742897033691406 7.13768291473388672 90 1645008443.55624199 0.99660491943359375 0.0797237977385520935 0.0101366378366947174 -0.0178891662508249283
196.142562866210938 -7.764739990234375 7.17492055892944336 91 1645008445.35451984 0.95772707462310791 -0.287645459175109863 -0.00368355889804661274 0.00232995324768126011
197.04388427734375 -10.1144094467163086 7.15189886093139648 92 1645008446.1552496 0.822610139846801758 -0.568455040454864502 -0.0124378632754087448 -0.00409853085875511169
196.8194580078125 -12.0348711013793945 7.10020780563354492 93 1645008446.7554152 0.703687727451324463 -0.710272371768951416 -0.00499356258660554886 -0.0176580119878053665
196.293197631835938 -17.1026821136474609 6.91011381149291992 94 1645008448.05682993 0.679625213146209717 -0.733301997184753418 -0.0118091711774468422 -0.0154376821592450142
197.837142944335938 -22.2398242950439453 6.73273706436157227 95 1645008449.35805416 0.853339970111846924 -0.520626187324523926 0.000543118396308273077 -0.0275483950972557068
201.626220703125 -26.2428264617919922 6.60831832885742188 96 1645008450.45653319 0.937937259674072266 -0.344840079545974731 0.00068846874637529254 -0.0368580184876918793
206.120346069335938 -29.2901287078857422 6.58903884887695312 97 1645008451.45742702 0.955155134201049805 -0.295311629772186279 0.00429799966514110565 -0.0212436039000749588
210.410400390625 -32.2644500732421875 6.59709310531616211 98 1645008452.35727763 0.954557478427886963 -0.296696215867996216 0.0107877161353826523 -0.0259808395057916641
214.701385498046875 -34.8627586364746094 6.60019111633300781 99 1645008453.15898967 0.965475678443908691 -0.259345442056655884 0.0067827063612639904 -0.0234651211649179459
219.594650268554688 -37.5667228698730469 6.5975794792175293 100 1645008454.05869222 0.969701945781707764 -0.243394970893859863 0.00867712218314409256 -0.0190185420215129852
224.353485107421875 -39.8915138244628906 6.59302759170532227 101 1645008454.96023703 0.97518312931060791 -0.220825225114822388 0.000638426165096461773 -0.0159273538738489151
229.37396240234375 -42.059539794921875 6.59658479690551758 102 1645008455.96057272 0.980079233646392822 -0.1977824866771698 0.00242079049348831177 -0.0179132875055074692
233.985260009765625 -44.000213623046875 6.58703327178955078 103 1645008456.95636463 0.975504279136657715 -0.219774812459945679 0.000404224003432318568 -0.00949854869395494461
237.685150146484375 -47.5042495727539062 6.55658817291259766 104 1645008458.05841565 0.900793552398681641 -0.434145539999008179 -0.00601500272750854492 -0.00724057666957378387
239.677536010742188 -52.3088569641113281 6.44540596008300781 105 1645008459.16126108 0.80343925952911377 -0.595318019390106201 -0.00104029907379299402 -0.00898773316293954849
240.32940673828125 -57.27362060546875 6.35094976425170898 106 1645008460.15893102 0.736889123916625977 -0.675951123237609863 -0.00794618576765060425 -0.00461772177368402481
240.664169311523438 -62.738677978515625 6.25478124618530273 107 1645008461.15833735 0.728291809558868408 -0.685208916664123535 -0.00886239763349294662 -0.0011043112026527524
241.33984375 -68.2151260375976562 6.22218799591064453 108 1645008462.16033292 0.745999634265899658 -0.665774166584014893 -0.010343656875193119 0.0110612111166119576
242.018096923828125 -73.1785812377929688 6.21417617797851562 109 1645008463.05911255 0.750887155532836914 -0.660318195819854736 -0.0111243538558483124 0.00496742129325866699
242.91998291015625 -78.4958877563476562 6.20348072052001953 110 1645008464.06041932 0.778456687927246094 -0.627362668514251709 0.00293182325549423695 0.0203150361776351929
244.288848876953125 -83.3068771362304688 6.18936300277709961 111 1645008464.95833349 0.800678431987762451 -0.598933219909667969 -0.00313303503207862377 0.013538360595703125
245.993057250976562 -88.1763763427734375 6.17013025283813477 112 1645008465.85583901 0.820050895214080811 -0.57225269079208374 -0.00254032155498862267 0.00607713265344500542
248.252410888671875 -93.1216659545898438 6.16852998733520508 113 1645008466.75417995 0.847060322761535645 -0.53141552209854126 -0.00429164990782737732 0.00824207160621881485
251.094131469726562 -97.9168853759765625 6.14154529571533203 114 1645008467.65561748 0.876775205135345459 -0.480825513601303101 -0.00505819963291287422 0.00681472010910511017
254.385009765625 -102.230644226074219 6.12389516830444336 115 1645008468.55549145 0.899374961853027344 -0.436606884002685547 -0.0128896431997418404 0.0182484332472085953
258.035552978515625 -106.237106323242188 6.13152456283569336 116 1645008469.46132421 0.919512093067169189 -0.392961442470550537 -0.00253855204209685326 0.00851046200841665268
262.106170654296875 -109.69012451171875 6.11800670623779297 117 1645008470.35343122 0.946135520935058594 -0.323732823133468628 -0.000778575194999575615 0.00490757916122674942
266.540313720703125 -112.770263671875 6.06890583038330078 118 1645008471.25412464 0.954687178134918213 -0.297426909208297729 -0.00774044264107942581 0.0070521240122616291
270.961578369140625 -115.440925598144531 5.99333906173706055 119 1645008472.15513539 0.959962964057922363 -0.278857171535491943 -0.0166799742728471756 0.0207739900797605515
275.548736572265625 -118.208641052246094 5.9729456901550293 120 1645008473.15433931 0.968118906021118164 -0.250171840190887451 -0.00924054626375436783 0.00863051600754261017
280.031341552734375 -120.501068115234375 6.01624584197998047 121 1645008474.65375853 0.971536338329315186 -0.235917910933494568 0.0141115710139274597 0.0161483120173215866
283.83856201171875 -122.618354797363281 6.01860618591308594 122 1645008476.65407228 0.966909468173980713 -0.254106312990188599 0.0224523358047008514 0.00345100276172161102
288.183837890625 -125.128509521484375 5.92302131652832031 123 1645008478.65527439 0.965778708457946777 -0.259009033441543579 0.0058069918304681778 -0.0123325316235423088
292.615142822265625 -127.747383117675781 5.79285335540771484 124 1645008479.95269656 0.963727176189422607 -0.264751046895980835 -0.0135927926748991013 -0.0308550819754600525
297.002899169921875 -130.5545654296875 5.43901443481445312 125 1645008481.25269938 0.955950438976287842 -0.289274424314498901 -0.0373938605189323425 -0.0328759178519248962
301.51947021484375 -133.546966552734375 4.97714424133300781 126 1645008482.45338893 0.954595565795898438 -0.293768227100372314 -0.044051632285118103 -0.0225160345435142517
305.668243408203125 -136.366363525390625 4.53452301025390625 127 1645008483.45467758 0.953967571258544922 -0.295901030302047729 -0.0437076948583126068 -0.021865546703338623
310.081207275390625 -139.446136474609375 4.07104015350341797 128 1645008484.45385695 0.951657414436340332 -0.303765147924423218 -0.0375017859041690826 -0.025854920968413353
314.23291015625 -142.554244995117188 3.59553837776184082 129 1645008485.3514421 0.946150720119476318 -0.318467199802398682 -0.0472276583313941956 -0.033867914229631424
318.39398193359375 -145.9210205078125 3.09140467643737793 130 1645008486.25251889 0.937666893005371094 -0.343152105808258057 -0.0398829877376556396 -0.0379054993391036987
322.188507080078125 -149.685104370117188 2.54343199729919434 131 1645008487.15378284 0.915896058082580566 -0.397469490766525269 -0.0444439612329006195 -0.0343091525137424469
325.614532470703125 -153.927413940429688 2.01694464683532715 132 1645008488.15359282 0.892754971981048584 -0.447114706039428711 -0.0427549220621585846 -0.0353413484990596771
328.23291015625 -158.491119384765625 1.49472010135650635 133 1645008489.35277414 0.855099081993103027 -0.514578044414520264 -0.0356917791068553925 -0.052355349063873291
330.0687255859375 -163.212570190429688 0.98590320348739624 134 1645008491.05427718 0.816801190376281738 -0.574922144412994385 -0.0113751916214823723 -0.0465930737555027008
330.79693603515625 -166.537689208984375 0.973451018333435059 135 1645008493.05480695 0.771409749984741211 -0.635441362857818604 0.0227262526750564575 -0.0249959398061037064
330.554046630859375 -170.29901123046875 0.902099967002868652 136 1645008494.25396132 0.645924210548400879 -0.763179361820220947 0.00433155149221420288 -0.017899978905916214
329.32171630859375 -172.637588500976562 0.798542320728302002 137 1645008494.85414958 0.501994311809539795 -0.864608407020568848 -0.00905570574104785919 -0.0192881710827350616
327.095306396484375 -174.652511596679688 0.657236158847808838 138 1645008495.45570898 0.337806552648544312 -0.940828025341033936 -0.0173217058181762695 -0.0207204781472682953
322.53033447265625 -177.035995483398438 0.418499678373336792 139 1645008496.35524797 0.227095514535903931 -0.973534584045410156 -0.000912652816623449326 -0.0256354957818984985
317.875946044921875 -179.279754638671875 0.148120775818824768 140 1645008497.15569687 0.220119699835777283 -0.975033938884735107 0.00528903212398290634 -0.0287774913012981415
312.986907958984375 -181.55682373046875 -0.12955881655216217 141 1645008497.95633507 0.211498469114303589 -0.97680199146270752 0.0130387842655181885 -0.0309235285967588425
307.942535400390625 -183.77374267578125 -0.400472193956375122 142 1645008498.75520086 0.202705070376396179 -0.978644967079162598 0.0172362066805362701 -0.0294555500149726868
302.79266357421875 -185.923934936523438 -0.649083554744720459 143 1645008499.55646062 0.193856239318847656 -0.980466067790985107 0.0197076760232448578 -0.0267898272722959518
297.614715576171875 -187.975845336914062 -0.860999703407287598 144 1645008500.35523105 0.18506304919719696 -0.98225247859954834 0.0169793087989091873 -0.0253662150353193283
292.433868408203125 -189.9210205078125 -1.05986166000366211 145 1645008501.15221429 0.173382386565208435 -0.984428226947784424 0.0166573449969291687 -0.0237108394503593445
287.183807373046875 -191.74676513671875 -1.23928260803222656 146 1645008501.95437813 0.161431610584259033 -0.986424148082733154 0.0199146363884210587 -0.0225980039685964584
281.92425537109375 -193.43365478515625 -1.404502272605896 147 1645008502.7526257 0.148412942886352539 -0.988584578037261963 0.0184554308652877808 -0.0182620435953140259
276.646942138671875 -195.080474853515625 -1.58055424690246582 148 1645008503.55131912 0.16141258180141449 -0.986384034156799316 0.0197564736008644104 -0.0245390255004167557
271.428497314453125 -196.916717529296875 -1.7758176326751709 149 1645008504.35464358 0.15634569525718689 -0.987293660640716553 0.0119298845529556274 -0.0257863141596317291
266.2908935546875 -198.768890380859375 -1.93500745296478271 150 1645008505.15678763 0.175550878047943115 -0.98424452543258667 0.0202400647103786469 -0.00590963615104556084
261.133453369140625 -200.661346435546875 -2.23872542381286621 151 1645008505.95563006 0.158932343125343323 -0.986665070056915283 0.0242006778717041016 -0.0254341624677181244
255.870101928710938 -202.223419189453125 -2.31969952583312988 152 1645008506.75143671 0.13794553279876709 -0.990203797817230225 0.0114456294104456902 -0.0183444637805223465
250.490646362304688 -203.703414916992188 -2.47364473342895508 153 1645008507.5557847 0.129546254873275757 -0.991262495517730713 0.0135411759838461876 -0.0208113584667444229
245.176055908203125 -205.09051513671875 -2.66765403747558594 154 1645008508.3552866 0.123695135116577148 -0.992104887962341309 0.0119588887318968773 -0.0168628301471471786
239.869384765625 -206.497589111328125 -2.87397384643554688 155 1645008509.15164876 0.134150341153144836 -0.990784585475921631 0.0138303954154253006 -0.012584359385073185
234.566375732421875 -207.996673583984375 -3.00550317764282227 156 1645008509.95429373 0.142339736223220825 -0.989576160907745361 0.0153367584571242332 -0.015595422126352787
229.360885620117188 -209.5322265625 -3.13433504104614258 157 1645008510.75170231 0.140504270792007446 -0.989879310131072998 0.0161163602024316788 -0.0117373168468475342
224.1119384765625 -211.095993041992188 -3.30344319343566895 158 1645008511.55329633 0.130180329084396362 -0.991344630718231201 -0.0039652693085372448 -0.0165283102542161942
218.776016235351562 -212.418594360351562 -3.47793149948120117 159 1645008512.35204077 0.107944756746292114 -0.994062721729278564 -0.0106925060972571373 -0.00853922311216592789
213.35272216796875 -213.487335205078125 -3.6594700813293457 160 1645008513.15245271 0.0889266356825828552 -0.995853662490844727 -0.00737931020557880402 -0.0176948253065347672
207.958206176757812 -214.53680419921875 -3.80217623710632324 161 1645008513.95317769 0.0930123776197433472 -0.995635986328125 -0.00371393491514027119 -0.00662423064932227135
202.565093994140625 -215.525955200195312 -3.96122288703918457 162 1645008514.75292659 0.0843438729643821716 -0.996267974376678467 -0.00435758894309401512 -0.0178128387778997421
197.161087036132812 -216.261459350585938 -4.1046137809753418 163 1645008515.55238652 0.0418618544936180115 -0.998682081699371338 -0.028195234015583992 -0.00931481365114450455
191.693405151367188 -216.306716918945312 -4.25751781463623047 164 1645008516.35315204 0.00469146901741623878 -0.999936461448669434 -0.00421645818278193474 -0.00934356916695833206
186.205322265625 -216.34228515625 -4.43028545379638672 165 1645008517.15492105 -0.00367054413072764874 -0.99980241060256958 -0.0155440466478466988 -0.0118352584540843964
180.761749267578125 -216.3087158203125 -4.60900068283081055 166 1645008517.95327711 -0.00808892212808132172 -0.999784409999847412 -0.0159660521894693375 -0.0105248317122459412
175.265151977539062 -216.14227294921875 -4.78054714202880859 167 1645008518.75458264 -0.00457724183797836304 -0.999859094619750977 -0.00337044126354157925 -0.0157962702214717865
169.819290161132812 -216.364456176757812 -4.95110845565795898 168 1645008519.55414915 0.0246195290237665176 -0.999592840671539307 -0.00979004986584186554 -0.010589897632598877
164.449493408203125 -216.523941040039062 -5.06708383560180664 169 1645008520.35478401 0.0112913902848958969 -0.99982374906539917 -0.0146624958142638206 -0.00316504598595201969
159.1243896484375 -216.460174560546875 -5.1381831169128418 170 1645008521.15497756 -0.00419649668037891388 -0.999975442886352539 0.00243424857035279274 -0.00506119849160313606
153.821304321289062 -216.541519165039062 -5.17593479156494141 171 1645008521.95521474 0.00956034008413553238 -0.999943792819976807 -0.000662021629977971315 -0.00454192701727151871
148.510818481445312 -216.751541137695312 -5.26461219787597656 172 1645008522.75338578 0.0220025721937417984 -0.999710619449615479 -0.00208574859425425529 -0.00949680246412754059
143.2435302734375 -217.037490844726562 -5.28764152526855469 173 1645008523.55320144 0.0128430062904953957 -0.999900937080383301 -0.00570492586120963097 0.000798282388132065535
137.978515625 -217.214691162109375 -5.30333185195922852 174 1645008524.3538754 0.0128626562654972076 -0.999889194965362549 0.000997710856609046459 -0.00742284487932920456
132.731796264648438 -217.425048828125 -5.33892297744750977 175 1645008525.15382648 0.0143510587513446808 -0.999873816967010498 -0.00558191025629639626 -0.00390936248004436493
127.491561889648438 -217.555328369140625 -5.35115289688110352 176 1645008525.95392895 0.00882621482014656067 -0.999939501285552979 -0.00648614484816789627 0.00102198414970189333
122.263198852539062 -217.663742065429688 -5.34337329864501953 177 1645008526.7543931 0.0103655289858579636 -0.999938607215881348 -0.00390957901254296303 2.1137282601557672e-05
117.046554565429688 -217.910232543945312 -5.34765243530273438 178 1645008527.55486941 0.0275449715554714203 -0.999617815017700195 -0.00233351695351302624 -0.000222823771764524281
111.879600524902344 -218.281280517578125 -5.33614015579223633 179 1645008528.35379124 0.0296150557696819305 -0.999553382396697998 -0.00345980632118880749 0.00199530157260596752
106.656585693359375 -218.562911987304688 -5.36363887786865234 180 1645008529.15636611 0.0135056423023343086 -0.999814808368682861 -0.0127288410440087318 -0.00509618362411856651
101.45068359375 -218.701736450195312 -5.34933900833129883 181 1645008529.95612478 0.00547514064237475395 -0.999838888645172119 -0.0170845650136470795 0.000555232982151210308
96.2580718994140625 -218.77154541015625 -5.33379888534545898 182 1645008530.75496101 0.000128088475321419537 -0.999779760837554932 -0.0209648031741380692 0.000963870726991444826
91.0974655151367188 -218.82208251953125 -5.29203176498413086 183 1645008531.55075884 0.0041921236552298069 -0.999811053276062012 -0.0189262982457876205 0.00142348033841699362
85.8719329833984375 -219.00164794921875 -5.27804422378540039 184 1645008532.35891676 0.0159183572977781296 -0.999695360660552979 -0.0184502284973859787 0.00391937186941504478
80.687713623046875 -219.318527221679688 -5.30930900573730469 185 1645008533.1564579 0.0293018929660320282 -0.99931865930557251 -0.0224286261945962906 -0.000788242090493440628
75.464630126953125 -219.590744018554688 -5.32245922088623047 186 1645008533.95655799 0.0190313849598169327 -0.999715626239776611 -0.0143485553562641144 0.000759845541324466467
70.2833938598632812 -219.665817260742188 -5.27976703643798828 187 1645008534.75473237 0.00127508444711565971 -0.999981284141540527 -0.00420548021793365479 0.00426268065348267555
65.11383056640625 -219.587738037109375 -5.22049617767333984 188 1645008535.55745006 -0.014058796688914299 -0.999864459037780762 0.00485159596428275108 0.00706572597846388817
59.958984375 -219.32452392578125 -5.1793208122253418 189 1645008536.35688519 -0.0300338882952928543 -0.999484777450561523 0.010142618790268898 0.00502125918865203857
54.8101234436035156 -218.861404418945312 -5.16298484802246094 190 1645008537.15295339 -0.0523693934082984924 -0.998582780361175537 0.00947463512420654297 0.000286792928818613291
49.6438102722167969 -218.155532836914062 -5.1722722053527832 191 1645008537.95518684 -0.079893939197063446 -0.996788442134857178 0.00542239286005496979 -0.000607493449933826923
44.5772857666015625 -216.99212646484375 -5.17312955856323242 192 1645008538.75518131 -0.13313235342502594 -0.991050481796264648 0.00949629023671150208 -0.00212024850770831108
39.6633529663085938 -215.2373046875 -5.19391345977783203 193 1645008539.55453968 -0.192234128713607788 -0.981308102607727051 0.00895582232624292374 -0.000497512286528944969
34.951141357421875 -212.961944580078125 -5.20164155960083008 194 1645008540.35438752 -0.238969966769218445 -0.970960795879364014 0.0106698023155331612 0.00382297346368432045
30.4441909790039062 -210.3087158203125 -5.22060012817382812 195 1645008541.15581679 -0.27322089672088623 -0.961887180805206299 0.0110218916088342667 0.00136841658968478441
26.1459369659423828 -207.356826782226562 -5.22210121154785156 196 1645008541.9510603 -0.30862775444984436 -0.951163411140441895 0.00593879632651805878 0.00134266400709748268
22.093475341796875 -204.109451293945312 -5.16240787506103516 197 1645008542.75456166 -0.348952591419219971 -0.937028110027313232 -0.00637753820046782494 0.013029150664806366
18.2607288360595703 -200.692306518554688 -5.09003877639770508 198 1645008543.5521698 -0.359672635793685913 -0.933030009269714355 0.00171486474573612213 0.00936304870992898941
14.5142059326171875 -197.199386596679688 -5.02831315994262695 199 1645008544.35235357 -0.373835563659667969 -0.927430093288421631 -0.00877180136740207672 0.00659356266260147095
10.8720111846923828 -193.70928955078125 -4.89106655120849609 200 1645008545.15229297 -0.37569129467010498 -0.926422417163848877 -0.016332259401679039 0.0181890726089477539
7.22274112701416016 -190.247055053710938 -4.82547092437744141 201 1645008545.9524982 -0.366140127182006836 -0.930506229400634766 -0.00913378223776817322 0.00401386711746454239
3.49082827568054199 -186.915237426757812 -4.71737003326416016 202 1645008546.75021815 -0.3643055260181427 -0.93077552318572998 -0.0030250276904553175 0.0304846521466970444
-0.137084051966667175 -183.468032836914062 -4.31659269332885742 203 1645008547.55714488 -0.363424390554428101 -0.931190550327301025 -0.00741877360269427299 0.0274202227592468262
-4.21542501449584961 -179.805908203125 -3.99221110343933105 204 1645008548.45663786 -0.361547410488128662 -0.931931614875793457 -0.0134630324319005013 0.0246108248829841614
-8.28295707702636719 -176.143539428710938 -3.68129849433898926 205 1645008549.3546958 -0.36482161283493042 -0.9307364821434021 -0.0138172293081879616 0.0210684295743703842
-12.2676506042480469 -172.444091796875 -3.32918262481689453 206 1645008550.25544214 -0.373025089502334595 -0.927239120006561279 -0.0200811624526977539 0.0260113589465618134
-16.1553668975830078 -168.776824951171875 -2.96488308906555176 207 1645008551.15061593 -0.376190245151519775 -0.92556464672088623 -0.0269160885363817215 0.0329621322453022003
-20.0563983917236328 -165.194671630859375 -2.55083227157592773 208 1645008552.05182743 -0.362465173006057739 -0.930952370166778564 -0.0272035561501979828 0.0347368717193603516
-23.9993934631347656 -161.709091186523438 -2.18759608268737793 209 1645008552.95348191 -0.359850317239761353 -0.931845545768737793 -0.0351110585033893585 0.0306403655558824539
-27.84515380859375 -158.143661499023438 -1.82199668884277344 210 1645008553.84943724 -0.377395689487457275 -0.924592912197113037 -0.0405617803335189819 0.0324841588735580444
-31.5381526947021484 -154.487518310546875 -1.40088510513305664 211 1645008554.75118351 -0.379294931888580322 -0.924573779106140137 -0.0191743131726980209 0.0305136442184448242
-35.1663818359375 -150.979385375976562 -1.08188319206237793 212 1645008555.64999485 -0.373096108436584473 -0.926096260547637939 -0.0208946540951728821 0.0520420745015144348
-39.0233688354492188 -147.250961303710938 -0.412401676177978516 213 1645008556.64983177 -0.372243374586105347 -0.926836609840393066 -0.0179462842643260956 0.0456802733242511749
-42.90826416015625 -143.558380126953125 0.038225516676902771 214 1645008557.65174556 -0.37289997935295105 -0.927096843719482422 -0.00538255507126450539 0.0375248976051807404
-46.634521484375 -140.000030517578125 0.46790999174118042 215 1645008558.64846849 -0.378438651561737061 -0.924334585666656494 -0.0118690039962530136 0.0474227964878082275
-50.2637901306152344 -136.306365966796875 0.875595629215240479 216 1645008559.65386891 -0.396586328744888306 -0.917132556438446045 -0.00951130222529172897 0.0386872589588165283
-53.5671348571777344 -132.2886962890625 1.24835371971130371 217 1645008560.64972377 -0.444325774908065796 -0.895095705986022949 -0.0136453602463006973 0.0345264226198196411
-56.4035873413085938 -127.85107421875 1.61881732940673828 218 1645008561.64861345 -0.494363486766815186 -0.868210077285766602 -0.00427806517109274864 0.0423992164433002472
-58.8556900024414062 -123.135299682617188 2.02979373931884766 219 1645008562.65189242 -0.525117576122283936 -0.849682211875915527 0.00224282592535018921 0.0478189177811145782
-61.1033172607421875 -118.342399597167969 2.47860002517700195 220 1645008563.64928436 -0.541558563709259033 -0.83878481388092041 -0.00581178022548556328 0.0558626353740692139
-63.0972862243652344 -113.430961608886719 2.93549799919128418 221 1645008564.65116262 -0.572795391082763672 -0.817949056625366211 -0.0122610609978437424 0.0521007589995861053
-64.425140380859375 -108.310127258300781 3.34405827522277832 222 1645008565.64864588 -0.63185274600982666 -0.773876309394836426 -0.0120581574738025665 0.0416191555559635162
-65.187042236328125 -103.00372314453125 3.7051551342010498 223 1645008566.64875579 -0.664627909660339355 -0.746257603168487549 -0.0160095300525426865 0.0333615690469741821
-65.6067886352539062 -97.98431396484375 4.08483076095581055 224 1645008567.75021124 -0.685543298721313477 -0.727154314517974854 -0.0161559265106916428 0.0318739563226699829
-65.8056488037109375 -92.9744415283203125 4.49683237075805664 225 1645008569.04902363 -0.696927011013031006 -0.716111183166503906 -0.0217687226831912994 0.0316804274916648865
-65.5634002685546875 -87.95086669921875 5.0180506706237793 226 1645008570.449049 -0.735869169235229492 -0.674439907073974609 -0.0390789099037647247 0.0458279959857463837
-65.04620361328125 -82.9667205810546875 5.29810285568237305 227 1645008571.75088477 -0.747364282608032227 -0.662802636623382568 -0.0292284488677978516 0.0358459800481796265
-64.2980880737304688 -77.8216171264648438 5.70964813232421875 228 1645008572.95071721 -0.759914994239807129 -0.648626267910003662 -0.0238100495189428329 0.0353020243346691132
-63.3323211669921875 -72.756500244140625 6.09389352798461914 229 1645008574.15035725 -0.775102078914642334 -0.630387663841247559 -0.025908319279551506 0.0340134650468826294
-62.09002685546875 -67.7041244506835938 6.49452400207519531 230 1645008575.3515501 -0.790655851364135742 -0.610666513442993164 -0.0221926141530275345 0.0381736792623996735
-60.43865966796875 -62.6051826477050781 6.90958070755004883 231 1645008576.55150032 -0.813733398914337158 -0.579340696334838867 -0.0180339496582746506 0.0433251447975635529
-58.4442825317382812 -57.9724960327148438 7.28518819808959961 232 1645008577.65077329 -0.841248631477355957 -0.538410007953643799 -0.0161351896822452545 0.0464219413697719574
-55.3460540771484375 -53.5697479248046875 7.61188840866088867 233 1645008578.85033107 -0.914155781269073486 -0.403661578893661499 -0.0144353974610567093 0.0341779030859470367
-52.6433639526367188 -52.0031280517578125 7.71167564392089844 234 1645008579.55158925 -0.972896575927734375 -0.229541122913360596 -0.00445651030167937279 0.0276269726455211639
-49.2396965026855469 -51.5622024536132812 7.62390851974487305 235 1645008580.34959602 -0.998511731624603271 -0.0417873412370681763 0.0223127417266368866 0.0270231664180755615
-44.1362380981445312 -51.8024101257324219 7.38714838027954102 236 1645008581.64879918 -0.999264061450958252 0.0245313998311758041 0.0235539600253105164 0.0177408326417207718
-38.9577293395996094 -51.276580810546875 7.17617511749267578 237 1645008582.85409355 -0.996217489242553711 -0.0828918516635894775 0.0226146019995212555 -0.0129688642919063568
-34.1245269775390625 -49.8599090576171875 7.1084904670715332 238 1645008583.95288873 -0.974523425102233887 -0.218898504972457886 0.0207430198788642883 0.0442413650453090668
-30.8511714935302734 -46.0119247436523438 7.03575420379638672 239 1645008585.15005136 -0.876829981803894043 -0.479760408401489258 0.028888750821352005 0.0128276273608207703
-29.3018646240234375 -41.0871925354003906 7.30584859848022461 240 1645008586.45240641 -0.78490746021270752 -0.617856681346893311 0.00551902549341320992 0.0462922938168048859
-28.8000278472900391 -36.0300369262695312 7.57558488845825195 241 1645008587.5502851 -0.725169062614440918 -0.68690723180770874 0.00521795405074954033 0.0475506223738193512
-28.7199859619140625 -30.6234416961669922 7.84820032119750977 242 1645008588.65077615 -0.71694648265838623 -0.696201324462890625 0.00147723034024238586 0.0359071157872676849
-28.1838569641113281 -25.4566402435302734 8.10793590545654297 243 1645008589.75014734 -0.75368344783782959 -0.656097769737243652 0.000301626132568344474 0.0386898666620254517
-27.0480060577392578 -20.2964000701904297 8.41574001312255859 244 1645008590.85278893 -0.802439033985137939 -0.596193969249725342 -0.0124809201806783676 0.0221025217324495316
-24.8487129211425781 -15.520477294921875 8.55063152313232422 245 1645008591.95184779 -0.858687102794647217 -0.512278914451599121 0.00394299393519759178 0.0145352613180875778
-22.0155239105224609 -11.0271053314208984 8.58391380310058594 246 1645008593.25146413 -0.870642244815826416 -0.491509884595870972 0.00555663462728261948 0.0192167814821004868
-20.6126613616943359 -5.94417762756347656 8.60040378570556641 247 1645008594.55227041 -0.731492221355438232 -0.681130111217498779 0.0248933900147676468 0.0190040413290262222
-21.4841670989990234 -2.9834892749786377 8.594696044921875 248 1645008595.35248971 -0.581916987895965576 -0.812606096267700195 0.0273492392152547836 0.0172047130763530731
-23.2117424011230469 -0.812607765197753906 8.63585376739501953 249 1645008596.04904318 -0.418312400579452515 -0.907532393932342529 0.0306848883628845215 0.0214037690311670303
-25.3838882446289062 0.35385623574256897 8.70252227783203125 250 1645008596.64878058 -0.244775012135505676 -0.969125568866729736 0.0238306988030672073 0.0176908336579799652
-27.8478984832763672 0.678398370742797852 8.77472114562988281 251 1645008597.25089407 -0.0652085170149803162 -0.997630476951599121 0.0202085133641958237 0.00853790994733572006
-30.3073673248291016 0.144204109907150269 8.79070472717285156 252 1645008597.85238314 0.114783152937889099 -0.993013381958007812 0.0272266771644353867 -0.00282470416277647018
-32.4236984252929688 -1.25478279590606689 8.78983211517333984 253 1645008598.44734168 0.29455450177192688 -0.955202937126159668 0.0263262037187814713 -0.0114841843023896217
-33.9792976379394531 -3.38892865180969238 8.78944587707519531 254 1645008599.05154467 0.463878333568572998 -0.885185539722442627 0.0295459963381290436 -0.0197607651352882385
-34.7049560546875 -5.98721742630004883 8.75318336486816406 255 1645008599.64792395 0.615046381950378418 -0.787433743476867676 0.0241503119468688965 -0.032906167209148407
-34.4616546630859375 -8.74540328979492188 8.69682216644287109 256 1645008600.25125241 0.743524074554443359 -0.667286574840545654 0.0144500695168972015 -0.0411302633583545685
-32.810455322265625 -12.3025712966918945 8.61680698394775391 257 1645008601.14731264 0.851638078689575195 -0.523090898990631104 0.00491957040503621101 -0.0326234214007854462
-28.262115478515625 -19.6433391571044922 8.44942951202392578 258 1645008603.14760995 0.844337344169616699 -0.535448312759399414 -0.0166586823761463165 -0.0105837024748325348
-27.4619827270507812 -27.2313289642333984 7.97605323791503906 259 1645008604.75220609 0.702037334442138672 -0.711543440818786621 -0.0282808151096105576 -0.00705579482018947601
-28.5269947052001953 -38.6709060668945312 7.40063047409057617 260 1645008606.84893656 0.664646923542022705 -0.746127068996429443 -0.0386339947581291199 -0.00680212164297699928
-28.7384490966796875 -48.7770462036132812 6.88008785247802734 261 1645008608.95013189 0.78089064359664917 -0.623537361621856689 -0.0285283848643302917 -0.0244351010769605637
-27.1435356140136719 -51.1506919860839844 6.6580653190612793 262 1645008609.65058064 0.884820520877838135 -0.463979065418243408 -0.0385863743722438812 -0.0180868916213512421
-25.1512489318847656 -52.3802452087402344 6.49257802963256836 263 1645008610.24655223 0.957837402820587158 -0.284126102924346924 -0.0397530980408191681 -0.01547975093126297
-19.9715690612792969 -53.1567649841308594 6.15347194671630859 264 1645008611.44970703 0.997972190380096436 -0.053846307098865509 -0.0312322173267602921 0.0132920686155557632
-14.8060407638549805 -53.3237876892089844 5.84648275375366211 265 1645008612.35191584 0.999260425567626953 -0.0176985356956720352 -0.0301698986440896988 0.0159738659858703613
-9.58774185180664062 -53.5200958251953125 5.49747562408447266 266 1645008613.15147185 0.99903029203414917 -0.0248130094259977341 -0.0352349281311035156 0.00901841465383768082
-4.09217214584350586 -53.7618446350097656 5.1284947395324707 267 1645008613.94885516 0.999007999897003174 -0.0289613436907529831 -0.0330784618854522705 0.0070741814561188221
1.59154975414276123 -54.126556396484375 4.76016616821289062 268 1645008614.74851871 0.998521149158477783 -0.0412226282060146332 -0.0353406742215156555 -0.0026945148129016161
6.68123722076416016 -54.5042457580566406 4.39383649826049805 269 1645008615.44792938 0.998032271862030029 -0.0441706441342830658 -0.0444533489644527435 -0.00210078642703592777
11.8153648376464844 -54.8023757934570312 4.07143259048461914 270 1645008616.15098071 0.998938202857971191 -0.0372467152774333954 -0.0220154151320457458 0.0158264581114053726
17.0667533874511719 -55.0691299438476562 3.71257376670837402 271 1645008616.8484652 0.998801589012145996 -0.0282729640603065491 -0.0360652916133403778 0.0171847157180309296
22.3722515106201172 -55.2030563354492188 3.34896707534790039 272 1645008617.54760337 0.99927210807800293 0.00258880178444087505 -0.0379596054553985596 0.00276023685000836849
27.6789627075195312 -54.6564903259277344 3.01905941963195801 273 1645008618.24810195 0.997274339199066162 0.0651503205299377441 -0.0342286564409732819 0.00526385242119431496
32.9340324401855469 -53.6246452331542969 2.76250076293945312 274 1645008618.95163417 0.994946062564849854 0.0967208370566368103 -0.0231016576290130615 0.0139198945835232735
38.0368690490722656 -52.2608222961425781 2.53870272636413574 275 1645008619.64836168 0.989545226097106934 0.142876163125038147 -0.017811555415391922 0.00833243038505315781
42.9258804321289062 -50.3603935241699219 2.35718560218811035 276 1645008620.34866071 0.979639947414398193 0.200234904885292053 -0.00945966225117444992 0.011046847328543663
47.6231231689453125 -48.1364479064941406 2.21878981590270996 277 1645008621.05025363 0.97286909818649292 0.23071250319480896 -0.0164203718304634094 0.00527014350518584251
51.9296112060546875 -45.5631294250488281 2.17007279396057129 278 1645008621.7487514 0.96118617057800293 0.27581217885017395 -0.00327083934098482132 0.00616950355470180511
56.4126358032226562 -42.2391853332519531 2.14029073715209961 279 1645008622.5497694 0.947797894477844238 0.318707436323165894 0.00181429518852382898 0.0100735155865550041
60.482940673828125 -38.84033203125 2.18034124374389648 280 1645008623.34964252 0.940710842609405518 0.338664829730987549 0.012607380747795105 0.0145006934180855751
