# .PCD v0.7 - Point Cloud Data file format
VERSION 0.7
FIELDS x y z intensity t qx qy qz qw
SIZE 4 4 4 4 8 4 4 4 4
TYPE F F F F F F F F F
COUNT 1 1 1 1 1 1 1 1 1
WIDTH 165
HEIGHT 1
VIEWPOINT 0 0 0 1 0 0 0
POINTS 165
DATA ascii
0 0 0 0 1644824096.94888735 0.999587893486022949 -0.000283893430605530739 -0.0266588758677244186 -0.0106447264552116394
-0.000568118470255285501 -0.00578115088865160942 0.00162400014232844114 1 1644824097.04874969 0.999590396881103516 -0.000273307610768824816 -0.0266621708869934082 -0.0103956637904047966
-0.00651104236021637917 -0.00869131181389093399 0.000573343131691217422 2 1644824097.14996386 0.999585866928100586 -0.000211748731089755893 -0.026745576411485672 -0.010617484338581562
-0.00325565808452665806 -0.00762207433581352234 0.00655471347272396088 3 1644824097.25093198 0.999591231346130371 -0.000394124042941257358 -0.0266127046197652817 -0.0104385325685143471
-0.00203618663363158703 -0.00601955456659197807 0.00219032191671431065 4 1644824097.34867215 0.999595522880554199 -0.000283097499050199986 -0.0264192633330821991 -0.0105237988755106926
-0.000893615942914038897 -0.0104581238701939583 0.00146744365338236094 5 1644824097.44853711 0.99959033727645874 -0.000341832026606425643 -0.0265411064028739929 -0.010707540437579155
-0.00146866519935429096 -0.0125829288735985756 0.00174540479201823473 6 1644824097.54876351 0.999589979648590088 -0.000140092393849045038 -0.0265749767422676086 -0.0106604881584644318
-0.00149025104474276304 -0.0128485066816210747 0.000986858387477695942 7 1644824097.65021873 0.999589979648590088 -0.000280113396001979709 -0.0265431497246026993 -0.0107338465750217438
-0.00178108364343643188 -0.0118146482855081558 0.00188997318036854267 8 1644824097.75088549 0.99959111213684082 -0.00021554251725319773 -0.0265314970165491104 -0.0106599628925323486
-0.00207211170345544815 -0.0109395487233996391 0.00128354958724230528 9 1644824097.84844065 0.999591827392578125 -0.000351842434611171484 -0.0265081953257322311 -0.0106487423181533813
-0.000615553639363497496 -0.0121161742135882378 0.00111240451224148273 10 1644824097.94875598 0.999592304229736328 -0.000281372282188385725 -0.0264646038413047791 -0.0107151279225945473
-0.00111118343193084002 -0.0107872402295470238 0.00188347941730171442 11 1644824098.04898286 0.999588310718536377 -0.000223195020225830376 -0.026665201410651207 -0.0105885108932852745
-0.00109090388286858797 -0.0126927271485328674 0.00155410740990191698 12 1644824098.15001082 0.999588370323181152 -0.00036353667383082211 -0.0266389977186918259 -0.0106461280956864357
-0.00139629433397203684 -0.0125878565013408661 0.00222629820927977562 13 1644824098.25153589 0.999585926532745361 -0.000309384253341704607 -0.0267364569008350372 -0.0106342332437634468
-0.000687972060404717922 -0.0112715950235724449 0.00307530909776687622 14 1644824098.3483367 0.999589264392852783 -0.000328469614032655954 -0.0265949219465255737 -0.0106733506545424461
0.000214512314414605498 -0.0118400547653436661 0.00371096888557076454 15 1644824098.44907069 0.999591708183288574 -0.000454777386039495468 -0.0264712385833263397 -0.0107468739151954651
0.000958783610258251429 -0.0102257691323757172 0.0026973881758749485 16 1644824098.54899573 0.999590873718261719 -0.000301038380712270737 -0.0265804100781679153 -0.010557626374065876
0.00118086638394743204 -0.00975195039063692093 0.00361015927046537399 17 1644824098.64961004 0.999594688415527344 -0.000307400565361604095 -0.0264502819627523422 -0.0105244209989905357
0.00109786167740821838 -0.0103349564597010612 0.00460606161504983902 18 1644824098.74882984 0.999587774276733398 -0.000449223240138962865 -0.026573479175567627 -0.0108579099178314209
0.0011701253242790699 -0.0093480180948972702 0.00443293200805783272 19 1644824098.85136533 0.999585986137390137 -0.00034230100573040545 -0.0266416594386100769 -0.0108599625527858734
0.000162381766131147742 -0.00954910274595022202 0.00449085608124732971 20 1644824098.9508965 0.999591052532196045 -0.000429356470704078674 -0.0265778359025716782 -0.0105413477867841721
-0.106203481554985046 0.00103624688927084208 0.0212652646005153656 21 1644824107.95366335 0.999973773956298828 -0.000297704682452604175 0.00313904066570103168 -0.00652182148769497871
0.12993854284286499 0.0349923223257064819 0.0260255560278892517 22 1644824111.05292606 0.999716639518737793 0.0180831868201494217 0.00825522188097238541 -0.0130945369601249695
3.59321093559265137 1.09826302528381348 0.108889497816562653 23 1644824113.05644298 0.988038480281829834 0.152731373906135559 0.00648994883522391319 -0.0202732086181640625
6.16649580001831055 2.881866455078125 0.204550251364707947 24 1644824114.35520577 0.945317924022674561 0.324996739625930786 0.00366880814544856548 -0.0271596089005470276
8.07396984100341797 5.6808171272277832 0.272556334733963013 25 1644824115.35779595 0.8731880784034729 0.486942082643508911 -0.00430124672129750252 -0.0202843118458986282
9.53846836090087891 10.8362245559692383 0.35860094428062439 26 1644824117.05558825 0.77476346492767334 0.632181048393249512 0.00243239034898579121 -0.0091016571968793869
9.23637485504150391 16.0552711486816406 0.428484708070755005 27 1644824118.5547483 0.655851960182189941 0.754765033721923828 -0.0133266178891062737 -0.00321923615410923958
7.99070119857788086 20.9846439361572266 0.430011898279190063 28 1644824120.15434432 0.632353305816650391 0.773879468441009521 0.0189681574702262878 0.0296659506857395172
7.8216705322265625 26.1693496704101562 0.565506279468536377 29 1644824122.15401983 0.706431150436401367 0.707524538040161133 0.0190396290272474289 0.00124770903494209051
7.92302465438842773 31.3249130249023438 0.559652805328369141 30 1644824123.85281038 0.713332533836364746 0.700789451599121094 0.00260037928819656372 0.00663876673206686974
7.75193548202514648 36.6733322143554688 0.598870694637298584 31 1644824125.35589743 0.689711809158325195 0.723972439765930176 0.00614164909347891808 0.0111235780641436577
7.66245269775390625 41.7813568115234375 0.652941882610321045 32 1644824126.84992838 0.712228834629058838 0.701790988445281982 0.00905686244368553162 0.0117236701771616936
7.9322047233581543 46.8427238464355469 0.694013476371765137 33 1644824128.4502635 0.726993083953857422 0.686510980129241943 0.00536715565249323845 0.0124470600858330727
8.01309108734130859 52.0637855529785156 0.72001183032989502 34 1644824130.04913139 0.710398554801940918 0.703245997428894043 0.0109237954020500183 0.0256828088313341141
7.9771265983581543 57.2231559753417969 0.742038428783416748 35 1644824131.44898915 0.710369527339935303 0.703713595867156982 0.00566986342892050743 0.0114080682396888733
8.38379192352294922 62.3932838439941406 0.87468564510345459 36 1644824132.85215092 0.739561378955841064 0.673068046569824219 0.0044566616415977478 -0.00291338027454912663
8.45751857757568359 67.6492767333984375 0.94417881965637207 37 1644824134.35362554 0.694285869598388672 0.719692885875701904 -0.00256873434409499168 0.00164816505275666714
8.22101402282714844 72.7741317749023438 0.9966239333152771 38 1644824135.94845462 0.706549227237701416 0.707532644271850586 0.00836712215095758438 0.0107612507417798042
8.47856330871582031 78.025421142578125 1.11088919639587402 39 1644824137.5470562 0.718221724033355713 0.695670247077941895 0.0124910483136773109 0.0066620917059481144
8.42870521545410156 83.2080307006835938 1.20076858997344971 40 1644824139.34787488 0.703473567962646484 0.709710657596588135 -0.0122919697314500809 0.0358420051634311676
8.43725967407226562 88.2621536254882812 1.31081998348236084 41 1644824140.94715071 0.71499335765838623 0.69891667366027832 0.0130489077419042587 0.011388818733394146
8.43585491180419922 93.3789749145507812 1.45408666133880615 42 1644824142.44715548 0.697675108909606934 0.71629709005355835 0.0121451299637556076 0.00451295729726552963
8.34357547760009766 98.5923385620117188 1.62339699268341064 43 1644824144.04746366 0.711408555507659912 0.701843917369842529 0.0359806008636951447 0.00428175181150436401
8.59679985046386719 103.803802490234375 2.3158268928527832 44 1644824145.64895105 0.721031486988067627 0.690173447132110596 0.038867652416229248 -0.0475760027766227722
9.64815616607666016 108.727455139160156 2.67108058929443359 45 1644824147.44757819 0.791257858276367188 0.610541999340057373 -0.0125716309994459152 -0.0314866006374359131
11.5811061859130859 111.953201293945312 2.68420243263244629 46 1644824148.64986277 0.885058403015136719 0.463985860347747803 -0.0272262897342443466 -0.0254447758197784424
14.3088397979736328 113.943389892578125 2.59238862991333008 47 1644824149.74808502 0.955831468105316162 0.290835469961166382 -0.0337007679045200348 -0.0257913172245025635
18.1449012756347656 115.040924072265625 2.36300969123840332 48 1644824150.94912481 0.993469297885894775 0.105037249624729156 -0.0440574996173381805 -0.00669855671003460884
23.3921337127685547 115.44158935546875 2.01516056060791016 49 1644824152.34948087 0.998930096626281738 0.0214723087847232819 -0.0409330651164054871 -0.00146174151450395584
28.6885623931884766 115.369224548339844 1.69583809375762939 50 1644824153.65148139 0.999155700206756592 -0.00540399644523859024 -0.0406739339232444763 -0.00208836514502763748
34.10107421875 115.476730346679688 1.3834385871887207 51 1644824154.95033264 0.999198794364929199 0.0080605214461684227 -0.038650859147310257 -0.00654812855646014214
39.494110107421875 115.42486572265625 1.10042905807495117 52 1644824156.15011454 0.999283492565155029 -0.014025246724486351 -0.0343503877520561218 -0.00747053790837526321
44.77789306640625 115.197257995605469 0.805956184864044189 53 1644824157.25218153 0.998973727226257324 -0.0266095176339149475 -0.0361456237733364105 -0.00607697153463959694
49.7775306701660156 115.128135681152344 0.534513950347900391 54 1644824158.24961448 0.999484539031982422 -0.0100820921361446381 -0.0304694697260856628 0.000796646170783787966
54.9894371032714844 115.02001953125 0.253517657518386841 55 1644824159.25075054 0.999289155006408691 -0.0119376266375184059 -0.0356050729751586914 0.00331728160381317139
60.0295257568359375 114.88641357421875 0.00819459464401006699 56 1644824160.248523 0.999181866645812988 -0.0183783583343029022 -0.036007169634103775 0.00114128156565129757
65.3801956176757812 114.683815002441406 -0.187076449394226074 57 1644824161.35241246 0.999404966831207275 -0.0189255494624376297 -0.0286858510226011276 -0.00294986250810325146
70.5230026245117188 114.528305053710938 -0.337230265140533447 58 1644824162.45112324 0.999591588973999023 -0.0134484488517045975 -0.0238600857555866241 -0.0081541622057557106
75.6479415893554688 114.454826354980469 -0.476206421852111816 59 1644824163.55034947 0.999668717384338379 -0.006755052600055933 -0.0224739387631416321 -0.0105734318494796753
80.8141403198242188 114.378044128417969 -0.612867057323455811 60 1644824164.64953184 0.999525904655456543 -0.00656510423868894577 -0.0226592756807804108 -0.0197834894061088562
86.1175460815429688 114.301055908203125 -0.774990618228912354 61 1644824165.75144339 0.999416947364807129 -0.00957436952739953995 -0.0268195029348134995 -0.0188364405184984207
91.5056304931640625 114.210845947265625 -0.974905312061309814 62 1644824166.848804 0.999483168125152588 -0.0135785089805722237 -0.0251330211758613586 -0.0147432964295148849
96.5043182373046875 114.10430908203125 -1.04022002220153809 63 1644824167.85083413 0.999857544898986816 -0.013161294162273407 -0.00453232415020465851 -0.00954370386898517609
101.975082397460938 113.984123229980469 -1.08107268810272217 64 1644824168.95171404 0.999800324440002441 -0.0147178182378411293 -0.0134782847017049789 -0.00100372987799346447
107.329666137695312 113.770774841308594 -1.08616042137145996 65 1644824170.05305219 0.999447286128997803 -0.028508434072136879 -0.0165823772549629211 -0.00417232979089021683
112.436203002929688 113.572776794433594 -1.05096852779388428 66 1644824171.15264177 0.999693095684051514 -0.0238328259438276291 -0.000752808235120028257 0.00672199903056025505
117.679039001464844 113.124702453613281 -0.938774764537811279 67 1644824172.35299921 0.998608648777008057 -0.0514117702841758728 0.00284908176399767399 -0.0113765541464090347
123.025520324707031 112.292877197265625 -0.742559969425201416 68 1644824173.65028691 0.996168136596679688 -0.0837264955043792725 0.0184880774468183517 -0.0172382518649101257
128.034469604492188 111.178886413574219 -0.556238353252410889 69 1644824174.65363526 0.992045223712921143 -0.123771883547306061 0.011008123867213726 -0.020138883963227272
132.8631591796875 109.474212646484375 -0.367753833532333374 70 1644824175.64770198 0.982987046241760254 -0.181744933128356934 0.0134498449042439461 -0.0228988379240036011
137.531768798828125 107.579093933105469 -0.125552088022232056 71 1644824176.64709187 0.979518353939056396 -0.198973163962364197 0.0234730858355760574 -0.0200615860521793365
142.472381591796875 105.234703063964844 0.158847063779830933 72 1644824177.7484107 0.972642421722412109 -0.230002954602241516 0.0245989933609962463 -0.0214531850069761276
147.133377075195312 102.599472045898438 0.492225170135498047 73 1644824178.85019255 0.962362170219421387 -0.269434928894042969 0.029756639152765274 -0.019452754408121109
151.427139282226562 99.6574935913085938 0.839283227920532227 74 1644824179.94691515 0.95337599515914917 -0.299005061388015747 0.0368160940706729889 -0.0177429281175136566
155.665435791015625 96.2188339233398438 1.21212315559387207 75 1644824181.04717088 0.93473893404006958 -0.352996706962585449 0.0370260253548622131 -0.0168967787176370621
159.386001586914062 92.5887222290039062 1.582008957862854 76 1644824182.04726839 0.923062980175018311 -0.382349401712417603 0.0397192798554897308 -0.0136406524106860161
162.989639282226562 88.6115951538085938 2.00304889678955078 77 1644824183.14713788 0.90781557559967041 -0.417262017726898193 0.0401557832956314087 -0.0122781321406364441
166.384368896484375 84.5321044921875 2.39889430999755859 78 1644824184.44746971 0.90603560209274292 -0.421581774950027466 0.0343991890549659729 -0.0136008895933628082
169.488754272460938 80.5088958740234375 2.7740623950958252 79 1644824186.14776921 0.893346309661865234 -0.447460144758224487 0.03836040198802948 -0.0155010521411895752
171.847488403320312 77.2463302612304688 3.08269715309143066 80 1644824188.14792538 0.889456868171691895 -0.454665005207061768 0.0450670979917049408 -0.0107321273535490036
174.877029418945312 73.2845916748046875 3.4716343879699707 81 1644824190.24688125 0.903021037578582764 -0.427297621965408325 0.0429631359875202179 -0.011132468469440937
177.143081665039062 71.16851806640625 3.7356564998626709 82 1644824192.24727702 0.935171306133270264 -0.351722091436386108 0.0415635369718074799 -0.00432270998135209084
179.675521850585938 69.1305618286132812 4.01929283142089844 83 1644824194.24872851 0.938504397869110107 -0.342404991388320923 0.0438250936567783356 -0.00690264115110039711
181.13714599609375 67.4940185546875 4.20260429382324219 84 1644824196.24957108 0.912033736705780029 -0.407430082559585571 0.0462294332683086395 -0.00761960679665207863
182.282546997070312 65.9361724853515625 4.33322477340698242 85 1644824198.25059271 0.896106421947479248 -0.441738396883010864 0.0396853610873222351 -0.0168993454426527023
182.368453979492188 65.8076858520507812 4.37250900268554688 86 1644824205.34954238 0.894813656806945801 -0.443687617778778076 0.0484328567981719971 -0.0102033661678433418
185.15118408203125 61.4515457153320312 4.70341348648071289 87 1644824207.44846821 0.869975626468658447 -0.491733133792877197 0.033125653862953186 -0.0156076215207576752
186.84765625 58.7592735290527344 4.95286798477172852 88 1644824209.45239377 0.900185644626617432 -0.431543916463851929 0.0543142035603523254 -0.0220366623252630234
189.529632568359375 56.7281875610351562 5.25199079513549805 89 1644824211.55241084 0.908841073513031006 -0.414757192134857178 0.043626200407743454 -0.00900519080460071564
189.60308837890625 54.9772758483886719 5.27024126052856445 90 1644824212.55065417 0.766992151737213135 -0.640354454517364502 0.0295573826879262924 -0.0282063428312540054
189.078689575195312 54.0611839294433594 5.21970319747924805 91 1644824213.34925485 0.635604918003082275 -0.770295977592468262 0.0264037679880857468 -0.044196300208568573
188.334930419921875 53.4659652709960938 5.15390205383300781 92 1644824214.3505168 0.489928215742111206 -0.869989335536956787 0.0247992184013128281 -0.0497382916510105133
187.45501708984375 53.19158935546875 5.095855712890625 93 1644824215.75209737 0.329350560903549194 -0.942627131938934326 0.0253600496798753738 -0.0483652949333190918
186.49468994140625 53.2415351867675781 5.02495050430297852 94 1644824217.45202565 0.155114680528640747 -0.986451983451843262 0.024211609736084938 -0.0475998297333717346
185.51580810546875 53.6230087280273438 4.92335700988769531 95 1644824218.35294747 -0.0352862291038036346 -0.997714340686798096 0.0134346401318907738 -0.0560403913259506226
184.743896484375 54.3712158203125 4.81647634506225586 96 1644824219.15450501 -0.228581517934799194 -0.971391439437866211 0.00541296554729342461 -0.0641865432262420654
184.1527099609375 55.4061088562011719 4.73389339447021484 97 1644824219.9512217 -0.394371896982192993 -0.916864335536956787 -0.00589585071429610252 -0.0616107285022735596
181.623016357421875 58.2022590637207031 4.40317440032958984 98 1644824221.95286965 -0.398456841707229614 -0.915167689323425293 -0.0206117294728755951 -0.0572311058640480042
178.234573364257812 61.923736572265625 3.99701404571533203 99 1644824223.35032797 -0.416377156972885132 -0.907277166843414307 -0.00915606506168842316 -0.0582612492144107819
175.122589111328125 65.8584442138671875 3.60980820655822754 100 1644824224.64834857 -0.434528470039367676 -0.898705959320068359 -0.0119507471099495888 -0.0580496527254581451
170.289886474609375 71.3463668823242188 3.01598572731018066 101 1644824226.44980359 -0.411049634218215942 -0.90983879566192627 -0.0121416496112942696 -0.0555351600050926208
167.160934448242188 75.2313156127929688 2.63427329063415527 102 1644824227.65007472 -0.435831069946289062 -0.898407101631164551 -0.00177946698386222124 -0.0539705753326416016
163.604949951171875 79.1233673095703125 2.17939972877502441 103 1644824229.04809356 -0.379695653915405273 -0.922785580158233643 0.000739326758775860071 -0.0655546188354492188
160.262161254882812 83.2013931274414062 1.79451727867126465 104 1644824230.45025539 -0.446827232837677002 -0.892541885375976562 -0.0211541187018156052 -0.0571570023894309998
157.152267456054688 87.262298583984375 1.41379380226135254 105 1644824231.74849319 -0.440972506999969482 -0.895149707794189453 -0.0236937757581472397 -0.060735657811164856
153.369155883789062 91.1117019653320312 0.980779349803924561 106 1644824233.05030227 -0.361377447843551636 -0.930308282375335693 -0.0199738852679729462 -0.0594463422894477844
149.473190307617188 94.3413238525390625 0.572542250156402588 107 1644824234.24960375 -0.337929576635360718 -0.938903093338012695 -0.0263854358345270157 -0.0597361139953136444
145.211471557617188 97.5473251342773438 0.227192103862762451 108 1644824235.54837322 -0.302560776472091675 -0.951526045799255371 -0.0224526505917310715 -0.0505079254508018494
140.6351318359375 100.252021789550781 -0.11448989063501358 109 1644824236.84826231 -0.256340116262435913 -0.965008437633514404 -0.0276284776628017426 -0.0478032268583774567
135.923416137695312 102.589241027832031 -0.419233083724975586 110 1644824238.15253711 -0.219488665461540222 -0.974436938762664795 -0.0239188633859157562 -0.0415369719266891479
131.18829345703125 104.471076965332031 -0.679777801036834717 111 1644824239.45037103 -0.184878751635551453 -0.981345653533935547 -0.0317406021058559418 -0.0421081483364105225
126.232345581054688 106.188674926757812 -0.844956159591674805 112 1644824240.8513546 -0.158037722110748291 -0.98682856559753418 -0.025121886283159256 -0.023713940754532814
121.147163391113281 107.216484069824219 -1.03028464317321777 113 1644824242.05152822 -0.0872030258178710938 -0.995470643043518066 -0.0282333232462406158 -0.0252327416092157364
115.978874206542969 107.750030517578125 -1.16256129741668701 114 1644824243.35363173 -0.0573465153574943542 -0.99740898609161377 -0.0398575067520141602 -0.0172637440264225006
110.798370361328125 108.187126159667969 -1.20348691940307617 115 1644824244.95073628 -0.0258527379482984543 -0.999049842357635498 -0.0344573967158794403 -0.00661644525825977325
105.648452758789062 108.112541198730469 -1.17790138721466064 116 1644824246.45148635 0.0131692290306091309 -0.999646902084350586 -0.0223389696329832077 0.00580167584121227264
100.505111694335938 108.131065368652344 -1.15666770935058594 117 1644824247.65048623 -0.01460234634578228 -0.999685764312744141 -0.0195085015147924423 -0.00587941007688641548
95.3203659057617188 108.476356506347656 -1.16255271434783936 118 1644824248.75213456 -0.0402302257716655731 -0.998919069766998291 -0.0232288986444473267 -0.00161362974904477596
90.0024795532226562 108.802253723144531 -1.04281961917877197 119 1644824249.84719753 -0.0107238758355379105 -0.999803304672241211 -0.00883010867983102798 0.0141574153676629066
84.7874603271484375 108.797981262207031 -0.922824203968048096 120 1644824250.84947252 -0.0116274021565914154 -0.999651908874511719 -0.0214109476655721664 0.0101184500381350517
79.3027572631835938 108.979774475097656 -0.775307178497314453 121 1644824251.9486649 -0.0226363558322191238 -0.999430656433105469 -0.0239566750824451447 0.0072131473571062088
73.8939437866210938 109.142005920410156 -0.606182098388671875 122 1644824253.04747748 -0.0151284635066986084 -0.999406933784484863 -0.027372824028134346 0.0144092189148068428
68.8857345581054688 109.212516784667969 -0.432234853506088257 123 1644824254.05000234 -0.00507739884778857231 -0.999518692493438721 -0.0261852499097585678 0.0158400107175111771
63.627899169921875 109.23553466796875 -0.255364745855331421 124 1644824255.04798698 -0.00313568185083568096 -0.999615788459777832 -0.0240157973021268845 0.0134780481457710266
58.1310272216796875 109.3863525390625 -0.0277086999267339706 125 1644824256.04922247 -0.0162007641047239304 -0.999448299407958984 -0.023641219362616539 0.0167834311723709106
53.1219902038574219 109.485328674316406 0.212530776858329773 126 1644824256.94834447 -0.0135598545894026756 -0.99934840202331543 -0.0233749784529209137 0.0239265523850917816
48.092681884765625 109.653633117675781 0.476242482662200928 127 1644824257.84968853 -0.0227277837693691254 -0.999127805233001709 -0.027182677760720253 0.0220938194543123245
42.5615272521972656 109.936050415039062 0.770941376686096191 128 1644824258.84892201 -0.0280589982867240906 -0.998998284339904785 -0.0269179623574018478 0.0221471134573221207
37.2058753967285156 110.098663330078125 1.0704721212387085 129 1644824259.84892082 -0.0120878973975777626 -0.99950796365737915 -0.0206120256334543228 0.0203192215412855148
31.9839897155761719 110.135406494140625 1.36485648155212402 130 1644824260.84846926 -0.00419992394745349884 -0.99959409236907959 -0.0176048707216978073 0.02200295589864254
26.9165630340576172 110.251510620117188 1.66426289081573486 131 1644824261.94854021 -0.0247376784682273865 -0.999205172061920166 -0.0217275451868772507 0.0224724803119897842
19.2690563201904297 111.306251525878906 2.1553037166595459 132 1644824263.95033383 -0.0769050866365432739 -0.996619343757629395 -0.0191197264939546585 0.0216788221150636673
14.5762548446655273 110.533447265625 2.43626761436462402 133 1644824265.35165358 0.166690006852149963 -0.985639274120330811 -0.0151202399283647537 0.0223843604326248169
13.0211763381958008 109.152519226074219 2.47780561447143555 134 1644824265.95110893 0.339724302291870117 -0.94012606143951416 -0.0240192115306854248 0.0131695438176393509
12.184199333190918 107.310203552246094 2.44911336898803711 135 1644824266.55167079 0.51530158519744873 -0.856159389019012451 -0.0375314652919769287 0.00683642551302909851
12.1512012481689453 105.428779602050781 2.40227627754211426 136 1644824267.15138578 0.670280277729034424 -0.74131619930267334 -0.0333933010697364807 0.00771489227190613747
12.9406557083129883 101.950424194335938 1.99034500122070312 137 1644824268.15226269 0.786018848419189453 -0.613407015800476074 -0.0634710565209388733 -0.0433321483433246613
13.5071678161621094 96.8123245239257812 1.56173300743103027 138 1644824270.05056477 0.696009337902069092 -0.716608762741088867 -0.0430345684289932251 -0.0138158388435840607
13.0670385360717773 91.2290420532226562 1.439064621925354 139 1644824272.0521946 0.699108362197875977 -0.714659452438354492 -0.0213257614523172379 -0.00738983368501067162
13.1744518280029297 85.9738845825195312 1.31306636333465576 140 1644824273.65049958 0.708308279514312744 -0.70563739538192749 -0.0170709732919931412 -0.00915295351296663284
12.7905635833740234 81.0693206787109375 1.29487919807434082 141 1644824275.65147662 0.671792030334472656 -0.740636885166168213 0.000334153766743838787 0.0123416697606444359
12.7678899765014648 75.2104415893554688 1.0766524076461792 142 1644824277.6532197 0.706678509712219238 -0.707291364669799805 -0.0139167662709951401 -0.0122766382992267609
12.0264215469360352 69.1679153442382812 0.958871245384216309 143 1644824279.7536056 0.61350935697555542 -0.789284467697143555 -0.0223766062408685684 -0.0116449259221553802
10.3373737335205078 66.1044921875 0.911633789539337158 144 1644824281.85357332 0.485496670007705688 -0.873991429805755615 -0.00902502331882715225 -0.0187212247401475906
9.0890960693359375 62.3133277893066406 0.870566248893737793 145 1644824283.95383 0.634987473487854004 -0.772308230400085449 0.000842501816805452108 -0.0181715991348028183
9.68154430389404297 57.7789802551269531 0.788813114166259766 146 1644824285.55320883 0.760267317295074463 -0.649242937564849854 -0.00225225742906332016 -0.0217271838337182999
11.0244045257568359 51.1675262451171875 0.77902299165725708 147 1644824287.55682659 0.761529088020324707 -0.647992193698883057 -0.00502877123653888702 -0.0124189620837569237
11.1721334457397461 43.9686012268066406 0.718166470527648926 148 1644824289.65453124 0.693038225173950195 -0.720840275287628174 -0.00782070588320493698 -0.00510725937783718109
10.9057779312133789 36.0421218872070312 0.638575077056884766 149 1644824291.65497875 0.691577434539794922 -0.72221982479095459 -0.00602828292176127434 -0.00909916404634714127
10.6670522689819336 28.3858737945556641 0.575155138969421387 150 1644824293.75562787 0.697922706604003906 -0.716045260429382324 -0.00603735540062189102 -0.012109079398214817
10.5615730285644531 22.250701904296875 0.510676264762878418 151 1644824295.85059953 0.701609790325164795 -0.712481558322906494 -0.00497433729469776154 -0.00943348091095685959
11.1889944076538086 15.2352561950683594 0.417330801486968994 152 1644824297.95218539 0.739157140254974365 -0.673329651355743408 -0.0121138617396354675 -0.0112748937681317329
11.1790351867675781 9.45239925384521484 0.299025654792785645 153 1644824299.95363832 0.685296118259429932 -0.727685093879699707 -0.0236343685537576675 -0.0168835669755935669
9.97077178955078125 5.64853525161743164 0.241650089621543884 154 1644824301.95122862 0.544022321701049805 -0.838722050189971924 -0.0229608826339244843 -0.00760786561295390129
8.82351303100585938 4.8429570198059082 0.247353598475456238 155 1644824302.9479208 0.379379630088806152 -0.925154030323028564 -0.0115974703803658485 -0.00516201881691813469
7.70806598663330078 4.62437248229980469 0.225171640515327454 156 1644824304.34711671 0.20715765655040741 -0.977879703044891357 -0.0214929375797510147 -0.0193651821464300156
7.31839466094970703 4.67059898376464844 0.225510567426681519 157 1644824306.44678783 0.142342790961265564 -0.989416241645812988 -0.0215732976794242859 -0.0181278213858604431
7.18005943298339844 4.62841510772705078 0.237315163016319275 158 1644824309.24685121 0.148644775152206421 -0.9887276291847229 -0.0137491896748542786 -0.0115507319569587708
5.74893331527709961 2.89176583290100098 0.182369619607925415 159 1644824311.34572697 0.429676562547683716 -0.902729332447052002 -0.00678465282544493675 -0.0202923286706209183
3.41786313056945801 0.54547804594039917 0.0555464848875999451 160 1644824313.34843779 0.308580636978149414 -0.950735151767730713 -0.0212998390197753906 -0.0206642709672451019
1.6144254207611084 0.20719572901725769 0.0169070083647966385 161 1644824314.44679379 0.133104875683784485 -0.990777075290679932 -0.0182064846158027649 -0.0176746230572462082
0.694014251232147217 0.290485858917236328 0.0143534811213612556 162 1644824315.04852867 0.0443938262760639191 -0.998778283596038818 -0.0162914711982011795 -0.0143419420346617699
0.123380474746227264 0.424300402402877808 0.00497411889955401421 163 1644824315.44687295 -0.0146614089608192444 -0.999613285064697266 -0.0154112959280610085 -0.0179122686386108398
-0.558565199375152588 0.646840274333953857 0.00224554026499390602 164 1644824317.44890547 -0.0682098716497421265 -0.99748152494430542 -0.0117549123242497444 -0.0154884904623031616
