# .PCD v0.7 - Point Cloud Data file format
VERSION 0.7
FIELDS x y z intensity roll pitch yaw time
SIZE 4 4 4 4 4 4 4 8
TYPE F F F F F F F F
COUNT 1 1 1 1 1 1 1 1
WIDTH 314
HEIGHT 1
VIEWPOINT 0 0 0 1 0 0 0
POINTS 314
DATA ascii
-193.66778564453125 -68.6061859130859375 -9.25211238861083984 229 -0.00971106160432100296 0.0349507220089435577 -1.81497073173522949 1645008825.3490293
-194.132034301757812 -70.33526611328125 -9.38058567047119141 230 0.00199198559857904911 0.0380751229822635651 -1.81652653217315674 1645008825.55475354
-194.482986450195312 -72.14080810546875 -9.48236274719238281 231 -0.00899179186671972275 0.0380370020866394043 -1.80344736576080322 1645008825.75229216
-194.843856811523438 -73.8043212890625 -9.58973407745361328 232 0.00128958479035645723 0.0388315171003341675 -1.80444228649139404 1645008825.95260859
-195.235336303710938 -75.4417495727539062 -9.59949874877929688 233 -0.00307328277267515659 0.0280277151614427567 -1.81448698043823242 1645008826.15224457
-195.706253051757812 -77.1012954711914062 -9.56816196441650391 234 0.000432443164754658937 0.0243459753692150116 -1.81205189228057861 1645008826.35018253
-196.046722412109375 -78.7197418212890625 -9.61244106292724609 235 0.00557153951376676559 0.0135275190696120262 -1.81230509281158447 1645008826.54936099
-196.454299926757812 -80.31573486328125 -9.68622875213623047 236 -0.00103662977926433086 0.0333860218524932861 -1.80825269222259521 1645008826.75288081
-196.73321533203125 -81.8259201049804688 -9.33934307098388672 237 0.000801409478299319744 -0.0534570030868053436 -1.80658209323883057 1645008826.94800043
-197.199478149414062 -83.3192596435546875 -9.61987590789794922 238 0.0160425491631031036 -0.056415218859910965 -1.81668806076049805 1645008827.15438986
-197.645431518554688 -84.95074462890625 -9.74610996246337891 239 -0.0140744512900710106 0.0575397759675979614 -1.80345404148101807 1645008827.35275388
-197.891159057617188 -86.5595855712890625 -9.80473804473876953 240 0.0310877896845340729 0.0614703409373760223 -1.79844892024993896 1645008827.55037737
-198.177719116210938 -87.9467239379882812 -9.68904304504394531 241 0.00311052985489368439 -0.0317183360457420349 -1.79558074474334717 1645008827.75384998
-198.510467529296875 -89.4838485717773438 -9.73832225799560547 242 0.0121744852513074875 -0.0136687085032463074 -1.80077505111694336 1645008827.95298314
-198.858322143554688 -90.9818954467773438 -9.72998237609863281 243 0.0123404478654265404 -0.00316181965172290802 -1.80558919906616211 1645008828.14788008
-199.23480224609375 -92.4370040893554688 -9.77314949035644531 244 2.43681188294431195e-05 0.00355974538251757622 -1.8136826753616333 1645008828.34914708
-199.606491088867188 -93.9514541625976562 -9.72645473480224609 245 0.00270224711857736111 -0.00848655402660369873 -1.80776751041412354 1645008828.54681349
-199.872406005859375 -95.4104232788085938 -9.70711326599121094 246 -0.00111343851312994957 -0.0111159300431609154 -1.80471146106719971 1645008828.74676275
-200.214141845703125 -96.86846923828125 -9.77015590667724609 247 0.000513320439495146275 -0.0113499099388718605 -1.80891513824462891 1645008828.94780064
-200.542953491210938 -98.3268203735351562 -9.77696514129638672 248 -0.00946983229368925095 0.0223387274891138077 -1.80641520023345947 1645008829.15150237
-200.660568237304688 -99.7258148193359375 -9.59987831115722656 249 -0.00916203204542398453 -0.047878265380859375 -1.76307594776153564 1645008829.34848762
-201.049087524414062 -101.22216796875 -9.54559421539306641 250 -0.00630738958716392517 -0.030762791633605957 -1.73818814754486084 1645008829.54972744
-201.217376708984375 -102.706947326660156 -9.615325927734375 251 0.0194735080003738403 -0.0388877801597118378 -1.69546067714691162 1645008829.74885774
-201.219833374023438 -104.080848693847656 -9.73133373260498047 252 -0.00929617974907159805 -0.0322198309004306793 -1.67265975475311279 1645008829.95259786
-201.329666137695312 -105.509941101074219 -9.73265266418457031 253 -0.0160727016627788544 -0.0197681672871112823 -1.67425096035003662 1645008830.14964533
-201.508331298828125 -106.940315246582031 -9.81685161590576172 254 -0.0249235294759273529 -0.00876791588962078094 -1.6709744930267334 1645008830.35000515
-201.578445434570312 -108.317558288574219 -9.76490020751953125 255 -0.0271098576486110687 -0.0182507634162902832 -1.6615523099899292 1645008830.55114651
-201.698074340820312 -109.719032287597656 -9.70782184600830078 256 -0.0285708475857973099 -0.0287989340722560883 -1.65662634372711182 1645008830.74711061
-201.8153076171875 -111.122611999511719 -9.68998527526855469 257 -0.0153212295845150948 -0.0250549726188182831 -1.6436314582824707 1645008830.94661903
-201.829086303710938 -112.484527587890625 -9.635894775390625 258 -0.0274727474898099899 -0.0299100037664175034 -1.62070703506469727 1645008831.15105653
-201.7977294921875 -113.799568176269531 -9.52545452117919922 259 -0.0225459542125463486 -0.0414767339825630188 -1.60666930675506592 1645008831.34725165
-201.84686279296875 -115.141143798828125 -9.491607666015625 260 -0.0261304937303066254 -0.0346596762537956238 -1.6009901762008667 1645008831.54764938
-201.877822875976562 -116.488197326660156 -9.52313518524169922 261 -0.0194384027272462845 -0.0325032956898212433 -1.58658409118652344 1645008831.74921989
-201.840805053710938 -117.824752807617188 -9.50126552581787109 262 -0.0209835674613714218 -0.0345907323062419891 -1.56395244598388672 1645008831.94777822
-201.75732421875 -119.1607666015625 -9.45549964904785156 263 -0.00496248248964548111 -0.037200435996055603 -1.53361415863037109 1645008832.1460824
-201.607376098632812 -120.51934814453125 -9.45379066467285156 264 -0.00178133859299123287 -0.0321624539792537689 -1.4860152006149292 1645008832.34628916
-201.362747192382812 -121.894744873046875 -9.46447086334228516 265 -0.00922847725450992584 -0.0256892312318086624 -1.44153046607971191 1645008832.54664683
-201.094573974609375 -123.279304504394531 -9.43395042419433594 266 -0.00630156463012099266 -0.0270551480352878571 -1.39211666584014893 1645008832.74654889
-200.748825073242188 -124.645095825195312 -9.33530902862548828 267 -0.00928991567343473434 -0.0296200644224882126 -1.34274816513061523 1645008832.94610119
-200.289199829101562 -126.0050048828125 -9.38862228393554688 268 -0.00935823842883110046 -0.0218586642295122147 -1.28916776180267334 1645008833.14563656
-199.7509765625 -127.337799072265625 -9.4491424560546875 269 -0.00879304297268390656 -0.0156040899455547333 -1.23747003078460693 1645008833.34601068
-199.224716186523438 -128.709503173828125 -9.32124042510986328 270 -0.0396886803209781647 -0.0243150535970926285 -1.21297955513000488 1645008833.54626322
-198.720199584960938 -130.086532592773438 -9.31816482543945312 271 -0.0339498929679393768 -0.0242653544992208481 -1.20857477188110352 1645008833.74848223
-198.082077026367188 -131.428955078125 -9.32198333740234375 272 -0.0438962876796722412 -0.017281409353017807 -1.19151544570922852 1645008833.94699049
-197.505523681640625 -132.777633666992188 -9.21438026428222656 273 -0.0450558774173259735 -0.0414668098092079163 -1.17172300815582275 1645008834.14621735
-196.869400024414062 -134.176925659179688 -9.30738735198974609 274 -0.025406714528799057 -0.0109797194600105286 -1.15748977661132812 1645008834.34760666
-196.254653930664062 -135.552398681640625 -9.38069438934326172 275 -0.0360644608736038208 -0.0131438616663217545 -1.13275909423828125 1645008834.5463407
-195.547103881835938 -136.876815795898438 -9.26482868194580078 276 -0.030549151822924614 -0.0235375650227069855 -1.11296999454498291 1645008834.74580026
-194.823745727539062 -138.217361450195312 -9.31485080718994141 277 -0.0252207797020673752 -0.0191379338502883911 -1.09236598014831543 1645008834.9460268
-194.046096801757812 -139.532485961914062 -9.26884365081787109 278 -0.0292426664382219315 -0.0163102932274341583 -1.07353091239929199 1645008835.14535427
-193.312545776367188 -140.848617553710938 -9.22817516326904297 279 -0.0226284191012382507 -0.0228436905890703201 -1.0609816312789917 1645008835.34537411
-192.574264526367188 -142.211685180664062 -9.22466278076171875 280 -0.0224698036909103394 -0.0287838596850633621 -1.04553139209747314 1645008835.5460453
-191.685943603515625 -143.482192993164062 -9.2266387939453125 281 -0.0252305399626493454 -0.0143388817086815834 -1.02760767936706543 1645008835.74581242
-190.858108520507812 -144.749374389648438 -9.22900009155273438 282 -0.0247528422623872757 -0.0120987603440880775 -1.02491152286529541 1645008835.94698787
-190.124267578125 -146.088409423828125 -9.20331668853759766 283 -0.0257048066705465317 -0.018306925892829895 -1.02213239669799805 1645008836.14539647
-189.271316528320312 -147.373580932617188 -9.19206905364990234 284 -0.025280490517616272 -0.0241905264556407928 -1.01863324642181396 1645008836.34599948
-188.457809448242188 -148.668319702148438 -9.11883449554443359 285 -0.0197654720395803452 -0.0384101718664169312 -1.01532983779907227 1645008836.54580712
-187.613021850585938 -149.955520629882812 -9.08384799957275391 286 -0.0301239211112260818 -0.0232510063797235489 -1.01511645317077637 1645008836.74565387
-186.763015747070312 -151.226043701171875 -9.11109352111816406 287 -0.0224649384617805481 -0.0302767474204301834 -1.01292014122009277 1645008836.94612885
-186.024810791015625 -152.537918090820312 -9.11728191375732422 288 -0.0232284422963857651 -0.0283301062881946564 -1.0079810619354248 1645008837.14637542
-185.132568359375 -153.759552001953125 -9.08565425872802734 289 -0.026971232146024704 -0.0216815657913684845 -1.00314235687255859 1645008837.34599996
-184.297286987304688 -154.947235107421875 -9.07102298736572266 290 -0.027433125302195549 -0.0169872213155031204 -1.0073850154876709 1645008837.54608798
-183.597335815429688 -156.237045288085938 -9.01565170288085938 291 -0.035320281982421875 -0.0236436668783426285 -1.00223159790039062 1645008837.74566722
-182.738815307617188 -157.46636962890625 -9.00467967987060547 292 -0.0347477756440639496 -0.0209402628242969513 -0.990652799606323242 1645008837.94638586
-181.90509033203125 -158.543991088867188 -8.97933197021484375 293 -0.0347505360841751099 -0.0303471609950065613 -0.992508471012115479 1645008838.14554286
-181.205001831054688 -159.76544189453125 -8.955047607421875 294 -0.0380001552402973175 -0.0150980595499277115 -1.0027238130569458 1645008838.34587479
-180.424789428710938 -160.953201293945312 -8.96021366119384766 295 -0.0465999618172645569 -0.0183571428060531616 -1.00187885761260986 1645008838.54612088
-179.683013916015625 -162.05572509765625 -8.94649505615234375 296 -0.0446401797235012054 -0.025664960965514183 -1.00561070442199707 1645008838.74622297
-179.003555297851562 -163.171005249023438 -8.92427730560302734 297 -0.0435962937772274017 -0.018256455659866333 -1.01879346370697021 1645008838.94623017
-178.287384033203125 -164.326446533203125 -8.90534400939941406 298 -0.0408191271126270294 -0.0261994767934083939 -1.02905094623565674 1645008839.14579988
-177.611740112304688 -165.493789672851562 -8.91234493255615234 299 -0.034376680850982666 -0.0185285862535238266 -1.03599739074707031 1645008839.34655881
-176.942916870117188 -166.585617065429688 -8.90887737274169922 300 -0.0401480160653591156 -0.0121939107775688171 -1.04331982135772705 1645008839.54755783
-176.295089721679688 -167.694381713867188 -8.89729690551757812 301 -0.0400683954358100891 -0.0200026128441095352 -1.04946267604827881 1645008839.74614835
-175.63006591796875 -168.821090698242188 -8.79996681213378906 302 -0.0322097651660442352 -0.0302020013332366943 -1.05914545059204102 1645008839.94527555
-175.025177001953125 -170.003890991210938 -8.83248138427734375 303 -0.0273947212845087051 -0.0248406361788511276 -1.07044601440429688 1645008840.1448884
-174.323028564453125 -171.226913452148438 -8.83096218109130859 304 -0.0212533548474311829 -0.0306968260556459427 -1.06059098243713379 1645008840.34542704
-173.56707763671875 -172.333404541015625 -8.77410984039306641 305 -0.0202044341713190079 -0.0228991527110338211 -1.05197596549987793 1645008840.54674888
-172.93670654296875 -173.562179565429688 -8.82151985168457031 306 -0.0157208163291215897 -0.0148971173912286758 -1.04935741424560547 1645008840.74682474
-172.16387939453125 -174.863525390625 -8.85200691223144531 307 -0.0245136357843875885 -0.0161708518862724304 -1.02998208999633789 1645008840.94492388
-171.340408325195312 -175.977737426757812 -8.78065109252929688 308 -0.0179909057915210724 -0.0244601145386695862 -1.01392483711242676 1645008841.14508033
-170.597442626953125 -177.162841796875 -8.76101207733154297 309 -0.0173340849578380585 -0.0222541298717260361 -1.01398861408233643 1645008841.34491181
-169.824508666992188 -178.487747192382812 -8.80112361907958984 310 -0.0216489918529987335 -0.0260930750519037247 -1.00741016864776611 1645008841.54656029
-168.960235595703125 -179.66802978515625 -8.73966312408447266 311 -0.0152703979983925819 -0.0154943652451038361 -1.0039210319519043 1645008841.74690485
-168.2115478515625 -180.834609985351562 -8.67037868499755859 312 -0.0289858952164649963 -0.0136470552533864975 -1.01433324813842773 1645008841.94576454
-167.389999389648438 -182.261367797851562 -8.75960540771484375 313 -0.0266791582107543945 -0.0157014504075050354 -1.00761091709136963 1645008842.14566445
-166.531341552734375 -183.457534790039062 -8.67026901245117188 314 -0.030568096786737442 -0.0280245598405599594 -1.00719451904296875 1645008842.34645581
-165.746170043945312 -184.704437255859375 -8.64034748077392578 315 -0.0245416723191738129 -0.0257387962192296982 -1.01259422302246094 1645008842.54512286
-164.918716430664062 -186.0479736328125 -8.69229888916015625 316 -0.0213175248354673386 -0.0247563645243644714 -1.01500809192657471 1645008842.74562812
-164.106277465820312 -187.296096801757812 -8.59914779663085938 317 -0.0230999868363142014 -0.0167543925344944 -1.01991808414459229 1645008842.94520068
-163.315353393554688 -188.656463623046875 -8.64868259429931641 318 -0.0273163337260484695 -0.0213668029755353928 -1.02078020572662354 1645008843.14572954
-162.435379028320312 -189.903335571289062 -8.57949066162109375 319 -0.0271930675953626633 -0.0220132842659950256 -1.02275478839874268 1645008843.34598756
-161.71881103515625 -191.164703369140625 -8.56108856201171875 320 -0.0250575859099626541 -0.0207917876541614532 -1.03296840190887451 1645008843.54506588
-160.88470458984375 -192.563079833984375 -8.56315708160400391 321 -0.0313553847372531891 -0.0248746592551469803 -1.03066420555114746 1645008843.74808073
-160.03973388671875 -193.792037963867188 -8.45960426330566406 322 -0.0381666012108325958 -0.0255785062909126282 -1.03323817253112793 1645008843.94651818
-159.331314086914062 -195.114639282226562 -8.43598461151123047 323 -0.021841391921043396 -0.0477052889764308929 -1.0383528470993042 1645008844.14546847
-158.48193359375 -196.51019287109375 -8.4107818603515625 324 -0.0328941904008388519 -0.0266409534960985184 -1.03300058841705322 1645008844.34583163
-157.644607543945312 -197.701431274414062 -8.39602184295654297 325 -0.0508442632853984833 -0.0334673821926116943 -1.03456926345825195 1645008844.54619503
-156.952255249023438 -199.052459716796875 -8.44738101959228516 326 -0.0361371524631977081 -0.0189670771360397339 -1.03976655006408691 1645008844.74625111
-156.083816528320312 -200.392044067382812 -8.27474689483642578 327 -0.0426979027688503265 -0.0404390878975391388 -1.03278708457946777 1645008844.94744134
-155.27044677734375 -201.686370849609375 -8.17108154296875 328 -0.036667797714471817 -0.0565873943269252777 -1.03271520137786865 1645008845.14603019
-154.43194580078125 -203.033279418945312 -8.19241714477539062 329 -0.0399434007704257965 -0.0502836704254150391 -1.02525317668914795 1645008845.34625506
-153.62530517578125 -204.234405517578125 -8.23970508575439453 330 -0.0346258059144020081 -0.04560103639960289 -1.02218532562255859 1645008845.54600596
-152.8797607421875 -205.502044677734375 -8.16301918029785156 331 -0.0246228165924549103 -0.0263449661433696747 -1.03489542007446289 1645008845.74685001
-152.099609375 -206.858245849609375 -8.07697582244873047 332 -0.0388716533780097961 -0.0230404231697320938 -1.03471851348876953 1645008845.94724011
-151.284957885742188 -208.193206787109375 -8.11955165863037109 333 -0.0430610738694667816 -0.0373049341142177582 -1.03096687793731689 1645008846.14675522
-150.436431884765625 -209.489089965820312 -8.0215301513671875 334 -0.0391290262341499329 -0.035493943840265274 -1.02433109283447266 1645008846.34639359
-149.626907348632812 -210.727783203125 -7.96017026901245117 335 -0.0455803349614143372 -0.0401499979197978973 -1.02784669399261475 1645008846.54626298
-148.881240844726562 -212.015213012695312 -7.89125347137451172 336 -0.0406527258455753326 -0.0455519221723079681 -1.03199589252471924 1645008846.74648857
-148.060333251953125 -213.38507080078125 -7.85570669174194336 337 -0.0523838698863983154 -0.0486887618899345398 -1.02263212203979492 1645008846.94780421
-147.13653564453125 -214.669586181640625 -7.82577705383300781 338 -0.0443130694329738617 -0.0525641292333602905 -1.01555788516998291 1645008847.14787483
-146.395523071289062 -215.889617919921875 -7.70110893249511719 339 -0.0475178100168704987 -0.0484956055879592896 -1.01971995830535889 1645008847.34744859
-145.619888305664062 -217.213409423828125 -7.69205522537231445 340 -0.0462448261678218842 -0.0447438247501850128 -1.01837754249572754 1645008847.54766273
-144.747222900390625 -218.505630493164062 -7.6128387451171875 341 -0.0396970771253108978 -0.0550331026315689087 -1.01515698432922363 1645008847.74761033
-143.985122680664062 -219.803970336914062 -7.53949165344238281 342 -0.041181076318025589 -0.0504550598561763763 -1.015189528465271 1645008847.94748878
-143.083419799804688 -221.1280517578125 -7.57258796691894531 343 -0.0386671945452690125 -0.0456221364438533783 -1.00655674934387207 1645008848.14843249
-142.253555297851562 -222.294631958007812 -7.42919731140136719 344 -0.0400943197309970856 -0.0493635684251785278 -1.01345908641815186 1645008848.34896445
-141.561172485351562 -223.557708740234375 -7.43503570556640625 345 -0.0456148684024810791 -0.051047883927822113 -1.01922571659088135 1645008848.54880595
-140.71002197265625 -224.947372436523438 -7.34899187088012695 346 -0.0388580039143562317 -0.0567951537668704987 -1.00969541072845459 1645008848.74940681
-139.851455688476562 -226.14508056640625 -7.21717405319213867 347 -0.0388021692633628845 -0.0562621802091598511 -1.01097571849822998 1645008848.94915581
-139.074813842773438 -227.412216186523438 -7.19975996017456055 348 -0.0374204926192760468 -0.0632909685373306274 -1.01703906059265137 1645008849.14897776
-138.274093627929688 -228.706253051757812 -7.06876277923583984 349 -0.0312431510537862778 -0.0663273483514785767 -1.01676464080810547 1645008849.34946156
-137.467193603515625 -229.984756469726562 -7.03730106353759766 350 -0.0279279407113790512 -0.0655660331249237061 -1.0168997049331665 1645008849.54773331
-136.636688232421875 -231.293167114257812 -6.91940689086914062 351 -0.0363607704639434814 -0.0656595677137374878 -1.01132011413574219 1645008849.74926805
-135.830123901367188 -232.455657958984375 -6.81433486938476562 352 -0.0310945101082324982 -0.0691575184464454651 -1.01609289646148682 1645008849.95022559
-135.072845458984375 -233.763671875 -6.81626129150390625 353 -0.0365935266017913818 -0.0641156360507011414 -1.02231359481811523 1645008850.14876056
-134.260162353515625 -235.121627807617188 -6.73513507843017578 354 -0.0309449899941682816 -0.0730003267526626587 -1.00698840618133545 1645008850.35088611
-133.371124267578125 -236.256591796875 -6.63679647445678711 355 -0.0345227308571338654 -0.0670111626386642456 -1.00662374496459961 1645008850.55031776
-132.64300537109375 -237.475509643554688 -6.57804059982299805 356 -0.0343079417943954468 -0.0658513233065605164 -1.02209329605102539 1645008850.7513845
-131.849533081054688 -238.8248291015625 -6.44709396362304688 357 -0.0408314168453216553 -0.067924201488494873 -1.00787258148193359 1645008850.95101118
-131.0128173828125 -240.005523681640625 -6.37218761444091797 358 -0.0391704738140106201 -0.0690914466977119446 -1.00916707515716553 1645008851.14931583
-130.232040405273438 -241.274642944335938 -6.29267024993896484 359 -0.0384662933647632599 -0.0714649781584739685 -1.00955402851104736 1645008851.35187387
-129.413955688476562 -242.547775268554688 -6.18007564544677734 360 -0.040525875985622406 -0.0725714489817619324 -0.999561727046966553 1645008851.55025363
-128.570022583007812 -243.71661376953125 -6.1345977783203125 361 -0.0304542258381843567 -0.0664619803428649902 -1.00468742847442627 1645008851.74739265
-127.820060729980469 -244.975296020507812 -6.0144190788269043 362 -0.0306677278131246567 -0.0729554742574691772 -1.00620853900909424 1645008851.95225668
-126.990379333496094 -246.255691528320312 -5.92761039733886719 363 -0.0281494688242673874 -0.0672543644905090332 -0.992497503757476807 1645008852.14886379
-126.125846862792969 -247.399658203125 -5.8275456428527832 364 -0.0245658643543720245 -0.0780654549598693848 -0.98225635290145874 1645008852.34746623
-125.334991455078125 -248.632583618164062 -5.68064785003662109 365 -0.0222882218658924103 -0.0801687911152839661 -0.97167515754699707 1645008852.54666829
-124.431266784667969 -249.922760009765625 -5.69406652450561523 366 -0.0187468472868204117 -0.0715490430593490601 -0.944139361381530762 1645008852.75086093
-123.498207092285156 -251.068374633789062 -5.55585193634033203 367 -0.0436690784990787506 -0.0777357816696166992 -0.938470065593719482 1645008852.95024323
-122.664199829101562 -252.191848754882812 -5.46587944030761719 368 -0.02720683254301548 -0.0836502090096473694 -0.964663863182067871 1645008853.14878607
-121.85968017578125 -253.423583984375 -5.42409133911132812 369 -0.0279645565897226334 -0.0712899118661880493 -0.974985718727111816 1645008853.34718561
-120.961227416992188 -254.637496948242188 -5.35770988464355469 370 -0.00496186316013336182 -0.0674052685499191284 -0.955319821834564209 1645008853.54509234
-120.065582275390625 -255.73150634765625 -5.24234151840209961 371 -0.0209796857088804245 -0.0726253017783164978 -0.927740395069122314 1645008853.74626493
-119.163467407226562 -256.90704345703125 -5.08713865280151367 372 -0.0205605160444974899 -0.0710312947630882263 -0.907948434352874756 1645008853.9471221
-118.166740417480469 -258.072509765625 -5.09849262237548828 373 -0.018950730562210083 -0.0654605254530906677 -0.871438741683959961 1645008854.14912081
-117.12713623046875 -259.1541748046875 -4.96651458740234375 374 -0.0348875522613525391 -0.0649761185050010681 -0.836149096488952637 1645008854.34653568
-116.070098876953125 -260.13916015625 -4.92995882034301758 375 -0.0209774486720561981 -0.0695048198103904724 -0.81453782320022583 1645008854.54652405
-115.070579528808594 -261.18585205078125 -4.80446290969848633 376 -0.0349208973348140717 -0.0596831329166889191 -0.79587322473526001 1645008854.7483232
-113.996543884277344 -262.21844482421875 -4.69160985946655273 377 -0.0242136362940073013 -0.0774778500199317932 -0.763766825199127197 1645008854.94598269
-112.869316101074219 -263.156219482421875 -4.63295412063598633 378 -0.02695445716381073 -0.073913872241973877 -0.74501645565032959 1645008855.14688754
-111.760368347167969 -264.138336181640625 -4.68339967727661133 379 -0.0172195024788379669 -0.0456155873835086823 -0.733279109001159668 1645008855.34846616
-110.605979919433594 -265.03765869140625 -4.51420927047729492 380 -0.0398678891360759735 -0.0910760685801506042 -0.714338958263397217 1645008855.54720855
-109.474174499511719 -265.961151123046875 -4.40446233749389648 381 -0.00800934713333845139 -0.0748154446482658386 -0.734760761260986328 1645008855.74742389
-108.4368896484375 -266.906005859375 -4.34943675994873047 382 -0.0180482044816017151 -0.0709024965763092041 -0.758411824703216553 1645008855.94881082
-107.403114318847656 -268.007659912109375 -4.28484487533569336 383 -0.0457011014223098755 -0.0678312256932258606 -0.740608930587768555 1645008856.1473062
-106.216667175292969 -269.0162353515625 -4.18250799179077148 384 -0.0425207577645778656 -0.0281623676419258118 -0.717262506484985352 1645008856.34644055
-105.040351867675781 -269.83917236328125 -4.15296173095703125 385 -0.0658318698406219482 -0.0999791771173477173 -0.707435965538024902 1645008856.54667473
-103.9134521484375 -270.807952880859375 -4.08620500564575195 386 -0.0287248454988002777 -0.0537957660853862762 -0.731321156024932861 1645008856.74795389
-102.864845275878906 -271.814117431640625 -3.95709347724914551 387 -0.0638326928019523621 -0.0821520239114761353 -0.745082199573516846 1645008856.94864988
-101.752693176269531 -272.84771728515625 -3.90599274635314941 388 -0.0571906082332134247 -0.039762299507856369 -0.77212071418762207 1645008857.1481328
-100.729415893554688 -273.86773681640625 -3.84257078170776367 389 -0.0660388097167015076 -0.0714967772364616394 -0.774857163429260254 1645008857.34868145
-99.7657318115234375 -274.9039306640625 -3.63939428329467773 390 -0.0709307119250297546 -0.058288920670747757 -0.822593033313751221 1645008857.54888368
-98.8404312133789062 -276.072662353515625 -3.65960431098937988 391 -0.0318503081798553467 -0.0649667903780937195 -0.822797179222106934 1645008857.7449584
-97.7523117065429688 -277.07330322265625 -3.38987827301025391 392 -0.0637283623218536377 -0.0935796648263931274 -0.80617821216583252 1645008857.94491148
-96.7503280639648438 -278.133758544921875 -3.42072081565856934 393 -0.0340779311954975128 -0.0777352601289749146 -0.837277054786682129 1645008858.14655089
-95.815582275390625 -279.220428466796875 -3.28781676292419434 394 -0.0496788397431373596 -0.0834516510367393494 -0.852819919586181641 1645008858.34671688
-94.881866455078125 -280.3582763671875 -3.24594712257385254 395 -0.0395173840224742889 -0.0760226696729660034 -0.872114062309265137 1645008858.54936647
-93.9744110107421875 -281.5203857421875 -3.12085700035095215 396 -0.0514628775417804718 -0.0745215862989425659 -0.878036141395568848 1645008858.74531293
-92.985107421875 -282.653076171875 -3.04858183860778809 397 -0.0391118824481964111 -0.0696952268481254578 -0.870689749717712402 1645008858.94663334
-92.0411911010742188 -283.699798583984375 -2.91798973083496094 398 -0.0258786510676145554 -0.0924866273999214172 -0.879147469997406006 1645008859.14868498
-91.1138076782226562 -284.858367919921875 -2.88759756088256836 399 -0.039175376296043396 -0.0672725513577461243 -0.883761465549468994 1645008859.34472108
-90.1743392944335938 -286.05303955078125 -2.92121481895446777 400 -0.0221372246742248535 -0.0538632757961750031 -0.875346362590789795 1645008859.54454398
-89.249359130859375 -287.098876953125 -2.66213726997375488 401 -0.0429024882614612579 -0.0935055240988731384 -0.865254819393157959 1645008859.74516487
-88.229522705078125 -288.32989501953125 -2.87634062767028809 402 -0.0152783608064055443 -0.0620823800563812256 -0.875957012176513672 1645008859.94559026
-87.2490997314453125 -289.335662841796875 -2.48696446418762207 403 -0.0589587651193141937 -0.121216930449008942 -0.845006704330444336 1645008860.14663887
-86.2155609130859375 -290.323883056640625 -2.35901379585266113 404 -0.0340540334582328796 -0.116578616201877594 -0.826477169990539551 1645008860.34905052
-85.2963485717773438 -291.342864990234375 -2.13187289237976074 405 -0.0594332180917263031 -0.0919255912303924561 -0.834423840045928955 1645008860.55233479
-84.3762893676757812 -292.582763671875 -2.33682703971862793 406 -0.0252249836921691895 -0.0798047780990600586 -0.865481317043304443 1645008860.75105977
-83.32977294921875 -293.70440673828125 -2.1733701229095459 407 -0.0404100231826305389 -0.0759112462401390076 -0.864500463008880615 1645008860.95022106
-82.4185714721679688 -294.74322509765625 -1.99576234817504883 408 -0.0413551926612854004 -0.0937258303165435791 -0.875257909297943115 1645008861.1495626
-81.45904541015625 -295.8680419921875 -1.96840083599090576 409 -0.0538951456546783447 -0.0830197036266326904 -0.881571710109710693 1645008861.34894443
-80.5640029907226562 -296.98455810546875 -1.85303020477294922 410 -0.0356913581490516663 -0.0779291018843650818 -0.896378517150878906 1645008861.54404807
-79.6750411987304688 -298.024749755859375 -1.79613065719604492 411 -0.026640869677066803 -0.0721850544214248657 -0.906460821628570557 1645008861.74426579
-78.8238525390625 -299.227386474609375 -1.63843071460723877 412 -0.0422950796782970428 -0.0898944362998008728 -0.913985311985015869 1645008861.94547701
-77.8736724853515625 -300.39739990234375 -1.43686437606811523 413 -0.0388831719756126404 -0.091016724705696106 -0.908130049705505371 1645008862.1452899
-76.8966522216796875 -301.58746337890625 -1.46822595596313477 414 -0.0447701252996921539 -0.083563782274723053 -0.893965065479278564 1645008862.34736538
-75.972442626953125 -302.640655517578125 -1.2605363130569458 415 -0.0366005674004554749 -0.0798220261931419373 -0.8986167311668396 1645008862.54616737
-75.115234375 -303.764678955078125 -1.21044731140136719 416 -0.0238709636032581329 -0.0987587347626686096 -0.893640518188476562 1645008862.74634004
-74.16925048828125 -304.9638671875 -1.08847105503082275 417 -0.0552001222968101501 -0.0693982318043708801 -0.882246077060699463 1645008862.94592261
-73.1319427490234375 -306.03094482421875 -1.07806146144866943 418 -0.0300850290805101395 -0.0774128511548042297 -0.858813345432281494 1645008863.14603233
-72.23541259765625 -307.020904541015625 -0.837437093257904053 419 -0.0571092590689659119 -0.0796477645635604858 -0.855949282646179199 1645008863.34504437
-71.28997802734375 -308.21240234375 -0.900018453598022461 420 -0.0142342038452625275 -0.0652038976550102234 -0.843841493129730225 1645008863.54545498
-70.1874771118164062 -309.27545166015625 -0.723230421543121338 421 -0.0441548898816108704 -0.0797130614519119263 -0.811784267425537109 1645008863.7444551
-69.2157135009765625 -310.234710693359375 -0.607942640781402588 422 -0.0164816994220018387 -0.0822518840432167053 -0.806085169315338135 1645008863.94447112
-68.1764373779296875 -311.252227783203125 -0.561114072799682617 423 -0.0515100918710231781 -0.0781152397394180298 -0.793041467666625977 1645008864.14451504
-67.10833740234375 -312.29718017578125 -0.517230331897735596 424 -0.033784087747335434 -0.0723093077540397644 -0.776371181011199951 1645008864.34476352
-66.058502197265625 -313.21405029296875 -0.291675031185150146 425 -0.0467328168451786041 -0.0946514979004859924 -0.759228527545928955 1645008864.5442555
-65.0280685424804688 -314.25848388671875 -0.234888568520545959 426 -0.0303274299949407578 -0.0924395397305488586 -0.756295740604400635 1645008864.74460721
-63.9325180053710938 -315.28155517578125 -0.0999216362833976746 427 -0.0176998618990182877 -0.0934071019291877747 -0.743111968040466309 1645008864.94537568
-62.7876968383789062 -316.22802734375 0.00650545302778482437 428 -0.0235535446554422379 -0.0737452507019042969 -0.727004468441009521 1645008865.14438033
-61.6618385314941406 -317.162933349609375 0.00199459097348153591 429 -0.023321058601140976 -0.0694655179977416992 -0.713466346263885498 1645008865.34452748
-60.5194549560546875 -318.076629638671875 0.152763471007347107 430 -0.0352034568786621094 -0.0707471221685409546 -0.702491581439971924 1645008865.54395962
-59.4541091918945312 -318.959716796875 0.282637536525726318 431 -0.0367080569267272949 -0.0816846862435340881 -0.700751185417175293 1645008865.74599361
-58.3223915100097656 -319.94049072265625 0.297966510057449341 432 -0.0260277129709720612 -0.0806177631020545959 -0.696407973766326904 1645008865.94431257
-57.196624755859375 -320.87506103515625 0.45587313175201416 433 -0.0294371377676725388 -0.0795704498887062073 -0.693545758724212646 1645008866.14455366
-56.0278129577636719 -321.7462158203125 0.595162153244018555 434 -0.026304289698600769 -0.0955588370561599731 -0.686153948307037354 1645008866.34440207
-54.9963188171386719 -322.678131103515625 0.656917870044708252 435 -0.0247603412717580795 -0.0915746092796325684 -0.695658862590789795 1645008866.54494071
-53.7445640563964844 -323.7103271484375 0.726875960826873779 436 -0.0190461538732051849 -0.0791157335042953491 -0.690877676010131836 1645008866.74511361
-52.441192626953125 -324.591796875 0.751651227474212646 437 -0.0292369537055492401 -0.0562120378017425537 -0.669650375843048096 1645008866.94454813
-51.4741439819335938 -325.2869873046875 0.908438384532928467 438 -0.0488476306200027466 -0.0962982326745986938 -0.678925454616546631 1645008867.1457088
-50.4872512817382812 -326.27947998046875 0.965925514698028564 439 -0.0380590558052062988 -0.0884712934494018555 -0.704557180404663086 1645008867.34487462
-49.1459732055664062 -327.2203369140625 1.15708506107330322 440 -0.0598815344274044037 -0.111953884363174438 -0.682666957378387451 1645008867.54553175
-47.9208450317382812 -328.07781982421875 1.14047694206237793 441 -0.0803679898381233215 -0.0685691609978675842 -0.669792652130126953 1645008867.74709535
-46.8337860107421875 -329.026031494140625 1.25079131126403809 442 -0.0785453245043754578 -0.0609820745885372162 -0.678147852420806885 1645008867.94965863
-45.6395912170410156 -329.929229736328125 1.35019731521606445 443 -0.0550360716879367828 -0.0881740525364875793 -0.663367629051208496 1645008868.14791822
-44.535552978515625 -330.699554443359375 1.48307180404663086 444 -0.070555463433265686 -0.105937570333480835 -0.665838241577148438 1645008868.34577632
-43.4845008850097656 -331.611175537109375 1.59151411056518555 445 -0.0485740937292575836 -0.0936992466449737549 -0.686423182487487793 1645008868.54542947
-42.2614822387695312 -332.57421875 1.73786008358001709 446 -0.0681577026844024658 -0.113942302763462067 -0.671882867813110352 1645008868.74463105
-41.105133056640625 -333.41162109375 1.86453902721405029 447 -0.060636427253484726 -0.0970963388681411743 -0.66840672492980957 1645008868.94431901
-40.0821266174316406 -334.197723388671875 1.94686210155487061 448 -0.0597835592925548553 -0.0959711819887161255 -0.670704483985900879 1645008869.14466166
-39.0400733947753906 -335.032562255859375 2.17895174026489258 449 -0.0623888000845909119 -0.111418403685092926 -0.672649621963500977 1645008869.34472013
-37.9676170349121094 -335.88421630859375 2.27166199684143066 450 -0.0515647195279598236 -0.106233403086662292 -0.661682188510894775 1645008869.54531574
-36.9714393615722656 -336.5968017578125 2.39253711700439453 451 -0.0548829101026058197 -0.0972153544425964355 -0.653081655502319336 1645008869.74499273
-36.0136528015136719 -337.308868408203125 2.48036289215087891 452 -0.0523317195475101471 -0.0997869595885276794 -0.643575012683868408 1645008869.9451015
-35.0131874084472656 -338.0054931640625 2.53902196884155273 453 -0.0541298389434814453 -0.0920613110065460205 -0.625351130962371826 1645008870.14634252
-34.0866584777832031 -338.57696533203125 2.62977075576782227 454 -0.0499490164220333099 -0.0974074900150299072 -0.607742428779602051 1645008870.34478116
-33.1918106079101562 -339.183441162109375 2.75273680686950684 455 -0.0541297197341918945 -0.0913249179720878601 -0.590230107307434082 1645008870.54512501
-32.237823486328125 -339.798797607421875 2.86362862586975098 456 -0.0513892397284507751 -0.0857377499341964722 -0.563828766345977783 1645008870.74520111
-31.2982196807861328 -340.293243408203125 3.00251555442810059 457 -0.0566343627870082855 -0.0960948020219802856 -0.524904489517211914 1645008870.94529891
-29.4976253509521484 -341.0716552734375 3.1083071231842041 458 -0.0585836023092269897 -0.0863199979066848755 -0.44613310694694519 1645008871.34601331
-28.5605640411376953 -341.4217529296875 3.2143714427947998 459 -0.0492028407752513885 -0.0991299897432327271 -0.395422935485839844 1645008871.54557085
-27.5837631225585938 -341.7052001953125 3.23852753639221191 460 -0.0428556762635707855 -0.0930788218975067139 -0.334075808525085449 1645008871.74582171
-26.5828075408935547 -341.848358154296875 3.34464073181152344 461 -0.0477311089634895325 -0.0964123308658599854 -0.248075589537620544 1645008871.94533038
-25.5412616729736328 -341.955474853515625 3.39113116264343262 462 -0.0493367686867713928 -0.0784701406955718994 -0.156287774443626404 1645008872.14589357
-24.4483795166015625 -341.955535888671875 3.35482072830200195 463 -0.0425200685858726501 -0.0509820282459259033 -0.0527741648256778717 1645008872.34600258
-23.3876934051513672 -341.80877685546875 3.44287300109863281 464 -0.0459128990769386292 -0.0447757355868816376 0.0599842779338359833 1645008872.54606223
-22.2906074523925781 -341.470703125 3.59245777130126953 465 -0.041898675262928009 -0.0596203915774822235 0.183816045522689819 1645008872.74905252
-21.3410320281982422 -340.9945068359375 3.36902952194213867 466 -0.0496592074632644653 -0.0407065041363239288 0.32128944993019104 1645008872.94595003
-19.8974533081054688 -340.628631591796875 3.79721713066101074 467 0.0235438458621501923 -0.114527948200702667 0.515423476696014404 1645008873.34734106
-19.1201267242431641 -339.96240234375 3.7672581672668457 468 -0.0157494302839040756 -0.0868471488356590271 0.601371526718139648 1645008873.54869175
-18.3596878051757812 -339.035675048828125 3.91766858100891113 469 -0.0186575818806886673 -0.0857090577483177185 0.671189188957214355 1645008873.74778628
-17.4497814178466797 -337.84686279296875 4.09165334701538086 470 -0.0281256828457117081 -0.114784970879554749 0.81581491231918335 1645008874.14600396
-16.5006313323974609 -336.60394287109375 4.24622201919555664 471 -0.0381980910897254944 -0.107253126800060272 0.919407248497009277 1645008874.54758668
-15.7134361267089844 -335.10101318359375 4.41972684860229492 472 -0.0489671789109706879 -0.0995226055383682251 1.01994526386260986 1645008874.94607544
-14.9506778717041016 -333.76495361328125 4.5419011116027832 473 -0.0538151301443576813 -0.102858684957027435 1.04961776733398438 1645008875.34663749
-14.1647748947143555 -332.357666015625 4.60448312759399414 474 -0.0417210124433040619 -0.0850737765431404114 1.05899810791015625 1645008875.74748611
-13.4693708419799805 -330.92803955078125 4.76164388656616211 475 -0.0411097444593906403 -0.0778154358267784119 1.08005619049072266 1645008876.14780235
-12.7658605575561523 -329.441314697265625 4.83155250549316406 476 -0.0414010174572467804 -0.0897837132215499878 1.12131106853485107 1645008876.54741287
-12.1613960266113281 -327.921661376953125 4.95721292495727539 477 -0.0351699888706207275 -0.0794994756579399109 1.17328369617462158 1645008876.94727588
-11.6724767684936523 -326.353973388671875 5.04848098754882812 478 -0.0460413210093975067 -0.081332281231880188 1.2382197380065918 1645008877.34756231
-11.2993707656860352 -324.751708984375 5.16587066650390625 479 -0.0535963773727416992 -0.0834353938698768616 1.30274426937103271 1645008877.74811244
-10.9811811447143555 -323.107696533203125 5.25826501846313477 480 -0.0638291314244270325 -0.0851767510175704956 1.35671007633209229 1645008878.14767909
-10.7443790435791016 -321.497222900390625 5.36547756195068359 481 -0.0549047403037548065 -0.0822519734501838684 1.39805769920349121 1645008878.54650736
-10.4867172241210938 -319.8134765625 5.42679500579833984 482 -0.0528769902884960175 -0.0838460847735404968 1.43656253814697266 1645008878.94740033
-10.3965673446655273 -318.139739990234375 5.48806142807006836 483 -0.0287057161331176758 -0.0687350928783416748 1.47214961051940918 1645008879.34890342
-10.2628440856933594 -316.4210205078125 5.59798860549926758 484 -0.0316272377967834473 -0.0610804595053195953 1.50518512725830078 1645008879.74827981
-10.270411491394043 -314.665313720703125 5.68026018142700195 485 -0.0252797100692987442 -0.0449867621064186096 1.53889596462249756 1645008880.14993
-10.3003139495849609 -312.919281005859375 5.6836237907409668 486 -0.0303036496043205261 -0.0488688088953495026 1.5728456974029541 1645008880.54745007
-10.3751201629638672 -311.096710205078125 5.85897350311279297 487 -0.0315107814967632294 -0.0584793314337730408 1.60458266735076904 1645008880.94717979
-10.4648847579956055 -309.298431396484375 5.86884927749633789 488 -0.0265564750880002975 -0.0516741648316383362 1.61342179775238037 1645008881.34691262
-10.6190261840820312 -307.442840576171875 5.90200328826904297 489 -0.0358359403908252716 -0.0513680092990398407 1.62718021869659424 1645008881.74786139
-10.7480030059814453 -305.568206787109375 6.02789640426635742 490 -0.0414872914552688599 -0.0537620037794113159 1.62668907642364502 1645008882.14703298
-10.8370351791381836 -303.669586181640625 6.09305953979492188 491 -0.0473843961954116821 -0.0427112951874732971 1.59819841384887695 1645008882.54765344
-10.7691831588745117 -301.750457763671875 6.08475971221923828 492 -0.0319936200976371765 -0.0432586297392845154 1.55132460594177246 1645008882.94640923
-10.7353143692016602 -299.818572998046875 6.15565586090087891 493 -0.0388080552220344543 -0.0467312447726726532 1.54305136203765869 1645008883.34843946
-10.7558603286743164 -298.809417724609375 6.23483657836914062 494 -0.0360294654965400696 -0.051512550562620163 1.55869054794311523 1645008883.54862142
-10.8006515502929688 -297.808746337890625 6.32769250869750977 495 -0.0388864316046237946 -0.0443047471344470978 1.57242095470428467 1645008883.74897671
-10.7964057922363281 -295.798858642578125 6.27347373962402344 496 -0.0276356842368841171 -0.0346316099166870117 1.58792507648468018 1645008884.14844394
-10.8521947860717773 -294.793304443359375 6.30974769592285156 497 -0.0287490691989660263 -0.0118518294766545296 1.59957277774810791 1645008884.34642625
-11.0562887191772461 -292.95794677734375 6.24876260757446289 498 -0.0234068408608436584 0.0107847517356276512 1.65958952903747559 1645008884.74906945
-11.2244195938110352 -291.428619384765625 6.17286062240600586 499 -0.0200239531695842743 0.0143385771661996841 1.62820816040039062 1645008885.14947963
-11.1329994201660156 -289.768463134765625 6.26908254623413086 500 -0.0310462415218353271 -0.015420922078192234 1.54003846645355225 1645008885.55034685
-11.0940666198730469 -288.17626953125 6.33845090866088867 501 -0.034913334995508194 -0.0124652767553925514 1.50249290466308594 1645008885.94761062
-10.8398599624633789 -286.458984375 6.30771255493164062 502 -0.0245115552097558975 -0.0108582805842161179 1.47942495346069336 1645008886.3508296
-10.6043834686279297 -284.6475830078125 6.20495128631591797 503 -0.00082787172868847847 -0.0215607695281505585 1.45369362831115723 1645008886.74752116
-10.4484033584594727 -282.7060546875 6.36820220947265625 504 -0.00562243256717920303 -0.0076908450573682785 1.45693886280059814 1645008887.1475575
-10.2949895858764648 -281.6943359375 6.20031261444091797 505 -0.0049092085100710392 0.00529500609263777733 1.4604954719543457 1645008887.35009027
-10.2622184753417969 -280.651092529296875 6.14514064788818359 506 0.0167109016329050064 -9.02185711311176419e-05 1.48704779148101807 1645008887.54970384
-10.2456636428833008 -279.624755859375 6.14845085144042969 507 0.0128745008260011673 -0.00393679970875382423 1.50843954086303711 1645008887.74844956
-10.159088134765625 -278.5611572265625 6.15209817886352539 508 0.0259392689913511276 0.00494958367198705673 1.52168571949005127 1645008887.94943118
-10.1360454559326172 -277.454345703125 6.12722682952880859 509 0.027752067893743515 0.00822149217128753662 1.53863036632537842 1645008888.1480372
-10.1302900314331055 -276.317291259765625 6.07678937911987305 510 0.0368735529482364655 0.0100599126890301704 1.55592334270477295 1645008888.34977388
-10.1629495620727539 -275.162628173828125 6.0556187629699707 511 0.024346373975276947 0.00940860621631145477 1.56810271739959717 1645008888.54875112
-10.1777029037475586 -274.028594970703125 6.02665901184082031 512 0.0240917466580867767 0.0079653887078166008 1.56456053256988525 1645008888.74901319
-10.1538267135620117 -272.8875732421875 6.00075483322143555 513 0.0155429663136601448 0.00528226559981703758 1.55315220355987549 1645008888.94848132
-10.1016864776611328 -271.70831298828125 5.93696212768554688 514 0.0187403112649917603 0.000886556401383131742 1.53408908843994141 1645008889.14700365
-10.0325994491577148 -270.439453125 5.84902238845825195 515 0.0312193930149078369 0.0291133206337690353 1.52324140071868896 1645008889.34621167
-9.995880126953125 -269.197235107421875 5.82439613342285156 516 0.0189518406987190247 0.026192663237452507 1.51143491268157959 1645008889.54913282
-9.93898105621337891 -268.01629638671875 5.75762653350830078 517 0.021424589678645134 -0.00082616397412493825 1.50183212757110596 1645008889.7511313
-9.82266044616699219 -266.73193359375 5.7849726676940918 518 0.000541225774213671684 0.00508652720600366592 1.48262226581573486 1645008889.95180464
-9.69791507720947266 -265.39990234375 5.77231359481811523 519 0.00151538732461631298 0.00822160672396421432 1.46339142322540283 1645008890.15107894
-9.560089111328125 -264.127197265625 5.80015087127685547 520 -0.00118094845674932003 -0.00872241612523794174 1.43830633163452148 1645008890.34870672
-9.31390285491943359 -262.904815673828125 5.71022462844848633 521 0.0116996411234140396 0.00378097314387559891 1.40555095672607422 1645008890.55098724
-8.97575759887695312 -261.611419677734375 5.69071483612060547 522 0.00959592126309871674 0.0125069590285420418 1.37964916229248047 1645008890.74702024
-8.670013427734375 -260.239166259765625 5.62864351272583008 523 0.0152989169582724571 0.0152267878875136375 1.34916782379150391 1645008890.94685006
-8.37014389038085938 -258.8607177734375 5.62671709060668945 524 0.00804173853248357773 0.01677747443318367 1.32841086387634277 1645008891.14996338
-8.03516674041748047 -257.5093994140625 5.58911466598510742 525 0.00516248308122158051 0.0120554007589817047 1.30832374095916748 1645008891.34560108
-7.62105655670166016 -256.2613525390625 5.55141115188598633 526 0.00671722088009119034 0.00507322791963815689 1.28229808807373047 1645008891.54641342
-7.13499212265014648 -254.92803955078125 5.44696903228759766 527 0.0226567108184099197 0.00538647919893264771 1.26030886173248291 1645008891.75010204
-6.69754791259765625 -253.465103149414062 5.39116334915161133 528 0.0184984821826219559 0.0215940680354833603 1.25614356994628906 1645008891.94507837
-6.3078618049621582 -252.075454711914062 5.32674169540405273 529 0.0202310066670179367 0.022151382640004158 1.25404489040374756 1645008892.14563036
-5.83477354049682617 -250.79205322265625 5.29160547256469727 530 0.0153171615675091743 0.0172405354678630829 1.23885142803192139 1645008892.34540749
-5.31510019302368164 -249.393951416015625 5.25005149841308594 531 0.0162394102662801743 0.0130339637398719788 1.22880208492279053 1645008892.54385161
-4.88188695907592773 -247.975112915039062 5.20740556716918945 532 0.0135633740574121475 0.00952732190489768982 1.2295382022857666 1645008892.74469829
-4.34205198287963867 -246.640838623046875 5.17725181579589844 533 0.00761188892647624016 0.0108978943899273872 1.21367311477661133 1645008892.94751406
-3.74992704391479492 -245.189544677734375 5.15452861785888672 534 0.00832981802523136139 0.0194162130355834961 1.19669508934020996 1645008893.14963579
-3.25133943557739258 -243.778411865234375 5.0288538932800293 535 0.0126621760427951813 0.0109969079494476318 1.18780910968780518 1645008893.34789777
-2.66356134414672852 -242.407928466796875 5.08945035934448242 536 0.0158596541732549667 0.0110328616574406624 1.17382967472076416 1645008893.54515409
-2.09505534172058105 -241.021774291992188 5.0000309944152832 537 0.00604709470644593239 0.029081808403134346 1.15830004215240479 1645008893.74605656
-1.45835983753204346 -239.654159545898438 4.91251993179321289 538 -0.00443439697846770287 0.0107054449617862701 1.14646196365356445 1645008893.94910097
-0.865934491157531738 -238.154220581054688 4.89150333404541016 539 -0.0251493621617555618 0.00903426483273506165 1.14299476146697998 1645008894.14447474
-0.249971434473991394 -236.863128662109375 4.84204387664794922 540 -0.0268323216587305069 0.0164043400436639786 1.11751222610473633 1645008894.34603119
0.481584727764129639 -235.616729736328125 4.78330135345458984 541 -0.0253938306123018265 0.010928780771791935 1.07869839668273926 1645008894.55093598
1.30713546276092529 -234.302200317382812 4.74971580505371094 542 -0.0263297166675329208 0.0321022979915142059 1.03832447528839111 1645008894.74427247
