# .PCD v0.7 - Point Cloud Data file format
VERSION 0.7
FIELDS x y z intensity t qx qy qz qw
SIZE 4 4 4 4 8 4 4 4 4
TYPE F F F F F F F F F
COUNT 1 1 1 1 1 1 1 1 1
WIDTH 277
HEIGHT 1
VIEWPOINT 0 0 0 1 0 0 0
POINTS 277
DATA ascii
64.92340087890625 101.612594604492188 7.91130208969116211 12 1644758894.82978988 0.999936521053314209 0.00489200418815016747 0.00294488761574029922 0.00971151422709226608
65.2313690185546875 101.34185791015625 7.91895627975463867 13 1644758894.92903924 0.999926924705505371 0.00670199422165751457 0.00715432316064834595 0.00707511231303215027
65.5675201416015625 101.080001831054688 7.92682886123657227 14 1644758895.02875829 0.999797463417053223 0.013552485965192318 0.00722882198169827461 0.0130044259130954742
65.9152297973632812 100.799835205078125 7.93423318862915039 15 1644758895.12988901 0.999765336513519287 0.0134656010195612907 0.00747129414230585098 0.0152377113699913025
66.2556610107421875 100.516799926757812 7.93570995330810547 16 1644758895.229002 0.999748528003692627 0.0163226872682571411 0.0023923355620354414 0.0151909682899713516
66.598663330078125 100.231864929199219 7.93607902526855469 17 1644758895.32939076 0.999738752841949463 0.0179709233343601227 -0.00028447000659070909 0.0141193857416510582
66.9394912719726562 99.96514892578125 7.93477487564086914 18 1644758895.42860413 0.999657154083251953 0.0177716873586177826 -0.00398516189306974411 0.0188112799078226089
67.2730178833007812 99.6895217895507812 7.93923330307006836 19 1644758895.53045201 0.999638617038726807 0.0183383841067552567 -0.0033946444746106863 0.0193602871149778366
67.5995101928710938 99.4133987426757812 7.94150209426879883 20 1644758895.63115287 0.999607741832733154 0.0211447235196828842 -0.0044196578674018383 0.0178252048790454865
71.6945724487304688 95.900909423828125 7.95864105224609375 21 1644758896.92941904 0.999846041202545166 0.00838118977844715118 -0.00112595863174647093 0.0153763871639966965
75.37744140625 92.4113922119140625 7.97721958160400391 22 1644758898.13126755 0.999482929706573486 -0.0245600007474422455 -0.014515644870698452 0.0148296188563108444
79.0800933837890625 88.2813720703125 7.97809028625488281 23 1644758899.5312736 0.997846841812133789 -0.0622510835528373718 -0.00473368773236870766 0.0201005134731531143
82.6454620361328125 84.2356033325195312 7.96124649047851562 24 1644758900.83100128 0.998856663703918457 -0.045472409576177597 -0.00201302650384604931 0.0146150793880224228
83.2305374145507812 83.619293212890625 7.88567066192626953 25 1644758901.0307076 0.914583981037139893 -0.404372930526733398 0.000878097489476203918 -0.00423174537718296051
86.7061767578125 79.7710418701171875 7.82476615905761719 26 1644758902.23286891 0.914314091205596924 -0.404849588871002197 0.00393843883648514748 -0.0105366241186857224
90.3784408569335938 75.8756103515625 7.77383089065551758 27 1644758903.43179345 0.92031627893447876 -0.390364229679107666 -0.0193312317132949829 -0.016123870387673378
94.3082809448242188 72.0879135131835938 7.71404743194580078 28 1644758904.63029718 0.930357813835144043 -0.3662453293800354 -0.00441874470561742783 -0.016707276925444603
98.1297454833984375 68.5247726440429688 7.67275810241699219 29 1644758905.73422003 0.930670082569122314 -0.36528506875038147 0.0055140424519777298 -0.0197389330714941025
100.98211669921875 64.3858489990234375 7.63019800186157227 30 1644758906.83016634 0.842297077178955078 -0.5389404296875 0.00861645303666591644 -0.00215367693454027176
102.419914245605469 59.1514472961425781 7.63805484771728516 31 1644758908.03255463 0.800369203090667725 -0.599059224128723145 0.018523121252655983 -0.0139316115528345108
104.863990783691406 54.7440185546875 7.6315922737121582 32 1644758909.13281751 0.882762491703033447 -0.469426244497299194 0.00924196280539035797 -0.0168500877916812897
108.298751831054688 50.9141273498535156 7.62734317779541016 33 1644758910.23285174 0.917781829833984375 -0.396809667348861694 0.010911058634519577 -0.00997727084904909134
112.228813171386719 47.2060699462890625 7.61964321136474609 34 1644758911.43198729 0.931695818901062012 -0.362916827201843262 0.00769629655405879021 -0.0132290972396731377
116.599014282226562 44.5249214172363281 7.64102840423583984 35 1644758912.63288283 0.981553316116333008 -0.189233183860778809 0.011692369356751442 -0.0246409047394990921
119.575950622558594 44.4692802429199219 7.63790798187255859 36 1644758913.33311319 0.999629676342010498 0.00764237949624657631 -0.00924238841980695724 -0.0244268663227558136
122.268119812011719 45.4743423461914062 7.72508049011230469 37 1644758914.03415465 0.983008682727813721 0.182535618543624878 0.00994582846760749817 -0.0166055578738451004
126.486503601074219 48.6373252868652344 7.66705989837646484 38 1644758915.23410726 0.937277138233184814 0.348434478044509888 -0.00969012733548879623 -0.00332136452198028564
130.164276123046875 52.22393798828125 7.59074735641479492 39 1644758916.33522367 0.921507716178894043 0.387245923280715942 -0.0100199570879340172 -0.0276356451213359833
133.505386352539062 56.3507919311523438 7.58548641204833984 40 1644758917.43481255 0.880108892917633057 0.473563879728317261 -0.00987168308347463608 -0.0323746725916862488
134.8790283203125 60.5791091918945312 7.6213078498840332 41 1644758918.3350966 0.775860130786895752 0.630218803882598877 -0.0077932276763021946 -0.0283655691891908646
134.535202026367188 64.002288818359375 7.67458438873291016 42 1644758919.03355455 0.63673102855682373 0.770435988903045654 -0.0176622867584228516 -0.02626846544444561
133.057342529296875 66.5960769653320312 7.67822551727294922 43 1644758919.63460183 0.485755354166030884 0.873614847660064697 -0.0259463097900152206 -0.0128701943904161453
129.054351806640625 70.31451416015625 7.68223476409912109 44 1644758920.7325058 0.336794793605804443 0.941380143165588379 -0.0177300591021776199 -0.00763807632029056549
124.805656433105469 73.0213546752929688 7.69543647766113281 45 1644758921.73556638 0.266819089651107788 0.963685214519500732 -0.00675608590245246887 -0.00852858182042837143
120.130638122558594 75.3569412231445312 7.65505743026733398 46 1644758922.73588181 0.229696378111839294 0.973249256610870361 0.00133727083448320627 0.00486947456374764442
115.464065551757812 78.040008544921875 7.7007746696472168 47 1644758923.73424673 0.275541692972183228 0.961171865463256836 0.00604222016409039497 -0.0137431323528289795
111.289085388183594 81.0609817504882812 7.71384620666503906 48 1644758924.6350584 0.316032826900482178 0.948679983615875244 -0.00707503827288746834 -0.00891193561255931854
106.889884948730469 84.53485107421875 7.65900135040283203 49 1644758925.53612995 0.342799514532089233 0.939364016056060791 0.00867969449609518051 0.00289954827167093754
102.968276977539062 87.9032440185546875 7.59373855590820312 50 1644758926.33527088 0.357576966285705566 0.9335060715675354 0.0147252436727285385 0.022097436711192131
99.2413177490234375 91.3874053955078125 7.62536907196044922 51 1644758927.13435602 0.367406606674194336 0.929922401905059814 0.0160037577152252197 0.000772331608459353447
95.5459136962890625 94.9536209106445312 7.61920881271362305 52 1644758927.93749738 0.374945372343063354 0.927009642124176025 0.00830934103578329086 7.96699680449819425e-07
91.9349441528320312 98.5333633422851562 7.62700891494750977 53 1644758928.73251772 0.380884498357772827 0.92460554838180542 0.00544527871534228325 -0.00138199492357671261
88.3046722412109375 102.153884887695312 7.63498306274414062 54 1644758929.53363013 0.383905917406082153 0.923353612422943115 0.00544116366654634476 0.00217652530409395695
84.6590042114257812 105.775772094726562 7.66102886199951172 55 1644758930.33326745 0.380356878042221069 0.924824416637420654 0.005277976393699646 0.000775617081671953201
81.0256500244140625 109.290412902832031 7.6386408805847168 56 1644758931.13070893 0.377509593963623047 0.925996959209442139 0.00401507504284381866 9.9506883998401463e-05
77.1575698852539062 112.989006042480469 7.66512250900268555 57 1644758932.03298306 0.374551862478256226 0.927171885967254639 0.00702650565654039383 -0.00371815986000001431
73.5904312133789062 116.533607482910156 7.66294145584106445 58 1644758932.93641067 0.384735256433486938 0.922996461391448975 0.00620936928316950798 0.0042182612232863903
69.47674560546875 119.224685668945312 7.71780157089233398 59 1644758933.93323588 0.198351427912712097 0.979947209358215332 -0.0137838246300816536 -0.0130471102893352509
65.4225234985351562 119.687873840332031 7.6831669807434082 60 1644758934.83439946 0.023547150194644928 0.999427914619445801 -0.0237508732825517654 -0.00502352276816964149
62.2518386840820312 118.838706970214844 7.71025848388671875 61 1644758935.63175178 -0.177633419632911682 0.983621001243591309 -0.0299346204847097397 0.00632141577079892159
60.6320953369140625 117.249305725097656 7.71832847595214844 62 1644758936.22860026 -0.370425134897232056 0.928214490413665771 -0.0286858659237623215 0.0194974839687347412
59.392303466796875 114.5943603515625 7.76485204696655273 63 1644758937.02938604 -0.535448372364044189 0.844135820865631104 -0.0265238843858242035 0.00512646185234189034
58.9499435424804688 111.3330078125 7.82164573669433594 64 1644758937.82966375 -0.686428189277648926 0.726719379425048828 -0.0244049150496721268 0.0099860168993473053
59.7898445129394531 108.220245361328125 7.83075523376464844 65 1644758938.52956724 -0.808155715465545654 0.588035523891448975 -0.0142536750063300133 0.0299235619604587555
61.8135948181152344 104.929191589355469 7.85902595520019531 66 1644758939.32892752 -0.880977869033813477 0.472683340311050415 -0.0165000688284635544 0.0132738677784800529
63.1498374938964844 103.382888793945312 7.88447475433349609 67 1644758939.72837734 -0.906390726566314697 0.421925872564315796 -0.0152363432571291924 0.0142202302813529968
64.7100372314453125 101.890617370605469 7.88703060150146484 68 1644758940.1313107 -0.927562117576599121 0.373201906681060791 -0.00895984284579753876 0.0163875501602888107
68.6236648559570312 98.7686691284179688 7.93299150466918945 69 1644758941.028579 -0.947923541069030762 0.318233132362365723 -0.0079650338739156723 0.0102582443505525589
77.8328933715820312 91.6265792846679688 7.92555332183837891 70 1644758943.03745651 -0.93914794921875 0.343272298574447632 0.00314800278283655643 -0.0124631999060511589
86.9282150268554688 83.3429641723632812 7.85088777542114258 71 1644758945.12857437 -0.926052570343017578 0.377306252717971802 0.00611772201955318451 -0.00540525233373045921
94.7350845336914062 75.4815216064453125 7.75429582595825195 72 1644758947.13014627 -0.924284934997558594 0.381556034088134766 0.0105655519291758537 -0.000813157239463180304
101.423606872558594 70.9797515869140625 7.72359323501586914 73 1644758948.73087144 -0.981377303600311279 0.191243529319763184 -0.00825280044227838516 0.0160108227282762527
105.772445678710938 70.4949264526367188 7.73283958435058594 74 1644758949.62774086 -0.999653995037078857 0.00132666726130992174 0.00647422904148697853 0.0254598595201969147
110.772544860839844 71.9290390014648438 7.70168066024780273 75 1644758950.72790217 -0.984198570251464844 -0.176338687539100647 0.00312547618523240089 0.0157496649771928787
119.382492065429688 75.4167098999023438 7.65612077713012695 76 1644758952.73011351 -0.996663510799407959 -0.0801516249775886536 -0.0110006062313914299 -0.0107955839484930038
123.684700012207031 74.6014785766601562 7.6856236457824707 77 1644758953.62715769 -0.987527549266815186 0.156650006771087646 0.000138915478601120412 -0.0158149357885122299
127.982177734375 71.7541656494140625 7.67696714401245117 78 1644758954.62776875 -0.940762162208557129 0.338551104068756104 0.00646513607352972031 -0.0175473913550376892
131.7340087890625 66.5883865356445312 7.70012855529785156 79 1644758955.82705498 -0.862671732902526855 0.505514383316040039 0.00644479505717754364 -0.0145294666290283203
133.462081909179688 60.8726806640625 7.64376354217529297 80 1644758956.92852259 -0.754950582981109619 0.655575573444366455 0.0141242947429418564 -0.00841574929654598236
132.883621215820312 56.574676513671875 7.59686851501464844 81 1644758957.7300117 -0.611726641654968262 0.790595054626464844 0.0245435349643230438 -0.0121466265991330147
131.0552978515625 53.4526023864746094 7.58581161499023438 82 1644758958.43081617 -0.449536144733428955 0.892390787601470947 0.0366066545248031616 -0.0146943898871541023
128.356781005859375 51.4670448303222656 7.62865638732910156 83 1644758959.12851834 -0.279177755117416382 0.959637224674224854 0.0302816946059465408 -0.015466839075088501
124.722854614257812 50.5431289672851562 7.66710901260375977 84 1644758959.9314847 -0.0956089198589324951 0.995374023914337158 0.00479773944243788719 -0.00815485883504152298
120.977783203125 51.0019416809082031 7.7005305290222168 85 1644758960.73158145 0.101446144282817841 0.99482649564743042 0.00188871612772345543 -0.00503921788185834885
117.548141479492188 52.8867378234863281 7.71094751358032227 86 1644758961.53321052 0.275136619806289673 0.961382806301116943 0.000888991402462124825 -0.00649285875260829926
113.566078186035156 56.6760025024414062 7.7829432487487793 87 1644758962.73336411 0.40151551365852356 0.915564775466918945 0.00514097651466727257 -0.0223603174090385437
110.115058898925781 60.7601280212402344 7.69369935989379883 88 1644758964.03212285 0.399775177240371704 0.916297197341918945 -0.0213576145470142365 -0.0110951671376824379
106.213554382324219 64.2263717651367188 7.69296789169311523 89 1644758965.32756829 0.34962889552116394 0.936808168888092041 -0.0110486065968871117 -0.00528899906203150749
98.3787841796875 70.0756378173828125 7.70906257629394531 90 1644758967.42784858 0.308564335107803345 0.951131701469421387 0.011377246119081974 0.00265275407582521439
91.3324127197265625 75.0365219116210938 7.78138446807861328 91 1644758969.42951727 0.279283016920089722 0.960203051567077637 0.0015001476276665926 -0.00297253113240003586
89.1856231689453125 75.5547561645507812 7.78531837463378906 92 1644758970.02481699 0.0962232574820518494 0.995155513286590576 -0.019592897966504097 -0.00476950686424970627
87.4242630004882812 75.0749664306640625 7.82070398330688477 93 1644758970.52665043 -0.0938878431916236877 0.995418071746826172 -0.0140215605497360229 -0.0114615447819232941
85.22979736328125 73.662841796875 7.75689554214477539 94 1644758971.22838402 -0.277047663927078247 0.960747897624969482 -0.00698816543444991112 0.0126204183325171471
81.6829833984375 70.1167068481445312 7.73939228057861328 95 1644758972.62964153 -0.387554705142974854 0.921651899814605713 -0.0185200925916433334 0.00401425641030073166
78.0069351196289062 66.398193359375 7.71356725692749023 96 1644758973.92775011 -0.370362699031829834 0.928886950016021729 -0.000156551090185530484 0.000670402427203953266
74.2247695922851562 62.6675605773925781 7.7286686897277832 97 1644758975.2258513 -0.390415489673614502 0.920627772808074951 0.00369261926971375942 -0.00256631174124777317
71.3207550048828125 58.1662635803222656 7.68256568908691406 98 1644758976.52426457 -0.531096279621124268 0.847282707691192627 -0.00443886406719684601 0.00538850575685501099
70.5102386474609375 53.5117073059082031 7.56543540954589844 99 1644758977.62503409 -0.672246694564819336 0.740258991718292236 -0.00416748784482479095 0.00914529431611299515
70.4535293579101562 48.2151069641113281 7.44861459732055664 100 1644758978.825701 -0.686976432800292969 0.726626932621002197 0.00519290845841169357 0.00704682804644107819
68.6207656860351562 43.2690773010253906 7.27538871765136719 101 1644758980.0254426 -0.502058207988739014 0.864654183387756348 0.0104682678356766701 0.014178725890815258
64.6098480224609375 39.768829345703125 7.10943412780761719 102 1644758981.22440624 -0.349123746156692505 0.936922669410705566 0.00168658269103616476 0.0169003475457429886
61.0610618591308594 35.9434471130371094 6.93886756896972656 103 1644758982.32655239 -0.407026946544647217 0.913283228874206543 -0.0014099926920607686 0.0155197102576494217
57.6395721435546875 32.1203956604003906 6.75727939605712891 104 1644758983.32684231 -0.402907311916351318 0.915085315704345703 -0.000735875742975622416 0.0168529078364372253
53.9695930480957031 28.2280387878417969 6.60390615463256836 105 1644758984.32896113 -0.388515263795852661 0.921283602714538574 0.00521228881552815437 0.0162872150540351868
50.1604766845703125 24.7258701324462891 6.5702672004699707 106 1644758985.52794909 -0.35318639874458313 0.935533761978149414 0.00135180586948990822 -0.0058383881114423275
46.2427940368652344 20.9460182189941406 6.58568143844604492 107 1644758986.72931933 -0.380739331245422363 0.924652457237243652 0.00277118664234876633 -0.00690880557522177696
42.6207542419433594 17.1898555755615234 6.55046987533569336 108 1644758987.83024192 -0.388624012470245361 0.921363770961761475 0.00759508693590760231 -0.00157795730046927929
38.9421882629394531 13.392949104309082 6.52258491516113281 109 1644758988.92874861 -0.387258052825927734 0.921935975551605225 0.00764457741752266884 -0.00260952161625027657
35.2362823486328125 9.62294483184814453 6.48834991455078125 110 1644758990.02992177 -0.384886473417282104 0.922957777976989746 0.00327938469126820564 0.000776958477217704058
31.6818943023681641 6.07006359100341797 6.46187257766723633 111 1644758991.02869916 -0.381990641355514526 0.924147725105285645 -0.00498974090442061424 -0.00304098799824714661
27.8841495513916016 2.22986698150634766 6.47159671783447266 112 1644758992.02809525 -0.38642585277557373 0.922299444675445557 -0.00623048562556505203 0.000153836095705628395
24.0568943023681641 -1.7144167423248291 6.49294233322143555 113 1644758993.03131413 -0.388714969158172607 0.921344220638275146 -0.00484201777726411819 -0.00143968616612255573
19.9742851257324219 -5.2602081298828125 6.54633903503417969 114 1644758994.02930546 -0.314448893070220947 0.94918590784072876 -0.00364924641326069832 -0.0124396840110421181
15.2087783813476562 -7.46626043319702148 6.76036596298217773 115 1644758995.02983594 -0.173660233616828918 0.984463155269622803 -0.01192445307970047 -0.0230699405074119568
9.942138671875 -8.28551769256591797 7.03922557830810547 116 1644758996.02689719 -0.049795735627412796 0.997833490371704102 -0.0242531951516866684 -0.0355034060776233673
4.90120601654052734 -8.9678192138671875 7.46760702133178711 117 1644758997.02942729 -0.0877017900347709656 0.994159400463104248 -0.0276576653122901917 -0.0564850121736526489
-0.0712002217769622803 -9.80884838104248047 7.90655612945556641 118 1644758998.03072619 -0.0618290416896343231 0.996730804443359375 -0.0123491315171122551 -0.0505210161209106445
-5.16349172592163086 -9.6830596923828125 8.25941562652587891 119 1644758999.0320158 0.0423191748559474945 0.998496651649475098 -0.0154459066689014435 -0.0312233865261077881
-10.2068920135498047 -8.52165508270263672 8.45036602020263672 120 1644759000.02884316 0.140679433941841125 0.989789843559265137 -0.00309631298296153545 -0.022710578516125679
-15.1504278182983398 -6.81902790069580078 8.50825405120849609 121 1644759001.0295682 0.178647309541702271 0.983897686004638672 -0.00221306993626058102 -0.0050607016310095787
-19.8100662231445312 -4.32415771484375 8.58063888549804688 122 1644759002.1299932 0.274397015571594238 0.961412489414215088 -0.0112827466800808907 -0.0162784773856401443
-23.9783897399902344 -1.44398641586303711 8.66844367980957031 123 1644759003.22898006 0.284392625093460083 0.958409965038299561 -0.0168242566287517548 -0.0169738363474607468
-29.1581573486328125 -0.257018774747848511 8.80750751495361328 124 1644759004.43078995 0.017211422324180603 0.999566078186035156 -0.0190983079373836517 -0.0143754128366708755
-33.9275474548339844 -2.58033967018127441 8.78914928436279297 125 1644759005.63158298 -0.328788012266159058 0.943902015686035156 -0.0280564110726118088 0.0126577308401465416
-35.3746185302734375 -4.87472248077392578 8.7517242431640625 126 1644759006.228122 -0.499233543872833252 0.865675866603851318 -0.0253756418824195862 0.0269669592380523682
-35.83587646484375 -7.57844686508178711 8.69606208801269531 127 1644759006.8300693 -0.657247960567474365 0.752664148807525635 -0.0214878413826227188 0.0325594134628772736
-35.201141357421875 -10.2817888259887695 8.62433910369873047 128 1644759007.42747355 -0.79454350471496582 0.605575442314147949 -0.0124977631494402885 0.0426942072808742523
-33.5510749816894531 -12.4932184219360352 8.58786964416503906 129 1644759008.030195 -0.901114046573638916 0.431155294179916382 -0.0131645873188972473 0.0438777990639209747
-31.1646442413330078 -13.8529748916625977 8.57112598419189453 130 1644759008.62921548 -0.96880573034286499 0.244034960865974426 -0.00435257656499743462 0.042935498058795929
-28.0749092102050781 -14.3079071044921875 8.60655879974365234 131 1644759009.32932997 -0.997623622417449951 0.0635657235980033875 -0.00781502015888690948 0.0254063643515110016
-24.0695400238037109 -13.5949001312255859 8.56252098083496094 132 1644759010.23104095 -0.990872025489807129 -0.130613535642623901 0.0110556967556476593 0.0314717032015323639
-21.1063919067382812 -11.658015251159668 8.55721378326416016 133 1644759011.02982497 -0.946723043918609619 -0.320426493883132935 0.00659207068383693695 0.0316048413515090942
-19.6061477661132812 -9.44395828247070312 8.57640743255615234 134 1644759011.62643218 -0.871783912181854248 -0.487823337316513062 0.0230337828397750854 0.0386085100471973419
-19.1956233978271484 -6.79756593704223633 8.58467674255371094 135 1644759012.23063779 -0.751438498497009277 -0.658834338188171387 0.024090111255645752 0.0264045335352420807
-19.6892509460449219 -4.6314997673034668 8.56979656219482422 136 1644759012.72658467 -0.623679935932159424 -0.780712485313415527 0.033342849463224411 0.0199895184487104416
-20.9318370819091797 -2.77957367897033691 8.57495212554931641 137 1644759013.22962594 -0.475744426250457764 -0.878821492195129395 0.0326926596462726593 0.0164686143398284912
-29.1880378723144531 0.21229185163974762 8.80048370361328125 138 1644759015.32659197 -0.0126095954328775406 -0.999660491943359375 0.0202386453747749329 0.0105037856847047806
-35.5828971862792969 -5.81581211090087891 8.73737049102783203 139 1644759017.4245069 0.617934286594390869 -0.785002946853637695 0.0268002469092607498 -0.0347750410437583923
-31.6615524291992188 -15.1454448699951172 8.53549957275390625 140 1644759019.52364039 0.835339725017547607 -0.549573421478271484 -0.00520607363432645798 -0.0122273201122879982
-30.3862228393554688 -20.2722587585449219 8.39178752899169922 141 1644759020.52455926 0.771960437297821045 -0.635268092155456543 0.00126507563982158899 -0.0225826185196638107
-29.7333965301513672 -25.7288532257080078 8.12154006958007812 142 1644759021.52518058 0.733612954616546631 -0.678968131542205811 -0.0260236263275146484 -0.0117058614268898964
-29.3514175415039062 -31.1778354644775391 7.82992267608642578 143 1644759022.52426338 0.725769340991973877 -0.6873130202293396 -0.0290113352239131927 -0.00424783723428845406
-29.1737403869628906 -36.68878173828125 7.53885269165039062 144 1644759023.52478909 0.70814436674118042 -0.705269038677215576 -0.0335725508630275726 -0.000203168470761738718
-29.3376407623291016 -42.1454353332519531 7.24239826202392578 145 1644759024.52220535 0.688574016094207764 -0.724270045757293701 -0.0356190279126167297 -0.00547774601727724075
-29.8212718963623047 -47.2165946960449219 7.00750303268432617 146 1644759025.5228436 0.667819321155548096 -0.743621408939361572 -0.0275440532714128494 -0.016907326877117157
-30.6729030609130859 -52.3044624328613281 6.87103652954101562 147 1644759026.72520089 0.601985752582550049 -0.797412335872650146 -0.0379105322062969208 0.0175928790122270584
-32.3879776000976562 -54.9176368713378906 6.92864751815795898 148 1644759027.62349653 0.448856204748153687 -0.892993807792663574 -0.0268843844532966614 0.0191685352474451065
-34.27337646484375 -56.0232810974121094 7.03553485870361328 149 1644759028.42595601 0.269144058227539062 -0.962813913822174072 -0.0132664348930120468 0.0193610116839408875
-37.0508804321289062 -56.4274711608886719 7.22462892532348633 150 1644759029.62428308 0.0911185815930366516 -0.994238615036010742 0.0174922570586204529 0.0536744333803653717
-42.1674537658691406 -56.4466514587402344 7.26831436157226562 151 1644759031.12617469 -0.0296803954988718033 -0.999484419822692871 -0.0104593001306056976 -0.00637197587639093399
-47.23193359375 -56.1026763916015625 7.43644428253173828 152 1644759032.92486191 -0.00948262307792901993 -0.999769151210784912 -0.0121630476787686348 0.0149608682841062546
-52.3916854858398438 -57.1805534362792969 7.33644819259643555 153 1644759034.53114247 0.144623920321464539 -0.989005982875823975 -0.0261868666857481003 -0.0162873808294534683
-54.8807029724121094 -61.4276466369628906 7.05722904205322266 154 1644759036.62650418 0.64867246150970459 -0.758262097835540771 0.0431257076561450958 -0.0490189194679260254
-54.8764266967773438 -66.2853317260742188 6.6700901985168457 155 1644759038.72745633 0.676334261894226074 -0.734857499599456787 -0.0276308376342058182 -0.0423434637486934662
-55.4051361083984375 -71.5004806518554688 6.21395730972290039 156 1644759040.42664099 0.658082842826843262 -0.751709640026092529 -0.0278920717537403107 -0.0328870005905628204
-55.9029006958007812 -76.4690322875976562 5.80549812316894531 157 1644759041.82684708 0.685890316963195801 -0.726486682891845703 -0.0206472240388393402 -0.0366781353950500488
-56.240570068359375 -81.6059646606445312 5.3811488151550293 158 1644759043.12566614 0.679082036018371582 -0.733414888381958008 -0.0130748497322201729 -0.0279137603938579559
-56.6572074890136719 -86.760162353515625 4.94325780868530273 159 1644759044.32813549 0.684492349624633789 -0.727826178073883057 -0.0196520723402500153 -0.0367836914956569672
-56.8468399047851562 -91.7473678588867188 4.53786611557006836 160 1644759045.42801547 0.694312393665313721 -0.718382894992828369 -0.0216068215668201447 -0.0372751131653785706
-56.9592666625976562 -96.8075180053710938 4.05293846130371094 161 1644759046.52796745 0.693183004856109619 -0.718879044055938721 -0.0345188193023204803 -0.0389707274734973907
-56.5943260192871094 -102.160331726074219 3.56747555732727051 162 1644759047.82868052 0.741638302803039551 -0.668902039527893066 -0.0252804569900035858 -0.0436306260526180267
-55.4322090148925781 -107.338172912597656 3.04724454879760742 163 1644759049.12968254 0.784965336322784424 -0.617470383644104004 -0.0300017669796943665 -0.0407387353479862213
-54.1869583129882812 -112.431167602539062 2.51331615447998047 164 1644759050.42958665 0.792874276638031006 -0.607503116130828857 -0.0302950441837310791 -0.0370480641722679138
-52.241119384765625 -117.209884643554688 2.00640296936035156 165 1644759051.73034024 0.842315554618835449 -0.53661113977432251 -0.0318077467381954193 -0.039259444922208786
-49.8939781188964844 -121.809455871582031 1.56700682640075684 166 1644759053.02789402 0.855420291423797607 -0.515950500965118408 -0.0297433380037546158 -0.0341543368995189667
-47.1697006225585938 -126.100028991699219 1.17636847496032715 167 1644759054.32539845 0.882058441638946533 -0.469072252511978149 -0.0311193615198135376 -0.0312361773103475571
-43.9252204895019531 -130.063751220703125 0.789659738540649414 168 1644759055.62474275 0.907387614250183105 -0.417645007371902466 -0.032650969922542572 -0.0339752994477748871
-40.5233573913574219 -133.721710205078125 0.421860307455062866 169 1644759056.92844367 0.913642704486846924 -0.404762506484985352 -0.0289298743009567261 -0.0242368355393409729
-36.7847824096679688 -137.377609252929688 0.014483804814517498 170 1644759058.22788334 0.932820677757263184 -0.357766956090927124 -0.0330493226647377014 -0.0274980124086141586
-32.8651008605957031 -141.066146850585938 -0.420245766639709473 171 1644759059.52692676 0.926626682281494141 -0.373581439256668091 -0.039138253778219223 -0.0163720622658729553
-29.0901031494140625 -144.722198486328125 -0.727938532829284668 172 1644759060.92779255 0.927571237087249756 -0.373550057411193848 0.00539002427831292152 -0.00655331695452332497
-25.3836135864257812 -148.102447509765625 -1.14215087890625 173 1644759062.42858982 0.932607889175415039 -0.358097463846206665 -0.039303317666053772 -0.0215401537716388702
-21.6343574523925781 -151.535675048828125 -1.55617856979370117 174 1644759063.92700362 0.924394786357879639 -0.379048854112625122 -0.0371466353535652161 -0.0208886489272117615
-17.9408855438232422 -155.115768432617188 -1.96258938312530518 175 1644759065.42673421 0.928970873355865479 -0.368128389120101929 -0.0309235062450170517 -0.0232031922787427902
-14.1944351196289062 -158.529220581054688 -2.35629963874816895 176 1644759066.8259573 0.933473765850067139 -0.356616437435150146 -0.0314753390848636627 -0.0214659310877323151
-10.3303470611572266 -162.079574584960938 -2.75413322448730469 177 1644759068.1269536 0.927794754505157471 -0.371233075857162476 -0.0322804339230060577 -0.0184627193957567215
-6.64122295379638672 -165.691299438476562 -3.14274311065673828 178 1644759069.32773471 0.927974343299865723 -0.371093630790710449 -0.0265518669039011002 -0.0211679860949516296
-2.8284146785736084 -169.261734008789062 -3.48699045181274414 179 1644759070.52331829 0.929431378841400146 -0.368310660123825073 -0.0202962402254343033 -0.00962180085480213165
0.831221222877502441 -172.885025024414062 -3.78489589691162109 180 1644759071.72288871 0.920362353324890137 -0.39021340012550354 -0.023186786100268364 -0.0113562792539596558
4.48640727996826172 -176.415298461914062 -4.07215595245361328 181 1644759072.92712069 0.932334184646606445 -0.360551327466964722 -0.0201731249690055847 -0.0186742078512907028
8.53514575958251953 -179.892105102539062 -4.32721948623657227 182 1644759074.22477126 0.934915125370025635 -0.35376700758934021 -0.0251629296690225601 -0.0122219789773225784
12.2856321334838867 -183.404525756835938 -4.54394197463989258 183 1644759075.72778726 0.925922691822052002 -0.376815944910049438 -0.0216156002134084702 -0.01448026392608881
16.0708847045898438 -186.839141845703125 -4.7554168701171875 184 1644759077.52255893 0.938920140266418457 -0.3435211181640625 -0.0125725148245692253 -0.016252787783741951
19.7375659942626953 -190.175308227539062 -4.89740085601806641 185 1644759079.5225842 0.925236940383911133 -0.379071354866027832 -0.011285669170320034 -0.0106838950887322426
22.5611228942871094 -193.004608154296875 -5.0018620491027832 186 1644759081.52484679 0.925564348697662354 -0.378204941749572754 -0.0134595409035682678 -0.0105101019144058228
25.7952251434326172 -195.808517456054688 -5.11236667633056641 187 1644759083.62438965 0.939866483211517334 -0.341285109519958496 -0.0100854178890585899 -0.00858470611274242401
28.1157245635986328 -197.815185546875 -5.16168594360351562 188 1644759085.62482595 0.937830507755279541 -0.3470345139503479 -0.00434871669858694077 -0.00470457272604107857
29.1845893859863281 -198.794418334960938 -5.18151950836181641 189 1644759087.72635078 0.933912754058837891 -0.357405930757522583 -0.00427652103826403618 -0.00704514607787132263
31.8225822448730469 -201.13153076171875 -5.22494840621948242 190 1644759089.72664499 0.942077457904815674 -0.335324317216873169 -0.000544171140063554049 -0.00688512669876217842
34.3994903564453125 -202.679183959960938 -5.25150728225708008 191 1644759091.82677412 0.962111294269561768 -0.272586733102798462 -0.00327677838504314423 -0.0052482113242149353
36.7740745544433594 -204.063568115234375 -5.25026321411132812 192 1644759093.92599964 0.964982867240905762 -0.262250363826751709 0.00410902686417102814 -0.00398304546251893044
41.0974655151367188 -206.604873657226562 -5.2479400634765625 193 1644759095.82042217 0.966351151466369629 -0.256884545087814331 0.0118359057232737541 -0.00597368041053414345
45.694488525390625 -208.710693359375 -5.27327346801757812 194 1644759097.12775373 0.979704022407531738 -0.200048357248306274 0.00354553759098052979 -0.0121714463457465172
50.7998619079589844 -210.141677856445312 -5.25837564468383789 195 1644759098.42041039 0.992316961288452148 -0.123572714626789093 0.00542113371193408966 -0.00271753687411546707
55.8552665710449219 -211.2420654296875 -5.26695775985717773 196 1644759099.62192655 0.995368301868438721 -0.0958274602890014648 0.000791004509665071964 -0.00764620397239923477
60.8798637390136719 -211.806442260742188 -5.26834297180175781 197 1644759100.82374191 0.999489367008209229 -0.0297099258750677109 0.00353708514012396336 -0.011218588799238205
65.9750137329101562 -211.725540161132812 -5.24896764755249023 198 1644759102.11967564 0.999812841415405273 0.0144366556778550148 0.0096315871924161911 -0.0085521182045340538
71.0687103271484375 -211.494552612304688 -5.27307558059692383 199 1644759103.42079329 0.999714493751525879 0.0229783728718757629 -0.000887526955921202898 -0.00649550044909119606
76.2240447998046875 -211.235519409179688 -5.27390480041503906 200 1644759104.71951914 0.999798834323883057 0.0196279212832450867 -0.00211916817352175713 -0.00353914708830416203
81.54193115234375 -211.169326782226562 -5.2718663215637207 201 1644759106.02196312 0.999959588050842285 0.000774090760387480259 -0.00361724011600017548 -0.00819479115307331085
86.7877426147460938 -211.089248657226562 -5.27138328552246094 202 1644759107.32010984 0.999861657619476318 0.0124995866790413857 0.00151074561290442944 -0.0108669251203536987
92.0970458984375 -210.765090942382812 -5.2720489501953125 203 1644759108.62235832 0.999542653560638428 0.0294485781341791153 0.00159903848543763161 -0.00668969238176941872
97.10693359375 -210.448089599609375 -5.26555776596069336 204 1644759109.8217268 0.999542951583862305 0.0294907242059707642 0.00417795311659574509 -0.00516705447807908058
102.272834777832031 -210.171890258789062 -5.26284074783325195 205 1644759111.02131295 0.99968034029006958 0.0242297854274511337 0.00498266564682126045 -0.00523125007748603821
107.444549560546875 -210.105606079101562 -5.25143861770629883 206 1644759112.22109151 0.9999656081199646 0.00488064764067530632 0.00591201847419142723 -0.00316664157435297966
112.658485412597656 -209.963623046875 -5.26551389694213867 207 1644759113.42109799 0.999799489974975586 0.0166051201522350311 0.000121572498755995184 -0.0111912600696086884
117.881546020507812 -209.499176025390625 -5.26347589492797852 208 1644759114.62212706 0.998999118804931641 0.0442052632570266724 -0.000285749527392908931 -0.00682729436084628105
123.004798889160156 -209.339431762695312 -5.26366567611694336 209 1644759115.82087851 0.999986052513122559 -0.00367254018783569336 0.00244151684455573559 -0.00290117692202329636
128.145904541015625 -209.297760009765625 -5.24838495254516602 210 1644759117.02277756 0.999827265739440918 0.0169280786067247391 0.00376786431297659874 -0.00668578175827860832
133.401885986328125 -209.076126098632812 -5.24217319488525391 211 1644759118.22078991 0.999701380729675293 0.0219432562589645386 0.000680356926750391722 -0.0107316160574555397
138.515090942382812 -208.896865844726562 -5.26276969909667969 212 1644759119.42173529 0.99972611665725708 0.0204665642231702805 -0.000600846891757100821 -0.0113345487043261528
143.50640869140625 -208.485549926757812 -5.24872398376464844 213 1644759120.62340689 0.999057352542877197 0.0429649241268634796 0.00028156273765489459 -0.00619403226301074028
148.8623046875 -208.009033203125 -5.25199413299560547 214 1644759121.92331409 0.999396681785583496 0.0347303077578544617 0.000248671218287199736 -3.01141790259862319e-05
154.057571411132812 -207.91644287109375 -5.21739578247070312 215 1644759123.22263145 0.999825000762939453 0.0141646638512611389 0.00408356450498104095 -0.011516110971570015
159.413864135742188 -207.720046997070312 -5.0479426383972168 216 1644759124.62449646 0.999530434608459473 0.0164449326694011688 0.0191388614475727081 -0.0173849109560251236
164.428726196289062 -207.470947265625 -4.97558975219726562 217 1644759125.92458534 0.999582111835479736 0.025877825915813446 0.00779645005241036415 -0.0102526964619755745
169.750686645507812 -207.273422241210938 -4.86308145523071289 218 1644759127.32486367 0.999884665012359619 0.00409839441999793053 0.0129175307229161263 -0.00685856211930513382
174.777694702148438 -207.123077392578125 -4.72390890121459961 219 1644759128.62503147 0.999116182327270508 0.0348022468388080597 0.0190854929387569427 -0.0138352224603295326
180.145217895507812 -206.752716064453125 -4.5619049072265625 220 1644759130.02606416 0.999262452125549316 0.0330922864377498627 0.0177151281386613846 -0.00809982512146234512
185.377944946289062 -206.263824462890625 -4.38821125030517578 221 1644759131.42594647 0.998693466186523438 0.0457663200795650482 0.0157857127487659454 -0.0163575094193220139
190.530975341796875 -205.291488647460938 -4.23624706268310547 222 1644759132.82547355 0.991045236587524414 0.130991935729980469 0.0150174340233206749 -0.0210942644625902176
195.233856201171875 -203.381622314453125 -4.07640647888183594 223 1644759134.22587681 0.978151917457580566 0.206389784812927246 0.0170099679380655289 -0.0182415153831243515
200.183197021484375 -201.628875732421875 -3.92084813117980957 224 1644759135.72766566 0.99079209566116333 0.134109169244766235 0.0167734846472740173 -0.00802302639931440353
205.139724731445312 -200.685195922851562 -3.77620458602905273 225 1644759137.22512245 0.994329214096069336 0.103582724928855896 0.0154130756855010986 -0.018504660576581955
210.149276733398438 -200.128128051757812 -3.73583817481994629 226 1644759139.12511802 0.998824179172515869 0.00873074959963560104 -0.0119342589750885963 -0.046169716864824295
215.099212646484375 -198.523788452148438 -3.57229423522949219 227 1644759141.1254847 0.985330104827880859 0.170264288783073425 0.0114221321418881416 -0.00205262401141226292
220.048248291015625 -196.81561279296875 -3.41393160820007324 228 1644759143.12628675 0.99606621265411377 0.0863211750984191895 0.0171946212649345398 0.0102524487301707268
225.23785400390625 -196.324417114257812 -3.23131227493286133 229 1644759144.72376728 0.998149871826171875 0.0583772137761116028 0.0169618576765060425 -0.00110597023740410805
230.38653564453125 -195.402374267578125 -3.06208515167236328 230 1644759146.32176638 0.995281755924224854 0.093460962176322937 0.0259251333773136139 -0.0026663558091968298
235.50146484375 -194.291091918945312 -2.89298105239868164 231 1644759147.92018914 0.994854450225830078 0.0990673452615737915 0.0191173627972602844 0.00920960213989019394
240.250778198242188 -192.2562255859375 -2.77207660675048828 232 1644759149.72038412 0.974667966365814209 0.222672954201698303 0.0114100929349660873 0.0175760295242071152
245.264373779296875 -191.205963134765625 -2.63317155838012695 233 1644759151.61903262 0.996041536331176758 0.0876737833023071289 0.0128082791343331337 -0.00710730720311403275
250.246261596679688 -190.67718505859375 -2.50552821159362793 234 1644759153.32171106 0.999020040035247803 0.0404447354376316071 0.0132015226408839226 -0.0122027276083827019
254.095352172851562 -190.375152587890625 -2.38672447204589844 235 1644759155.42025256 0.997747123241424561 0.0631183385848999023 0.0107397688552737236 -0.0200348943471908569
257.099945068359375 -189.715377807617188 -2.27303004264831543 236 1644759157.42279482 0.995069682598114014 0.0966160967946052551 0.0175930205732584 -0.013860723003745079
262.092529296875 -188.970413208007812 -2.13653302192687988 237 1644759159.31952024 0.997988700866699219 0.0616713128983974457 0.012956840917468071 -0.00688303634524345398
266.68670654296875 -188.347030639648438 -1.9668964147567749 238 1644759161.32172084 0.991129159927368164 0.130359143018722534 0.0148363923653960228 -0.0211994331330060959
270.92510986328125 -186.583297729492188 -1.80096876621246338 239 1644759163.32255411 0.992726743221282959 0.118081778287887573 0.0217419490218162537 -0.00880840420722961426
276.002471923828125 -185.915756225585938 -1.39573872089385986 240 1644759165.12231755 0.995388627052307129 0.0730708912014961243 0.0610004253685474396 -0.0118768205866217613
281.058685302734375 -184.583633422851562 -1.25289976596832275 241 1644759166.81906104 0.98779064416885376 0.154549926519393921 0.010953294113278389 -0.0162465423345565796
285.769439697265625 -182.886459350585938 -1.06479525566101074 242 1644759168.32047796 0.984022200107574463 0.175504431128501892 0.0254180300980806351 -0.0158884543925523758
290.67529296875 -181.412338256835938 -0.906366407871246338 243 1644759169.81897998 0.991120576858520508 0.131137490272521973 0.019248373806476593 -0.0106038227677345276
295.552734375 -179.743072509765625 -1.05610752105712891 244 1644759171.21967101 0.987001955509185791 0.158523157238960266 -0.0259800124913454056 -0.00475617637857794762
300.3973388671875 -177.894607543945312 -0.800573289394378662 245 1644759172.6196022 0.97996896505355835 0.196551859378814697 0.0250725876539945602 -0.0199898723512887955
305.1380615234375 -175.755386352539062 -0.546032607555389404 246 1644759173.92008591 0.976402997970581055 0.212806373834609985 0.0309981834143400192 -0.0197411999106407166
310.00921630859375 -173.555557250976562 -0.238518401980400085 247 1644759175.22064209 0.976648509502410889 0.210874006152153015 0.0388284772634506226 -0.0134958848357200623
314.75103759765625 -171.354476928710938 0.0447172485291957855 248 1644759176.52227569 0.977179765701293945 0.210731446743011475 0.0218857098370790482 -0.015262998640537262
319.205810546875 -168.959182739257812 0.345472484827041626 249 1644759178.12267184 0.966886818408966064 0.253468245267868042 0.0274135544896125793 -0.0114970775321125984
323.519287109375 -166.264923095703125 0.574869334697723389 250 1644759180.02419376 0.94264984130859375 0.330118089914321899 0.0102771623060107231 -0.0482468008995056152
324.3636474609375 -164.677719116210938 0.765223562717437744 251 1644759180.82563496 0.868612527847290039 0.491742998361587524 0.0370181463658809662 -0.0482779666781425476
324.587249755859375 -163.158493041992188 0.956554710865020752 252 1644759181.42347598 0.769450068473815918 0.634324371814727783 0.0264611449092626572 -0.0698495581746101379
324.07586669921875 -160.636016845703125 1.25407767295837402 253 1644759182.32082129 0.63740384578704834 0.767684698104858398 0.0394705571234226227 -0.0530906282365322113
321.721466064453125 -156.26080322265625 1.88498437404632568 254 1644759183.91964102 0.489009976387023926 0.869558572769165039 0.046201750636100769 -0.051015067845582962
318.425140380859375 -152.168655395507812 2.43348288536071777 255 1644759185.42082405 0.41967850923538208 0.905598819255828857 0.0396009758114814758 -0.0468238778412342072
314.81549072265625 -148.274810791015625 3.00985264778137207 256 1644759186.81890726 0.404750317335128784 0.911749541759490967 0.0488775558769702911 -0.0500090941786766052
311.13006591796875 -144.72686767578125 3.5814816951751709 257 1644759188.11848736 0.353845298290252686 0.933303415775299072 0.0334685295820236206 -0.0511669963598251343
306.781463623046875 -141.647140502929688 4.07412528991699219 258 1644759189.41957951 0.28405800461769104 0.957512021064758301 0.0244970358908176422 -0.0433786883950233459
302.16839599609375 -139.222305297851562 4.51706647872924805 259 1644759190.61912632 0.236133798956871033 0.970564961433410645 0.0273444335907697678 -0.0386878214776515961
297.6650390625 -137.018264770507812 4.92831182479858398 260 1644759191.719203 0.228900730609893799 0.972185492515563965 0.0325336232781410217 -0.0374354012310504913
292.92584228515625 -134.81793212890625 5.31079244613647461 261 1644759192.8189559 0.217067241668701172 0.974943876266479492 0.0328394398093223572 -0.0358857251703739166
288.44647216796875 -132.580551147460938 5.58876800537109375 262 1644759193.81868815 0.248294442892074585 0.967989921569824219 0.0262195449322462082 -0.0256503112614154816
284.0675048828125 -129.805633544921875 5.77597808837890625 263 1644759194.82247519 0.291988790035247803 0.955698788166046143 0.0341309867799282074 -0.0147445453330874443
279.88232421875 -126.820075988769531 5.95306921005249023 264 1644759195.82258391 0.306975454092025757 0.951506078243255615 0.013652971014380455 -0.014692218042910099
275.881317138671875 -123.811302185058594 6.0387873649597168 265 1644759196.71916032 0.320703685283660889 0.947108328342437744 -0.000324531312799081206 -0.0116141447797417641
271.665435791015625 -120.447235107421875 6.09855413436889648 266 1644759197.62017274 0.318470239639282227 0.94772261381149292 -0.0113939698785543442 -0.0163945164531469345
267.568328857421875 -117.5777587890625 6.13152933120727539 267 1644759198.42149973 0.305446773767471313 0.952142775058746338 -0.00461372127756476402 -0.0102506829425692558
263.485443115234375 -114.598258972167969 6.17988252639770508 268 1644759199.21878743 0.310240268707275391 0.95053255558013916 -0.0118552837520837784 -0.00991644058376550674
259.4180908203125 -111.543769836425781 6.20527029037475586 269 1644759200.0189786 0.323091268539428711 0.946281194686889648 -0.010382981039583683 -0.00749192386865615845
255.491912841796875 -108.246849060058594 6.21675300598144531 270 1644759200.81916118 0.353700369596481323 0.935322821140289307 -0.00791470427066087723 -0.00216264883056282997
251.83197021484375 -104.651138305664062 6.23005819320678711 271 1644759201.61958885 0.393204450607299805 0.919409036636352539 -0.007693516556173563 -0.00425583589822053909
248.47857666015625 -100.763282775878906 6.25370121002197266 272 1644759202.42044806 0.429058223962783813 0.903242349624633789 -0.00395244080573320389 -0.00683438312262296677
245.495834350585938 -96.5292282104492188 6.22639036178588867 273 1644759203.220783 0.484178692102432251 0.874916374683380127 0.00949505344033241272 0.00146021728869527578
243.197357177734375 -91.8973236083984375 6.24048995971679688 274 1644759204.02153111 0.546408176422119141 0.837514162063598633 0.0011364504462108016 0.00262148864567279816
241.3026123046875 -87.133148193359375 6.28171157836914062 275 1644759204.82269168 0.562187373638153076 0.826936304569244385 -0.0064505748450756073 -0.00894917082041501999
239.452789306640625 -81.9649200439453125 6.30204963684082031 276 1644759205.71991992 0.586090981960296631 0.810192108154296875 -0.0074178776703774929 -0.00557717820629477501
238.109817504882812 -77.05413818359375 6.32397031784057617 277 1644759206.61985493 0.617352664470672607 0.786661148071289062 -0.00150096393190324306 -0.00613275356590747833
237.169479370117188 -71.9110641479492188 6.33093547821044922 278 1644759207.61684299 0.649048030376434326 0.760705351829528809 -0.00126655865460634232 -0.00790208671241998672
236.582931518554688 -66.500579833984375 6.34595251083374023 279 1644759208.71777248 0.67892920970916748 0.73417973518371582 0.00374235794879496098 -0.00460988515987992287
236.309097290039062 -61.0365715026855469 6.37253236770629883 280 1644759209.7230885 0.690513074398040771 0.723218917846679688 0.00207976321689784527 -0.0119058266282081604
235.771148681640625 -55.6689682006835938 6.41490507125854492 281 1644759210.72116804 0.65825498104095459 0.752736032009124756 0.00163458206225186586 -0.00928267277777194977
234.161239624023438 -50.5527877807617188 6.47506237030029297 282 1644759211.71812868 0.549896419048309326 0.835144758224487305 -0.00872170645743608475 -0.00843400508165359497
231.011764526367188 -46.2744827270507812 6.52957916259765625 283 1644759212.7198143 0.415225386619567871 0.909656405448913574 -0.00170973443891853094 -0.0104980785399675369
226.91839599609375 -42.8467864990234375 6.56695032119750977 284 1644759213.72236466 0.308889001607894897 0.95091712474822998 -0.01672322116792202 -0.00803122483193874359
221.887466430664062 -40.8449974060058594 6.56855249404907227 285 1644759214.71836114 0.161397472023963928 0.986875653266906738 0.00362690701149404049 -0.00376395438797771931
217.219085693359375 -38.9015541076660156 6.54979228973388672 286 1644759215.61951852 0.217430248856544495 0.975928008556365967 0.0169787425547838211 -0.000597694132011383772
212.364212036132812 -36.5160484313964844 6.52512979507446289 287 1644759216.51794219 0.239971905946731567 0.970334529876708984 0.0293657984584569931 -0.00141780066769570112
208.065765380859375 -33.9139862060546875 6.52244281768798828 288 1644759217.32094693 0.285187780857086182 0.957917213439941406 0.0296204853802919388 0.0136087015271186829
