# .PCD v0.7 - Point Cloud Data file format
VERSION 0.7
FIELDS x y z intensity t qx qy qz qw
SIZE 4 4 4 4 8 4 4 4 4
TYPE F F F F F F F F F
COUNT 1 1 1 1 1 1 1 1 1
WIDTH 276
HEIGHT 1
VIEWPOINT 0 0 0 1 0 0 0
POINTS 276
DATA ascii
-10.2060718536376953 -8.5218505859375 8.45066547393798828 120 1644759000.02884316 0.140727996826171875 0.989784657955169678 -0.00260405801236629486 -0.0226967278867959976
-15.1523780822753906 -6.81839942932128906 8.50797939300537109 121 1644759001.0295682 0.178538292646408081 0.983916819095611572 -0.00244375318288803101 -0.00507511012256145477
-19.8091354370117188 -4.32372856140136719 8.57925701141357422 122 1644759002.1299932 0.274472892284393311 0.961396574974060059 -0.0109307318925857544 -0.0161798968911170959
-23.9765663146972656 -1.44501376152038574 8.66838645935058594 123 1644759003.22898006 0.284522742033004761 0.958373010158538818 -0.0168596096336841583 -0.0168433263897895813
-29.1578216552734375 -0.259300827980041504 8.80660820007324219 124 1644759004.43078995 0.0169783048331737518 0.999573469161987305 -0.0189436674118041992 -0.0143425110727548599
-33.9274673461914062 -2.578460693359375 8.78934192657470703 125 1644759005.63158298 -0.328736722469329834 0.943915307521820068 -0.0282647963613271713 0.0125386836007237434
-35.3727951049804688 -4.8749537467956543 8.74954509735107422 126 1644759006.228122 -0.49934050440788269 0.865617513656616211 -0.0253518335521221161 0.0268826764076948166
-35.8365478515625 -7.57750463485717773 8.69627475738525391 127 1644759006.8300693 -0.657176613807678223 0.752739131450653076 -0.0213667247444391251 0.0323445387184619904
-35.2024116516113281 -10.2823867797851562 8.62460803985595703 128 1644759007.42747355 -0.794562935829162598 0.605554044246673584 -0.0126892374828457832 0.04257969930768013
-33.5470390319824219 -12.4895496368408203 8.58659648895263672 129 1644759008.030195 -0.901199758052825928 0.43095824122428894 -0.0132072623819112778 0.0440404191613197327
-31.1670646667480469 -13.8571195602416992 8.57309150695800781 130 1644759008.62921548 -0.968775272369384766 0.244154378771781921 -0.00423791119828820229 0.0429552607238292694
-28.0781936645507812 -14.3069829940795898 8.60912513732910156 131 1644759009.32932997 -0.99761432409286499 0.0637506768107414246 -0.00784723088145256042 0.0252965893596410751
-24.0730781555175781 -13.5924167633056641 8.56315040588378906 132 1644759010.23104095 -0.990904688835144043 -0.130366578698158264 0.0112065523862838745 0.0314138680696487427
-21.1014156341552734 -11.6579198837280273 8.55746364593505859 133 1644759011.02982497 -0.94674605131149292 -0.320346355438232422 0.00646053114905953407 0.0317545905709266663
-19.6017093658447266 -9.44349288940429688 8.57419872283935547 134 1644759011.62643218 -0.871746540069580078 -0.487880676984786987 0.0226940903812646866 0.0389279164373874664
-19.1969242095947266 -6.79536962509155273 8.58304500579833984 135 1644759012.23063779 -0.751282334327697754 -0.659010350704193115 0.0239798575639724731 0.0265549179166555405
-19.6885147094726562 -4.63277769088745117 8.56989002227783203 136 1644759012.72658467 -0.623824238777160645 -0.780584573745727539 0.0337856709957122803 0.0197363067418336868
-20.9333229064941406 -2.77971482276916504 8.57537269592285156 137 1644759013.22962594 -0.475745707750320435 -0.878817975521087646 0.0326640568673610687 0.0166755039244890213
-29.1866855621337891 0.210772216320037842 8.80029869079589844 138 1644759015.32659197 -0.0126396194100379944 -0.999662220478057861 0.0202060192823410034 0.0103633822873234749
-35.581878662109375 -5.81687641143798828 8.73667430877685547 139 1644759017.4245069 0.617978215217590332 -0.784961462020874023 0.0269579943269491196 -0.0348100140690803528
-31.6606731414794922 -15.1457815170288086 8.53522491455078125 140 1644759019.52364039 0.835459232330322266 -0.549389243125915527 -0.00529999658465385437 -0.0122978324070572853
-30.3802547454833984 -20.2733039855957031 8.39559078216552734 141 1644759020.52455926 0.772104263305664062 -0.635089337825775146 0.00165022839792072773 -0.0226677656173706055
-29.7307853698730469 -25.7339572906494141 8.12226772308349609 142 1644759021.52518058 0.733725368976593018 -0.678847372531890869 -0.0259210225194692612 -0.0118935126811265945
-29.3535232543945312 -31.1736412048339844 7.83051633834838867 143 1644759022.52426338 0.725860774517059326 -0.687213659286499023 -0.0290780570358037949 -0.00424576504155993462
-29.1770668029785156 -36.6882400512695312 7.54307842254638672 144 1644759023.52478909 0.708212137222290039 -0.705202639102935791 -0.0335378237068653107 -0.000161066549480892718
-29.3400115966796875 -42.1444511413574219 7.24458646774291992 145 1644759024.52220535 0.688490808010101318 -0.724350690841674805 -0.0355864949524402618 -0.00548567948862910271
-29.826019287109375 -47.2150497436523438 7.01133489608764648 146 1644759025.5228436 0.667840480804443359 -0.743587672710418701 -0.0278544183820486069 -0.0170461758971214294
-30.6709938049316406 -52.3073081970214844 6.87395191192626953 147 1644759026.72520089 0.60187298059463501 -0.797499895095825195 -0.0379883125424385071 0.017314201220870018
-32.3848762512207031 -54.9175491333007812 6.92990255355834961 148 1644759027.62349653 0.448892474174499512 -0.892975807189941406 -0.0268972460180521011 0.0191390588879585266
-34.2755546569824219 -56.02435302734375 7.03659391403198242 149 1644759028.42595601 0.26903572678565979 -0.962832629680633545 -0.0131686078384518623 0.0199934672564268112
-37.055572509765625 -56.4256248474121094 7.22638463973999023 150 1644759029.62428308 0.091031193733215332 -0.994255244731903076 0.0174368657171726227 0.0535335280001163483
-42.1658477783203125 -56.4440727233886719 7.26681423187255859 151 1644759031.12617469 -0.0297622159123420715 -0.999482631683349609 -0.0102937258780002594 -0.00653192866593599319
-47.2380752563476562 -56.1052665710449219 7.43694877624511719 152 1644759032.92486191 -0.00981281138956546783 -0.999763727188110352 -0.0121076591312885284 0.0151543617248535156
-52.3870391845703125 -57.1771354675292969 7.33741283416748047 153 1644759034.53114247 0.144724756479263306 -0.988998889923095703 -0.0260850396007299423 -0.0159828886389732361
-54.87823486328125 -61.425750732421875 7.05752706527709961 154 1644759036.62650418 0.64838021993637085 -0.758504629135131836 0.043236464262008667 -0.0490351170301437378
-54.8736076354980469 -66.2883682250976562 6.67099714279174805 155 1644759038.72745633 0.676422953605651855 -0.734789013862609863 -0.0276550445705652237 -0.0420989543199539185
-55.4039306640625 -71.4979782104492188 6.21500396728515625 156 1644759040.42664099 0.658057570457458496 -0.751734316349029541 -0.0279495902359485626 -0.0327813215553760529
-55.9008026123046875 -76.4686355590820312 5.8050384521484375 157 1644759041.82684708 0.685842454433441162 -0.726540505886077881 -0.020645778626203537 -0.0365069881081581116
-56.2363166809082031 -81.6004486083984375 5.38194131851196289 158 1644759043.12566614 0.679090797901153564 -0.73340916633605957 -0.0130855394527316093 -0.0278476960957050323
-56.6609649658203125 -86.7625656127929688 4.94287729263305664 159 1644759044.32813549 0.684440851211547852 -0.72786945104598999 -0.0194855406880378723 -0.0369741767644882202
-56.8468093872070312 -91.7456283569335938 4.53724336624145508 160 1644759045.42801547 0.6944083571434021 -0.718291878700256348 -0.0214686915278434753 -0.0373214930295944214
-56.9542083740234375 -96.8072433471679688 4.05277490615844727 161 1644759046.52796745 0.693191409111022949 -0.718874514102935791 -0.0345181189477443695 -0.0389045141637325287
-56.5930137634277344 -102.161590576171875 3.56943845748901367 162 1644759047.82868052 0.741682052612304688 -0.668851375579833984 -0.0253342576324939728 -0.043631482869386673
-55.4316635131835938 -107.338607788085938 3.04682111740112305 163 1644759049.12968254 0.784874796867370605 -0.617594420909881592 -0.029917445033788681 -0.0406649522483348846
-54.1879081726074219 -112.430488586425781 2.51362299919128418 164 1644759050.42958665 0.792698562145233154 -0.607740700244903564 -0.0303546078503131866 -0.0368623770773410797
-52.2409706115722656 -117.210624694824219 2.00631999969482422 165 1644759051.73034024 0.842287182807922363 -0.536661267280578613 -0.0317359417676925659 -0.0392413027584552765
-49.893310546875 -121.812667846679688 1.56707525253295898 166 1644759053.02789402 0.855452895164489746 -0.515902221202850342 -0.029682619497179985 -0.034119434654712677
-47.1687049865722656 -126.102005004882812 1.17645835876464844 167 1644759054.32539845 0.882037580013275146 -0.469095051288604736 -0.0312679484486579895 -0.0313350260257720947
-43.9231224060058594 -130.068527221679688 0.789737045764923096 168 1644759055.62474275 0.907430112361907959 -0.417556285858154297 -0.0326454378664493561 -0.0339359380304813385
-40.5263137817382812 -133.719757080078125 0.422876954078674316 169 1644759056.92844367 0.913683712482452393 -0.404676496982574463 -0.0289059896022081375 -0.0241546537727117538
-36.7869949340820312 -137.374496459960938 0.0136629883199930191 170 1644759058.22788334 0.932777941226959229 -0.357879310846328735 -0.0330343060195446014 -0.027502644807100296
-32.86822509765625 -141.061935424804688 -0.419414311647415161 171 1644759059.52692676 0.92661672830581665 -0.373612165451049805 -0.0390823446214199066 -0.0163695793598890305
-29.0891609191894531 -144.721817016601562 -0.728826940059661865 172 1644759060.92779255 0.92752450704574585 -0.373667985200881958 0.00519552407786250114 -0.00659809447824954987
-25.3818531036376953 -148.100997924804688 -1.1426156759262085 173 1644759062.42858982 0.932557761669158936 -0.358223766088485718 -0.0393284223973751068 -0.0215648654848337173
-21.6352787017822266 -151.53619384765625 -1.55615174770355225 174 1644759063.92700362 0.924448609352111816 -0.378923207521438599 -0.0370777212083339691 -0.0209108404815196991
-17.9414291381835938 -155.114883422851562 -1.96306967735290527 175 1644759065.42673421 0.92897409200668335 -0.368117481470108032 -0.0308930147439241409 -0.0232878997921943665
-14.197331428527832 -158.526824951171875 -2.35680508613586426 176 1644759066.8259573 0.933474957942962646 -0.356624007225036621 -0.0314682647585868835 -0.021296696737408638
-10.3296852111816406 -162.081893920898438 -2.75405383110046387 177 1644759068.1269536 0.927774548530578613 -0.371271967887878418 -0.0322066657245159149 -0.0188209116458892822
-6.64094257354736328 -165.6922607421875 -3.14278697967529297 178 1644759069.32773471 0.927915513515472412 -0.371239751577377319 -0.0266690962016582489 -0.0210391134023666382
-2.82902622222900391 -169.261672973632812 -3.48648214340209961 179 1644759070.52331829 0.929444551467895508 -0.368273913860321045 -0.0203326381742954254 -0.00968257244676351547
0.829160928726196289 -172.884613037109375 -3.78623700141906738 180 1644759071.72288871 0.920405387878417969 -0.390107929706573486 -0.0230032559484243393 -0.0118578262627124786
4.48630332946777344 -176.413360595703125 -4.07131004333496094 181 1644759072.92712069 0.932344615459442139 -0.36053130030632019 -0.0202193781733512878 -0.0184884853661060333
8.53358745574951172 -179.890594482421875 -4.32350254058837891 182 1644759074.22477126 0.934944212436676025 -0.3536795973777771 -0.024887552484869957 -0.0130654135718941689
12.2857675552368164 -183.40570068359375 -4.5452885627746582 183 1644759075.72778726 0.925883471965789795 -0.376919537782669067 -0.0217015538364648819 -0.0141600603237748146
16.0696506500244141 -186.84295654296875 -4.7559962272644043 184 1644759077.52255893 0.938934862613677979 -0.343491673469543457 -0.0125584127381443977 -0.016035011038184166
19.7369499206542969 -190.17584228515625 -4.89837026596069336 185 1644759079.5225842 0.925227224826812744 -0.379098623991012573 -0.0110779749229550362 -0.0107734287157654762
22.5597743988037109 -193.003814697265625 -5.00390768051147461 186 1644759081.52484679 0.925645589828491211 -0.378000617027282715 -0.0136340800672769547 -0.0104822749271988869
25.7931308746337891 -195.80853271484375 -5.11331748962402344 187 1644759083.62438965 0.939794480800628662 -0.341481775045394897 -0.010171644389629364 -0.00854642502963542938
28.117279052734375 -197.81671142578125 -5.16243124008178711 188 1644759085.62482595 0.937877178192138672 -0.346913605928421021 -0.00411278381943702698 -0.00452339835464954376
29.1828708648681641 -198.792282104492188 -5.18149280548095703 189 1644759087.72635078 0.933892011642456055 -0.357459008693695068 -0.00433644326403737068 -0.00706746429204940796
31.8241901397705078 -201.1318359375 -5.22544145584106445 190 1644759089.72664499 0.942077696323394775 -0.335326254367828369 -0.000548802141565829515 -0.00675526820123195648
34.3988685607910156 -202.681320190429688 -5.25246334075927734 191 1644759091.82677412 0.962126076221466064 -0.272539377212524414 -0.00314186816103756428 -0.00508479075506329536
36.7715415954589844 -204.064178466796875 -5.25139331817626953 192 1644759093.92599964 0.96505969762802124 -0.261964946985244751 0.00422847550362348557 -0.00403922609984874725
41.1030349731445312 -206.606948852539062 -5.24875640869140625 193 1644759095.82042217 0.966345548629760742 -0.256907999515533447 0.0118460338562726974 -0.00585336657240986824
45.6955680847167969 -208.71051025390625 -5.27302789688110352 194 1644759097.12775373 0.979726910591125488 -0.199936717748641968 0.00367168779484927654 -0.0121243223547935486
50.799713134765625 -210.141921997070312 -5.25922107696533203 195 1644759098.42041039 0.992315948009490967 -0.123585067689418793 0.00537877483293414116 -0.00261512375436723232
55.8577728271484375 -211.243896484375 -5.26851701736450195 196 1644759099.62192655 0.995364665985107422 -0.0958794131875038147 0.00078096659854054451 -0.00746149662882089615
60.8817329406738281 -211.8082275390625 -5.26864814758300781 197 1644759100.82374191 0.999488472938537598 -0.0297514926642179489 0.00363242183811962605 -0.0111566120758652687
65.9687271118164062 -211.7257080078125 -5.24832868576049805 198 1644759102.11967564 0.999813616275787354 0.0143866697326302528 0.0097311725839972496 -0.00843255501240491867
71.0670013427734375 -211.493423461914062 -5.27221441268920898 199 1644759103.42079329 0.999712705612182617 0.0229847636073827744 -0.000945197243709117174 -0.00673375651240348816
76.2184829711914062 -211.234176635742188 -5.27390766143798828 200 1644759104.71951914 0.999799370765686035 0.0196121856570243835 -0.00205932045355439186 -0.00351614714600145817
81.544677734375 -211.169525146484375 -5.27199029922485352 201 1644759106.02196312 0.999960064888000488 0.000843354850076138973 -0.00348428566940128803 -0.00818393006920814514
86.7869110107421875 -211.089797973632812 -5.27215862274169922 202 1644759107.32010984 0.99986112117767334 0.012460523284971714 0.00155950430780649185 -0.0109574031084775925
92.0936965942382812 -210.765518188476562 -5.27218961715698242 203 1644759108.62235832 0.999542891979217529 0.029416186735033989 0.00146058399695903063 -0.00682307453826069832
97.11126708984375 -210.4483642578125 -5.26548480987548828 204 1644759109.8217268 0.999546170234680176 0.0293516740202903748 0.00427390821278095245 -0.00526288757100701332
102.274749755859375 -210.173202514648438 -5.26371860504150391 205 1644759111.02131295 0.999683976173400879 0.0241564903408288956 0.00469941133633255959 -0.00513014383614063263
107.443275451660156 -210.10687255859375 -5.25364255905151367 206 1644759112.22109151 0.999967515468597412 0.00487154256552457809 0.00576799921691417694 -0.00282745040021836758
112.661781311035156 -209.963668823242188 -5.26545810699462891 207 1644759113.42109799 0.999794960021972656 0.0168168805539608002 1.6216352378251031e-05 -0.0112802460789680481
117.877479553222656 -209.499282836914062 -5.26356983184814453 208 1644759114.62212706 0.999002814292907715 0.044135604053735733 -4.28117637056857347e-05 -0.0067417556419968605
123.008804321289062 -209.34027099609375 -5.26490354537963867 209 1644759115.82087851 0.999985456466674805 -0.00372365117073059082 0.00256594573147594929 -0.0029410957358777523
128.146316528320312 -209.298980712890625 -5.24891185760498047 210 1644759117.02277756 0.999826550483703613 0.0169292576611042023 0.00398008851334452629 -0.0066669774241745472
133.399444580078125 -209.07666015625 -5.24239158630371094 211 1644759118.22078991 0.999704062938690186 0.021838819608092308 0.00075937219662591815 -0.0106906117871403694
138.514480590820312 -208.896743774414062 -5.26273965835571289 212 1644759119.42173529 0.999726951122283936 0.0204392541199922562 -0.000609134905971586704 -0.011307218112051487
143.509841918945312 -208.484451293945312 -5.24848508834838867 213 1644759120.62340689 0.999053120613098145 0.043059859424829483 0.0001677491090958938 -0.0062223970890045166
148.8621826171875 -208.009063720703125 -5.25169467926025391 214 1644759121.92331409 0.999399244785308838 0.0346548594534397125 0.000344572297763079405 -0.000164453900652006269
154.056320190429688 -207.916595458984375 -5.21632957458496094 215 1644759123.22263145 0.9998207688331604 0.0143535425886511803 0.00419612834230065346 -0.0116119664162397385
159.41436767578125 -207.720367431640625 -5.04841852188110352 216 1644759124.62449646 0.999527275562286377 0.0165757536888122559 0.0191928315907716751 -0.0173795521259307861
164.429779052734375 -207.471023559570312 -4.97565364837646484 217 1644759125.92458534 0.999581992626190186 0.02585596963763237 0.00777119165286421776 -0.0103418175131082535
169.750564575195312 -207.273223876953125 -4.86351299285888672 218 1644759127.32486367 0.999882876873016357 0.00410008896142244339 0.0130301490426063538 -0.00690219830721616745
174.776016235351562 -207.123886108398438 -4.7243647575378418 219 1644759128.62503147 0.999112486839294434 0.0349283069372177124 0.019258253276348114 -0.0135429175570607185
180.14215087890625 -206.752365112304688 -4.56201553344726562 220 1644759130.02606416 0.99926292896270752 0.0331874489784240723 0.017622038722038269 -0.00785454455763101578
185.380401611328125 -206.263015747070312 -4.38847112655639648 221 1644759131.42594647 0.998693108558654785 0.0458063706755638123 0.015768151730298996 -0.0162868164479732513
190.5274658203125 -205.292007446289062 -4.23646163940429688 222 1644759132.82547355 0.991052508354187012 0.130921289324760437 0.0151699865236878395 -0.0210818257182836533
195.22979736328125 -203.380599975585938 -4.07514762878417969 223 1644759134.22587681 0.978131890296936035 0.206492260098457336 0.016789022833108902 -0.0183602087199687958
200.183547973632812 -201.629867553710938 -3.91983675956726074 224 1644759135.72766566 0.990789473056793213 0.134133249521255493 0.0166898816823959351 -0.00812128465622663498
205.135528564453125 -200.685836791992188 -3.77729105949401855 225 1644759137.22512245 0.994336128234863281 0.103487730026245117 0.0155881615355610847 -0.0185194294899702072
210.150314331054688 -200.130706787109375 -3.73656225204467773 226 1644759139.12511802 0.998827934265136719 0.00881672929972410202 -0.0118773803114891052 -0.0460861474275588989
215.099411010742188 -198.52410888671875 -3.57217025756835938 227 1644759141.1254847 0.985296487808227539 0.170463576912879944 0.0113573316484689713 -0.00200110627338290215
220.0408935546875 -196.817367553710938 -3.41379690170288086 228 1644759143.12628675 0.996057510375976562 0.0864215120673179626 0.0171224232763051987 0.0103717232123017311
225.238494873046875 -196.324874877929688 -3.23117518424987793 229 1644759144.72376728 0.998144567012786865 0.0584135986864566803 0.0171347223222255707 -0.00130435230676084757
230.38787841796875 -195.401168823242188 -3.06122112274169922 230 1644759146.32176638 0.995275497436523438 0.0935326963663101196 0.0258979648351669312 -0.00275007938034832478
235.506027221679688 -194.291152954101562 -2.89219021797180176 231 1644759147.92018914 0.994864225387573242 0.0989650636911392212 0.0191391091793775558 0.00921028386801481247
240.255508422851562 -192.254867553710938 -2.7726130485534668 232 1644759149.72038412 0.974667012691497803 0.22267855703830719 0.011365523561835289 0.0175879094749689102
245.264816284179688 -191.2069091796875 -2.6336362361907959 233 1644759151.61903262 0.996038496494293213 0.0877455770969390869 0.0126665541902184486 -0.00689906580373644829
250.24346923828125 -190.678253173828125 -2.50656270980834961 234 1644759153.32171106 0.999018073081970215 0.040586572140455246 0.0130793880671262741 -0.0120246978476643562
254.0953369140625 -190.376022338867188 -2.38626241683959961 235 1644759155.42025256 0.997741103172302246 0.0632230788469314575 0.0108175743371248245 -0.0199625957757234573
257.098358154296875 -189.714187622070312 -2.2736055850982666 236 1644759157.42279482 0.995069980621337891 0.0966373160481452942 0.0176096092909574509 -0.0136690214276313782
262.093658447265625 -188.96868896484375 -2.13092398643493652 237 1644759159.31952024 0.997986018657684326 0.0616741329431533813 0.0131077608093619347 -0.00695823831483721733
266.68707275390625 -188.34552001953125 -1.96532595157623291 238 1644759161.32172084 0.991094589233398438 0.130603134632110596 0.0148226944729685783 -0.0213229656219482422
270.919769287109375 -186.587173461914062 -1.80190873146057129 239 1644759163.32255411 0.992733001708984375 0.11804613471031189 0.0217680428177118301 -0.00850940961390733719
276.005218505859375 -185.912811279296875 -1.39474081993103027 240 1644759165.12231755 0.995380222797393799 0.0731139630079269409 0.0610814616084098816 -0.0118977967649698257
281.058746337890625 -184.585372924804688 -1.25090253353118896 241 1644759166.81906104 0.98777472972869873 0.154623046517372131 0.0109759187325835228 -0.01650274358689785
285.766632080078125 -182.887298583984375 -1.06342792510986328 242 1644759168.32047796 0.98401331901550293 0.175547853112220764 0.025495605543255806 -0.0158353280276060104
290.679473876953125 -181.414794921875 -0.905634164810180664 243 1644759169.81897998 0.991080522537231445 0.13142077624797821 0.0194360930472612381 -0.0104993926361203194
295.55535888671875 -179.745620727539062 -1.05411899089813232 244 1644759171.21967101 0.986987650394439697 0.158595249056816101 -0.0260672606527805328 -0.00484523503109812737
300.397308349609375 -177.890090942382812 -0.799553513526916504 245 1644759172.6196022 0.979973077774047852 0.196532219648361206 0.024913448840379715 -0.0201781280338764191
305.13800048828125 -175.756637573242188 -0.545992851257324219 246 1644759173.92008591 0.976430714130401611 0.212668329477310181 0.0311194732785224915 -0.01966877281665802
310.004547119140625 -173.552520751953125 -0.238282516598701477 247 1644759175.22064209 0.976631522178649902 0.210994422435760498 0.0385711751878261566 -0.0135846370831131935
314.749603271484375 -171.354217529296875 0.0440726727247238159 248 1644759176.52227569 0.977193892002105713 0.210684150457382202 0.0217144452035427094 -0.0152575178071856499
319.205902099609375 -168.960281372070312 0.345174521207809448 249 1644759178.12267184 0.966917216777801514 0.253333806991577148 0.0275458898395299911 -0.011587880551815033
323.516937255859375 -166.264877319335938 0.573709487915039062 250 1644759180.02419376 0.942712128162384033 0.329919517040252686 0.0106103178113698959 -0.0483160093426704407
324.3642578125 -164.6749267578125 0.766012489795684814 251 1644759180.82563496 0.868623197078704834 0.491733163595199585 0.0367236919701099396 -0.0484104454517364502
324.58941650390625 -163.162307739257812 0.956064403057098389 252 1644759181.42347598 0.769489705562591553 0.634270787239074707 0.0266322549432516098 -0.0698345303535461426
324.07568359375 -160.636825561523438 1.25377058982849121 253 1644759182.32082129 0.637553632259368896 0.76755678653717041 0.0393439196050167084 -0.0532349720597267151
321.72149658203125 -156.25836181640625 1.88589620590209961 254 1644759183.91964102 0.488915503025054932 0.86960911750793457 0.0462911203503608704 -0.0509777069091796875
318.423553466796875 -152.166778564453125 2.43353557586669922 255 1644759185.42082405 0.419522702693939209 0.905670106410980225 0.0397584177553653717 -0.0467077754437923431
314.8131103515625 -148.27105712890625 3.01134300231933594 256 1644759186.81890726 0.404792994260787964 0.911725640296936035 0.0490084551274776459 -0.0499719046056270599
311.1278076171875 -144.728378295898438 3.58099508285522461 257 1644759188.11848736 0.354016810655593872 0.933236122131347656 0.0332767665386199951 -0.0513328798115253448
306.786590576171875 -141.650253295898438 4.07251405715942383 258 1644759189.41957951 0.284045994281768799 0.95751875638961792 0.0244473740458488464 -0.0433359667658805847
302.166534423828125 -139.222000122070312 4.51531839370727539 259 1644759190.61912632 0.236280143260955811 0.970530867576599121 0.0272088218480348587 -0.0387447960674762726
297.666534423828125 -137.023178100585938 4.92688989639282227 260 1644759191.719203 0.228899911046028137 0.972186028957366943 0.0323077775537967682 -0.0376209169626235962
292.926422119140625 -134.821945190429688 5.31077766418457031 261 1644759192.8189559 0.217042684555053711 0.974949777126312256 0.0330264084041118622 -0.0357025638222694397
288.443023681640625 -132.578903198242188 5.58835935592651367 262 1644759193.81868815 0.248113617300987244 0.968034505844116211 0.0261517353355884552 -0.0257869530469179153
284.06884765625 -129.8056640625 5.77726221084594727 263 1644759194.82247519 0.291942775249481201 0.955712795257568359 0.0340962149202823639 -0.014830305241048336
279.88031005859375 -126.819320678710938 5.95455551147460938 264 1644759195.82258391 0.306958019733428955 0.951515316963195801 0.0132274068892002106 -0.0148463370278477669
275.884796142578125 -123.8133544921875 6.03996610641479492 265 1644759196.71916032 0.32082366943359375 0.94706648588180542 -0.000374336057575419545 -0.0117108430713415146
271.6610107421875 -120.444046020507812 6.09897851943969727 266 1644759197.62017274 0.318502902984619141 0.947715103626251221 -0.0111354952678084373 -0.0163713060319423676
267.0633544921875 -117.212974548339844 6.14048480987548828 267 1644759198.51930451 0.308091044425964355 0.95128166675567627 -0.00559400208294391632 -0.0105735063552856445
262.979034423828125 -114.223182678222656 6.18343544006347656 268 1644759199.31919694 0.313106238842010498 0.94959491491317749 -0.0120675377547740936 -0.00939651951193809509
258.912384033203125 -111.146827697753906 6.2055201530456543 269 1644759200.11975813 0.326257795095443726 0.945204734802246094 -0.00908694043755531311 -0.00782774481922388077
255.019241333007812 -107.809226989746094 6.21632719039916992 270 1644759200.91984344 0.35822024941444397 0.933569967746734619 -0.0106704048812389374 -0.00339130847714841366
251.387786865234375 -104.176010131835938 6.23420476913452148 271 1644759201.72066617 0.395204693078994751 0.918555855751037598 -0.00583277828991413116 -0.00586063368245959282
248.0692138671875 -100.2371826171875 6.24895143508911133 272 1644759202.52227306 0.437271833419799805 0.899309813976287842 -0.00470771500840783119 -0.00361787457950413227
245.159286499023438 -95.962738037109375 6.22826004028320312 273 1644759203.32268882 0.49187624454498291 0.870603740215301514 0.00979622267186641693 0.00330674485303461552
242.962066650390625 -91.3242874145507812 6.2522273063659668 274 1644759204.12025142 0.5504952073097229 0.834826946258544922 0.00386911258101463318 -0.00200126040726900101
241.081283569335938 -86.56048583984375 6.28306007385253906 275 1644759204.91932011 0.564505219459533691 0.82536923885345459 -0.00624343939125537872 -0.00777868088334798813
239.27593994140625 -81.3912506103515625 6.30598545074462891 276 1644759205.82110572 0.589683830738067627 0.807600080966949463 -0.00484619289636611938 -0.00562329264357686043
237.9910888671875 -76.5090560913085938 6.32860660552978516 277 1644759206.72285128 0.621712088584899902 0.783220469951629639 -0.00122043490409851074 -0.00618837680667638779
237.095916748046875 -71.4004745483398438 6.33210277557373047 278 1644759207.71838498 0.65142059326171875 0.758677840232849121 -0.00430298689752817154 -0.00637721503153443336
236.556472778320312 -65.9590911865234375 6.34876012802124023 279 1644759208.82073402 0.681432664394378662 0.731863856315612793 0.00135800789576023817 -0.00479103997349739075
236.268569946289062 -60.5066413879394531 6.37792062759399414 280 1644759209.81898189 0.686361372470855713 0.727188348770141602 0.0036622779443860054 -0.00957644544541835785
235.665740966796875 -55.1477890014648438 6.4198145866394043 281 1644759210.82337999 0.652872085571289062 0.757427036762237549 0.00239125150255858898 -0.00752485916018486023
233.88421630859375 -50.032562255859375 6.4579615592956543 282 1644759211.82227349 0.543482005596160889 0.839313089847564697 -0.0133096426725387573 0.00193614128511399031
230.625167846679688 -45.8893585205078125 6.53632116317749023 283 1644759212.82132459 0.400645941495895386 0.916200578212738037 -0.000101582103525288403 -0.00770200416445732117
226.427383422851562 -42.5962982177734375 6.56834077835083008 284 1644759213.82379508 0.280039131641387939 0.959948182106018066 -0.00765580823644995689 -0.00435304455459117889
221.366989135742188 -40.6527061462402344 6.56805038452148438 285 1644759214.81913877 0.167146027088165283 0.985930740833282471 0.00106648937799036503 0.00126436178106814623
216.697235107421875 -38.6335525512695312 6.54854393005371094 286 1644759215.72070408 0.227341756224632263 0.973707735538482666 0.0143379447981715202 -0.00184054812416434288
211.816726684570312 -36.2292671203613281 6.52708721160888672 287 1644759216.61937022 0.248892486095428467 0.968014717102050781 0.0315738692879676819 -0.00175788276828825474
207.570083618164062 -33.5804786682128906 6.52935266494750977 288 1644759217.42129087 0.292199492454528809 0.955658614635467529 0.0364429093897342682 0.00282733934000134468
203.510726928710938 -30.5661125183105469 6.52863836288452148 289 1644759218.21918082 0.324645251035690308 0.945646941661834717 0.0161474663764238358 0.00982460658997297287
199.541427612304688 -27.4617805480957031 6.57570219039916992 290 1644759219.0200386 0.318520396947860718 0.947844207286834717 0.0103962058201432228 -0.00529207987710833549
195.538131713867188 -24.3994998931884766 6.67648601531982422 291 1644759219.82097363 0.336327344179153442 0.941355049610137939 0.0249612536281347275 -0.0105623975396156311
191.493255615234375 -20.6023616790771484 6.77696800231933594 292 1644759220.7219944 0.37188294529914856 0.92821037769317627 -0.00495159532874822617 -0.0102015705779194832
187.590377807617188 -16.7869338989257812 6.83090114593505859 293 1644759221.62131476 0.385691791772842407 0.922534465789794922 -0.00553554017096757889 -0.0118870846927165985
183.759506225585938 -12.8543815612792969 6.86556243896484375 294 1644759222.523561 0.399599820375442505 0.916566014289855957 0.00680687278509140015 -0.0134324971586465836
180.100265502929688 -8.66324234008789062 6.97433280944824219 295 1644759223.42150068 0.430971354246139526 0.902340948581695557 0.00469250185415148735 -0.00474034156650304794
176.52117919921875 -4.4350895881652832 7.17874431610107422 296 1644759224.32207847 0.405582696199417114 0.913609147071838379 0.0216809418052434921 -0.0187322255223989487
172.582275390625 -0.514100313186645508 7.37343645095825195 297 1644759225.22190976 0.372345149517059326 0.927768290042877197 0.0168124828487634659 -0.0179564394056797028
168.4100341796875 3.10235190391540527 7.54898977279663086 298 1644759226.11819816 0.347288370132446289 0.937027335166931152 0.0338142439723014832 -0.0150731718167662621
164.198974609375 6.78119564056396484 7.76567745208740234 299 1644759227.02400589 0.349416673183441162 0.936656653881072998 0.0108168171718716621 -0.0215695425868034363
160.113525390625 10.4893684387207031 7.97544384002685547 300 1644759227.92283869 0.367788463830947876 0.929173409938812256 0.00725002214312553406 -0.0362749211490154266
156.182540893554688 14.3974933624267578 8.14898967742919922 301 1644759228.81748009 0.395316898822784424 0.918389678001403809 0.00631394144147634506 -0.0156557876616716385
152.413909912109375 18.4234447479248047 8.40060997009277344 302 1644759229.71761441 0.397029370069503784 0.917414009571075439 0.0133013026788830757 -0.0232875868678092957
148.695938110351562 22.5061836242675781 8.57960987091064453 303 1644759230.61805701 0.399308651685714722 0.916615605354309082 -0.00492455903440713882 -0.0185513198375701904
144.899063110351562 26.0356578826904297 8.57694149017333984 304 1644759231.52040815 0.35453227162361145 0.93496626615524292 -0.00659938575699925423 0.0100671341642737389
140.21807861328125 28.4617042541503906 8.41635227203369141 305 1644759232.61841893 0.184520900249481201 0.982674241065979004 4.02024743380025029e-05 0.0174178164452314377
137.194625854492188 28.5734977722167969 8.28300285339355469 306 1644759233.31851268 -0.000712758046574890614 0.999816238880157471 -0.000391070934711024165 0.0191516485065221786
132.73504638671875 26.3963756561279297 7.9121551513671875 307 1644759234.41900659 -0.279273182153701782 0.959533095359802246 0.013753044418990612 0.0333703234791755676
128.892837524414062 22.8943881988525391 7.51592111587524414 308 1644759235.32153893 -0.375287115573883057 0.926208317279815674 0.0180458016693592072 0.0311789531260728836
125.384513854980469 19.0230331420898438 7.11603546142578125 309 1644759236.11646819 -0.409169316291809082 0.911749303340911865 0.020615769550204277 0.0294733066111803055
121.707038879394531 14.8800315856933594 6.70350074768066406 310 1644759236.91615391 -0.394789695739746094 0.917858779430389404 0.0280860420316457748 0.0297907330095767975
118.242286682128906 11.2887592315673828 6.35817623138427734 311 1644759237.61685467 -0.395442783832550049 0.917812108993530273 0.0159979648888111115 0.0314651280641555786
114.742752075195312 7.52687692642211914 5.9680938720703125 312 1644759238.31866336 -0.390523254871368408 0.919690907001495361 0.0238084327429533005 0.0330655351281166077
111.030174255371094 3.88429641723632812 5.58523082733154297 313 1644759239.01813221 -0.372923344373703003 0.927377879619598389 0.018931705504655838 0.0232391152530908585
107.23345947265625 0.159739241003990173 5.18313503265380859 314 1644759239.71593261 -0.376351088285446167 0.925812304019927979 0.0254521686583757401 0.0241575296968221664
103.379730224609375 -3.62340140342712402 4.80014228820800781 315 1644759240.41550398 -0.375329524278640747 0.926186263561248779 0.0282137654721736908 0.022598830983042717
99.483306884765625 -7.45136308670043945 4.46747112274169922 316 1644759241.11534262 -0.375633955001831055 0.926147758960723877 0.0248112138360738754 0.0231055058538913727
95.5383224487304688 -11.2914400100708008 4.15578365325927734 317 1644759241.81842136 -0.376585155725479126 0.925759255886077881 0.0165515877306461334 0.0296557731926441193
91.6339569091796875 -15.1153764724731445 3.87046360969543457 318 1644759242.51720595 -0.377173930406570435 0.925716519355773926 0.0104210088029503822 0.0260792411863803864
87.6844100952148438 -18.9359245300292969 3.55654382705688477 319 1644759243.21748161 -0.370036691427230835 0.928507447242736816 0.0131475599482655525 0.0278193000704050064
83.7425918579101562 -22.7456760406494141 3.21823978424072266 320 1644759243.91502428 -0.37475702166557312 0.926613569259643555 0.0163862686604261398 0.0259995311498641968
79.7682571411132812 -26.5953750610351562 2.88023853302001953 321 1644759244.61631417 -0.37282717227935791 0.927493035793304443 0.0188605021685361862 0.020021362230181694
75.807769775390625 -30.4092998504638672 2.69621801376342773 322 1644759245.3157146 -0.371581912040710449 0.928161859512329102 0.0195828583091497421 0.00768102379515767097
71.9106597900390625 -34.2106513977050781 2.52882862091064453 323 1644759246.01705527 -0.374837547540664673 0.926571011543273926 0.0292729660868644714 0.0102998111397027969
68.089752197265625 -37.8823356628417969 2.35851216316223145 324 1644759246.71693754 -0.369200319051742554 0.929004907608032227 0.0248373281210660934 0.00490575144067406654
64.3176422119140625 -41.4695701599121094 2.25446510314941406 325 1644759247.41576099 -0.367596030235290527 0.929807722568511963 0.0179198440164327621 0.00309741171076893806
60.61395263671875 -44.865386962890625 2.21765613555908203 326 1644759248.11622167 -0.353230834007263184 0.935434103012084961 0.0133454743772745132 -0.00358666758984327316
56.2932243347167969 -48.2223701477050781 2.2483212947845459 327 1644759248.91536784 -0.31372949481010437 0.949508070945739746 -0.00022872038243804127 -0.00285439006984233856
51.9706192016601562 -51.0640716552734375 2.29231500625610352 328 1644759249.71840572 -0.276326090097427368 0.961052894592285156 -0.000429983338108286262 -0.00459166010841727257
47.1404228210449219 -53.6891822814941406 2.38538908958435059 329 1644759250.6151619 -0.230933517217636108 0.972903847694396973 -0.0044183158315718174 -0.0104047246277332306
42.34002685546875 -55.7307281494140625 2.5295712947845459 330 1644759251.51825953 -0.183260425925254822 0.982969939708709717 -0.00753718521445989609 -0.0113518787547945976
37.3996200561523438 -57.3206443786621094 2.71506023406982422 331 1644759252.41419911 -0.146731793880462646 0.988976657390594482 -0.00909382570534944534 -0.0176723171025514603
32.1769561767578125 -58.7745208740234375 2.94456076622009277 332 1644759253.31574368 -0.1127963587641716 0.993301868438720703 -0.00275318743661046028 -0.0249147042632102966
26.7581367492675781 -59.5558624267578125 3.22728776931762695 333 1644759254.21751595 -0.0505397021770477295 0.998293161392211914 -0.00511749275028705597 -0.0288143735378980637
21.3210010528564453 -59.7437019348144531 3.52239799499511719 334 1644759255.11549973 -0.00266752787865698338 0.99951779842376709 -0.00291767274029552937 -0.0307981893420219421
15.9172563552856445 -59.729583740234375 3.87795424461364746 335 1644759256.01747727 0.00263964175246655941 0.999309897422790527 -0.00290990434587001801 -0.0369369164109230042
10.5720844268798828 -59.7391281127929688 4.23493146896362305 336 1644759256.91674995 0.000762346899136900902 0.999394357204437256 -0.00230446434579789639 -0.0347142592072486877
5.19042587280273438 -59.688323974609375 4.56662654876708984 337 1644759257.81826329 0.00918511021882295609 0.999339878559112549 -0.00241495063528418541 -0.0350665897130966187
-0.157156631350517273 -59.4897422790527344 4.9197845458984375 338 1644759258.71789241 0.0227254386991262436 0.999033033847808838 -0.00389145128428936005 -0.0374352335929870605
-5.4217982292175293 -59.187103271484375 5.27564001083374023 339 1644759259.61779261 0.0325246863067150116 0.998848557472229004 -0.00226276018656790257 -0.0351942740380764008
-10.3957414627075195 -58.8026962280273438 5.61690330505371094 340 1644759260.51924872 0.0450173132121562958 0.998274505138397217 -0.00594249553978443146 -0.0372316502034664154
-15.379939079284668 -58.3149681091308594 5.94733858108520508 341 1644759261.42182708 0.0548108667135238647 0.998036980628967285 -0.000625010114163160324 -0.0302911326289176941
-20.675262451171875 -57.4058151245117188 6.27167940139770508 342 1644759262.51927137 0.116016626358032227 0.99262392520904541 0.00163807149510830641 -0.035145539790391922
-25.6642684936523438 -55.2271995544433594 6.5674738883972168 343 1644759263.61809897 0.254928261041641235 0.966496407985687256 0.0026888048741966486 -0.0298166479915380478
-28.9423923492431641 -52.0618515014648438 6.78596210479736328 344 1644759264.52112365 0.421315014362335205 0.906547963619232178 -0.00108172337058931589 -0.0257553756237030029
-30.7648830413818359 -48.0324516296386719 7.02870082855224609 345 1644759265.41731524 0.582050085067749023 0.812830090522766113 0.0064499550499022007 -0.0219847895205020905
-31.3033809661865234 -40.092010498046875 7.4424748420715332 346 1644759267.02205658 0.724455654621124268 0.68863445520401001 0.0137290460988879204 -0.02753448486328125
-29.3618927001953125 -30.5696506500244141 7.8666377067565918 347 1644759269.11761785 0.769806623458862305 0.636877298355102539 -0.00498355738818645477 -0.0419546030461788177
-27.1599369049072266 -20.6633090972900391 8.39415836334228516 348 1644759271.11886358 0.806062459945678711 0.590428471565246582 0.0245545879006385803 -0.0324749574065208435
-22.538604736328125 -12.014582633972168 8.56660270690917969 349 1644759273.11900401 0.890855729579925537 0.454205185174942017 -0.000929888803511857986 -0.00853818655014038086
-14.9808502197265625 -7.71441125869750977 8.5098419189453125 350 1644759274.91986418 0.996568441390991211 0.0796709805727005005 -0.00450826110318303108 0.0219899676740169525
-9.56864833831787109 -8.602508544921875 8.43195915222167969 351 1644759276.01389146 0.995284736156463623 -0.0967484787106513977 -0.00579554727301001549 -0.00380615610629320145
1.32928180694580078 -9.47359752655029297 7.771240234375 352 1644759278.01858425 0.998690664768218994 0.0275860056281089783 -0.0429430082440376282 0.00344025576487183571
13.9970178604125977 -7.14642715454101562 6.7832331657409668 353 1644759280.12304878 0.989104926586151123 0.144757941365242004 -0.0243756286799907684 0.0110643086954951286
23.9475173950195312 -1.99349105358123779 6.48866033554077148 354 1644759281.91926503 0.947084009647369385 0.320666611194610596 -0.00573067320510745049 -0.0131139429286122322
33.4714164733886719 7.26944637298583984 6.47252464294433594 355 1644759284.01548553 0.924293458461761475 0.381655395030975342 0.000103898331872187555 -0.00455584283918142319
42.9212913513183594 16.9142322540283203 6.54183197021484375 356 1644759286.11383986 0.922352612018585205 0.386113137006759644 0.00060630100779235363 -0.0134870139881968498
52.1288223266601562 25.9377651214599609 6.56804656982421875 357 1644759288.11644721 0.92698967456817627 0.375029534101486206 -0.000243680638959631324 -0.00655359635129570961
61.2247657775878906 35.5562705993652344 6.93033647537231445 358 1644759290.21425867 0.921776473522186279 0.387135416269302368 0.0200153253972530365 -0.00732906954362988472
69.3717269897460938 44.6867446899414062 7.32882404327392578 359 1644759292.21452713 0.867344915866851807 0.497235119342803955 0.00663428567349910736 -0.0206392128020524979
70.6087112426757812 49.4479331970214844 7.48374700546264648 360 1644759293.11453581 0.765671312808990479 0.642974019050598145 0.00502939661964774132 -0.0175083372741937637
72.8373870849609375 60.729888916015625 7.70282506942749023 361 1644759295.21358681 0.852462589740753174 0.522763729095458984 0.00409866124391555786 0.00296114338561892509
80.8184967041015625 69.381683349609375 7.73160743713378906 362 1644759297.21348572 0.93008345365524292 0.36707732081413269 -0.00257336418144404888 -0.0138699524104595184
87.8520584106445312 74.9948501586914062 7.81594467163085938 363 1644759298.91961193 0.97533106803894043 0.22027432918548584 0.011934925802052021 0.00812587141990661621
91.0476226806640625 75.4315643310546875 7.77774286270141602 364 1644759299.61319518 0.999207675457000732 0.0390606559813022614 -0.00060873094480484724 0.00760748842731118202
94.2814483642578125 74.677947998046875 7.76907634735107422 365 1644759300.31333256 0.990032613277435303 -0.14030987024307251 -0.00583903398364782333 0.0107008880004286766
103.402381896972656 68.1004638671875 7.71834850311279297 366 1644759302.31372976 0.932762682437896729 -0.360462874174118042 0.00147516699507832527 -0.00425088545307517052
112.039993286132812 59.0841712951660156 7.6864933967590332 367 1644759304.31373048 0.914050161838531494 -0.40540921688079834 -0.00685039907693862915 0.0104297781363129616
118.111442565917969 52.3217582702636719 7.71016120910644531 368 1644759306.31683707 0.910810649394989014 -0.412621855735778809 -0.000196978377061896026 0.0129295382648706436
124.677688598632812 44.3588752746582031 7.78103303909301758 369 1644759308.31721807 0.900668799877166748 -0.434280514717102051 0.0137155037373304367 -0.0028309505432844162
127.652755737304688 40.3198356628417969 8.07618999481201172 370 1644759309.21595049 0.89057159423828125 -0.452778846025466919 0.0432273782789707184 0.00223185424692928791
130.549758911132812 35.849273681640625 8.22416782379150391 371 1644759310.31643844 0.882490575313568115 -0.46831810474395752 0.0107933767139911652 -0.042095627635717392
135.929595947265625 29.7447280883789062 8.29239368438720703 372 1644759312.31722379 0.944122612476348877 -0.325336575508117676 0.0250528790056705475 -0.0464865304529666901
144.326126098632812 25.8513278961181641 8.55800914764404297 373 1644759314.31793356 0.976095020771026611 -0.215973988175392151 0.0237374510616064072 -0.00550587009638547897
153.351638793945312 19.9056282043457031 8.43768882751464844 374 1644759316.41369033 0.941720187664031982 -0.335647314786911011 -0.00626087654381990433 -0.0215579681098461151
161.943634033203125 11.9767923355102539 7.99021625518798828 375 1644759318.41417241 0.931427121162414551 -0.362674742937088013 -0.00816264655441045761 -0.029050951823592186
170.9412841796875 2.86660528182983398 7.53138875961303711 376 1644759320.5146277 0.908823728561401367 -0.416204333305358887 -0.0085495728999376297 -0.0272090472280979156
179.640167236328125 -6.33347511291503906 7.09244966506958008 377 1644759322.51532793 0.922649502754211426 -0.38462531566619873 -0.00602031964808702469 -0.0272944085299968719
189.064620971679688 -15.9490137100219727 6.86484384536743164 378 1644759324.61294866 0.918546080589294434 -0.394894510507583618 0.00356181361712515354 -0.0178528111428022385
198.573699951171875 -24.8562660217285156 6.65371131896972656 379 1644759326.71100926 0.945788264274597168 -0.323670089244842529 -0.00835011806339025497 -0.0255436412990093231
208.155517578125 -31.4052963256835938 6.58255815505981445 380 1644759328.71427011 0.960413038730621338 -0.277514487504959106 0.00741248065605759621 -0.0231848657131195068
218.1611328125 -36.9173126220703125 6.61203479766845703 381 1644759330.71433163 0.971380412578582764 -0.236657470464706421 0.00886019598692655563 -0.0182993616908788681
228.403228759765625 -41.809356689453125 6.61050033569335938 382 1644759332.71568656 0.975967168807983398 -0.217255875468254089 0.00277248583734035492 -0.0167415793985128403
236.338104248046875 -47.0858345031738281 6.57956123352050781 383 1644759334.61396909 0.912215173244476318 -0.409524500370025635 -0.0087910899892449379 -0.00871057715266942978
237.946502685546875 -50.5729179382324219 6.49594211578369141 384 1644759335.4153223 0.821289300918579102 -0.570048987865447998 -0.00159451563376933336 -0.022923273965716362
239.52490234375 -61.4243698120117188 6.29732990264892578 385 1644759337.51614881 0.734377026557922363 -0.67864835262298584 -0.0110831009224057198 0.00198411731980741024
240.465896606445312 -72.356292724609375 6.27229738235473633 386 1644759339.6137526 0.735016822814941406 -0.677936017513275146 -0.00558679969981312752 0.0110341859981417656
243.9327392578125 -84.6748504638671875 6.21529102325439453 387 1644759341.71408629 0.819710016250610352 -0.572609007358551025 -0.00669648684561252594 0.0122298011556267738
249.675537109375 -96.8720474243164062 6.17205524444580078 388 1644759343.81526852 0.860478043556213379 -0.509302258491516113 -0.00448632938787341118 0.0129879321902990341
257.294952392578125 -106.594039916992188 6.15655088424682617 389 1644759345.81592131 0.931406199932098389 -0.363779842853546143 -0.00407499819993972778 0.0114087453112006187
267.146148681640625 -114.253204345703125 6.09089565277099609 390 1644759347.91567183 0.95418250560760498 -0.298741608858108521 -0.00808555725961923599 0.0149616003036499023
275.85296630859375 -119.345329284667969 6.00044631958007812 391 1644759350.01327276 0.977089643478393555 -0.212738648056983948 -0.00589795270934700966 0.00181188446003943682
280.546600341796875 -121.287773132324219 5.97262859344482422 392 1644759351.91408181 0.975824832916259766 -0.217345580458641052 -0.0108416089788079262 0.0202294290065765381
283.821685791015625 -123.100578308105469 6.0172419548034668 393 1644759353.91823006 0.968833267688751221 -0.246807262301445007 0.0209399852901697159 0.00312995119020342827
288.404937744140625 -125.573234558105469 5.91485261917114258 394 1644759355.81131005 0.968872249126434326 -0.247557729482650757 -0.000205360804102383554 -0.00128056993708014488
292.8883056640625 -128.171554565429688 5.78159427642822266 395 1644759357.40984511 0.965261638164520264 -0.260319948196411133 -0.0109526952728629112 -0.0195828787982463837
