# .PCD v0.7 - Point Cloud Data file format
VERSION 0.7
FIELDS x y z intensity t qx qy qz qw
SIZE 4 4 4 4 8 4 4 4 4
TYPE F F F F F F F F F
COUNT 1 1 1 1 1 1 1 1 1
WIDTH 275
HEIGHT 1
VIEWPOINT 0 0 0 1 0 0 0
POINTS 275
DATA ascii
126.423263549804688 27.5375785827636719 7.59476661682128906 171 1644824677.24998236 0.90687793493270874 0.418717950582504272 0.0461184456944465637 -0.0109888501465320587
128.1671142578125 29.4522857666015625 7.75555324554443359 172 1644824679.34931135 0.916557610034942627 0.397886961698532104 0.0395335964858531952 -0.00672809267416596413
130.144271850585938 32.4879493713378906 8.03344249725341797 173 1644824681.44986939 0.856560766696929932 0.512663304805755615 0.0589213520288467407 -0.00287491967901587486
130.358184814453125 34.5925025939941406 8.14201927185058594 174 1644824682.34897041 0.740009784698486328 0.671388924121856689 0.0391080416738986969 -0.00964390020817518234
129.75421142578125 36.2813301086425781 8.18316268920898438 175 1644824682.94673109 0.603233516216278076 0.796554386615753174 0.0394697859883308411 -0.00724973017349839211
128.42498779296875 37.9581718444824219 8.17910575866699219 176 1644824683.54812908 0.455217480659484863 0.889844000339508057 0.0294340848922729492 0.00940029043704271317
124.356880187988281 41.6445198059082031 7.76515769958496094 177 1644824684.74819636 0.313599050045013428 0.949112176895141602 -0.0138894366100430489 0.0254710689187049866
119.196640014648438 43.4853630065917969 7.64303016662597656 178 1644824685.85246468 0.148677080869674683 0.988865673542022705 -0.00616278406232595444 -0.00133659271523356438
114.614494323730469 45.5713310241699219 7.62649250030517578 179 1644824686.85083413 0.251920342445373535 0.967593729496002197 0.0159735828638076782 -0.00658584805205464363
110.559600830078125 48.6946945190429688 7.6222381591796875 180 1644824687.74907565 0.345502227544784546 0.938242673873901367 0.0163438823074102402 -0.00785740278661251068
106.911018371582031 52.3083419799804688 7.61365270614624023 181 1644824688.64738655 0.39425581693649292 0.91895681619644165 0.00895722024142742157 -0.000709982472471892834
103.724906921386719 56.2001800537109375 7.62675809860229492 182 1644824689.64743519 0.454517483711242676 0.890665650367736816 0.0109090991318225861 0.00309103983454406261
101.718345642089844 61.1181869506835938 7.61487627029418945 183 1644824690.94946504 0.614362418651580811 0.788793563842773438 0.0166390184313058853 0.00931325647979974747
101.835151672363281 64.7959213256835938 7.66262722015380859 184 1644824691.94931388 0.741627633571624756 0.670322239398956299 0.0252195540815591812 -0.00452314922586083412
103.208412170410156 68.353668212890625 7.71812820434570312 185 1644824692.84732103 0.847146689891815186 0.530865371227264404 0.0227846410125494003 0.00231051072478294373
106.6588134765625 72.4744491577148438 7.75998353958129883 186 1644824693.94832706 0.920246303081512451 0.390897035598754883 0.0155568281188607216 -0.0102108046412467957
116.609870910644531 76.6453094482421875 7.6563715934753418 187 1644824695.95088506 0.999917387962341309 0.00857643783092498779 0.00235539092682301998 0.00927997194230556488
121.858673095703125 75.0744705200195312 7.67576408386230469 188 1644824696.94839668 0.976281702518463135 -0.215619519352912903 0.0165373124182224274 0.0104302763938903809
126.074256896972656 71.7572784423828125 7.67820358276367188 189 1644824697.84471774 0.93448108434677124 -0.355966150760650635 0.00575288105756044388 0.000339508405886590481
129.860061645507812 68.163543701171875 7.69218921661376953 190 1644824698.74787712 0.921676695346832275 -0.38786470890045166 0.00785959046334028244 0.00336077739484608173
132.660995483398438 58.5899848937988281 7.60943984985351562 191 1644824700.75101662 0.642167925834655762 -0.766114592552185059 -0.0195961948484182358 0.0174569319933652878
127.289924621582031 50.2444076538085938 7.63019514083862305 192 1644824702.84599924 0.560485482215881348 -0.828034043312072754 0.0142975440248847008 -0.00335472100414335728
127.100074768066406 47.0051841735839844 7.68266916275024414 193 1644824703.45287848 0.700877368450164795 -0.712617099285125732 0.0161823462694883347 0.0261891987174749374
127.846000671386719 43.8552627563476562 7.91291475296020508 194 1644824704.04839492 0.813684523105621338 -0.578823447227478027 0.0508132912218570709 0.0172905381768941879
129.58148193359375 41.2829322814941406 8.19877719879150391 195 1644824704.65059757 0.902856290340423584 -0.425399750471115112 0.0621725544333457947 -0.00448957877233624458
134.876846313476562 37.4091224670410156 8.59222030639648438 196 1644824706.2509644 0.952620625495910645 -0.30115315318107605 0.034168533980846405 -0.0255576968193054199
138.82568359375 34.2177658081054688 8.65277004241943359 197 1644824707.34819937 0.937145113945007324 -0.346983671188354492 0.0267689991742372513 -0.0253932196646928787
142.574981689453125 30.5050468444824219 8.67448902130126953 198 1644824708.34999418 0.923435449600219727 -0.377622365951538086 0.0609430372714996338 -0.0308902226388454437
146.3831787109375 26.8330097198486328 8.63021087646484375 199 1644824709.25013113 0.921211302280426025 -0.387399286031723022 0.0249698478728532791 -0.0258465986698865891
150.442031860351562 22.8946647644042969 8.57410621643066406 200 1644824710.14840794 0.925245940685272217 -0.379060477018356323 0.00198111962527036667 -0.0151383727788925171
154.31103515625 19.1522216796875 8.37114810943603516 201 1644824710.94540572 0.926872193813323975 -0.375085830688476562 0.000585530826356261969 -0.0147713245823979378
157.9168701171875 15.5757761001586914 8.18878078460693359 202 1644824711.64768887 0.921886920928955078 -0.387065321207046509 -0.00347823463380336761 -0.0171120781451463699
161.658706665039062 11.8028097152709961 7.98120498657226562 203 1644824712.34502029 0.924555480480194092 -0.380459576845169067 0.00645025493577122688 -0.0201503206044435501
165.559829711914062 7.94319581985473633 7.79440402984619141 204 1644824713.04879498 0.924351930618286133 -0.381236135959625244 0.00355193996801972389 -0.0148277189582586288
169.43756103515625 3.97453665733337402 7.59678554534912109 205 1644824713.74903083 0.919535934925079346 -0.392418563365936279 0.00338805746287107468 -0.0212090294808149338
173.259918212890625 -0.0992239415645599365 7.39031982421875 206 1644824714.44904637 0.917377769947052002 -0.397192388772964478 -0.00161402416415512562 -0.0255665145814418793
176.921035766601562 -4.07611179351806641 7.18976545333862305 207 1644824715.14645839 0.915444374084472656 -0.401574820280075073 -0.00276647275313735008 -0.0262975450605154037
180.497055053710938 -7.78792715072631836 7.02698326110839844 208 1644824715.84730554 0.920330226421356201 -0.390724331140518188 0.00399945024400949478 -0.0176286213099956512
184.092361450195312 -11.5693044662475586 6.89404058456420898 209 1644824716.54691267 0.922406852245330811 -0.385641008615493774 0.00757856061682105064 -0.0197278466075658798
187.852920532226562 -15.3227825164794922 6.85652351379394531 210 1644824717.24750853 0.925076901912689209 -0.37889590859413147 0.0218845941126346588 -0.0138465026393532753
191.825912475585938 -18.9083423614501953 6.84189462661743164 211 1644824717.94687605 0.939168930053710938 -0.341908574104309082 0.0249937381595373154 -0.0208702031522989273
196.051055908203125 -22.3346042633056641 6.72554540634155273 212 1644824718.64636779 0.940843105316162109 -0.338042408227920532 0.00601051095873117447 -0.0224811863154172897
200.272079467773438 -25.7577247619628906 6.62860393524169922 213 1644824719.346982 0.938131630420684814 -0.344980210065841675 0.00343683618120849133 -0.0297642592340707779
204.596084594726562 -29.0720024108886719 6.55351591110229492 214 1644824720.04751444 0.949702918529510498 -0.311720520257949829 0.0156851503998041153 -0.0254688449203968048
208.973587036132812 -32.1748619079589844 6.56321096420288086 215 1644824720.74841881 0.956054925918579102 -0.291695326566696167 0.017340976744890213 -0.0239179376512765884
213.391616821289062 -34.8137168884277344 6.55968046188354492 216 1644824721.44690704 0.967986047267913818 -0.248643502593040466 0.0147957708686590195 -0.0309914220124483109
218.422164916992188 -37.1709403991699219 6.58601665496826172 217 1644824722.24842834 0.976304709911346436 -0.215227276086807251 0.0115710236132144928 -0.0192995890974998474
223.28179931640625 -39.3397293090820312 6.59636259078979492 218 1644824723.05075479 0.977203547954559326 -0.211434647440910339 0.0165826603770256042 -0.00967925228178501129
227.86370849609375 -41.48394775390625 6.58904123306274414 219 1644824723.84680915 0.975781798362731934 -0.218195497989654541 0.0048445090651512146 -0.0147339031100273132
232.569610595703125 -43.8153877258300781 6.58620643615722656 220 1644824724.74787688 0.972703754901885986 -0.231504127383232117 0.00591968558728694916 -0.0147735970094799995
236.842193603515625 -47.0060691833496094 6.55451774597167969 221 1644824725.74939513 0.919696569442749023 -0.392561167478561401 -0.00733328238129615784 0.000384103856049478054
238.604263305664062 -50.5562477111816406 6.49486303329467773 222 1644824726.54597616 0.832923173904418945 -0.553232729434967041 0.00381258572451770306 -0.0125697413459420204
239.474136352539062 -55.9722785949707031 6.39346504211425781 223 1644824727.54808187 0.72809755802154541 -0.685434281826019287 -0.00078351370757445693 0.00729532400146126747
239.25927734375 -61.4480094909667969 6.31756591796875 224 1644824728.44597745 0.695761501789093018 -0.718183279037475586 0.00272201141342520714 0.0110127627849578857
239.40936279296875 -66.6246871948242188 6.30284023284912109 225 1644824729.24691129 0.726220548152923584 -0.687038719654083252 -0.000686407380271703005 0.0241037774831056595
239.973175048828125 -72.0347671508789062 6.2860569953918457 226 1644824730.04710293 0.752920329570770264 -0.658028006553649902 0.00316092954017221928 0.0100067174062132835
241.150344848632812 -77.5351181030273438 6.26804590225219727 227 1644824730.84635282 0.783875167369842529 -0.620766043663024902 0.00459107197821140289 0.012968866154551506
242.5604248046875 -82.4352874755859375 6.24079418182373047 228 1644824731.54436278 0.802512705326080322 -0.596519112586975098 -0.0041679777204990387 0.0109955621883273125
244.274673461914062 -87.3954010009765625 6.2272334098815918 229 1644824732.24797368 0.819542109966278076 -0.572942972183227539 -7.78367029852233827e-05 0.00932864192873239517
246.455169677734375 -92.260162353515625 6.20926332473754883 230 1644824732.94795179 0.846219480037689209 -0.532758235931396484 0.00316459196619689465 0.0084391813725233078
249.095413208007812 -96.8956527709960938 6.19759178161621094 231 1644824733.64566803 0.872302830219268799 -0.488781005144119263 0.00471492530778050423 0.0125962700694799423
252.234939575195312 -101.262153625488281 6.1840214729309082 232 1644824734.34748316 0.895540416240692139 -0.444567233324050903 0.00556823797523975372 0.018340378999710083
255.769790649414062 -105.334274291992188 6.16801023483276367 233 1644824735.04869604 0.915851473808288574 -0.40128752589225769 0.00113729026634246111 0.0135322045534849167
259.546356201171875 -108.858795166015625 6.16451787948608398 234 1644824735.74475598 0.935239911079406738 -0.353615403175354004 0.00051197537686675787 0.016798676922917366
264.04833984375 -112.286338806152344 6.13438320159912109 235 1644824736.54997015 0.953101158142089844 -0.302454382181167603 0.00191097811330109835 0.0107630388811230659
268.57830810546875 -115.060195922851562 6.07660865783691406 236 1644824737.3453691 0.965002477169036865 -0.261981695890426636 0.000926180975511670113 0.0116181652992963791
273.399688720703125 -117.585723876953125 6.01882791519165039 237 1644824738.24586535 0.972800374031066895 -0.230833649635314941 -0.00420708069577813148 0.0189097467809915543
278.125213623046875 -120.003639221191406 5.97864627838134766 238 1644824739.34489369 0.972396314144134521 -0.232875987887382507 0.00111341907177120447 0.0145917348563671112
282.700775146484375 -122.334419250488281 5.96526575088500977 239 1644824740.94929481 0.967634081840515137 -0.252017199993133545 0.00917375646531581879 0.00934927072376012802
287.15240478515625 -124.759124755859375 5.93263816833496094 240 1644824742.64886355 0.968166053295135498 -0.249269068241119385 0.0214445460587739944 -0.00771403545513749123
291.6204833984375 -127.419708251953125 5.83551359176635742 241 1644824743.84681964 0.96237647533416748 -0.27138933539390564 -0.00206895708106458187 -0.0132316863164305687
296.052093505859375 -130.171218872070312 5.52822637557983398 242 1644824744.84613729 0.962263345718383789 -0.268842041492462158 -0.0285295266658067703 -0.0309718195348978043
300.71392822265625 -132.883987426757812 5.08187341690063477 243 1644824745.84703398 0.964307487010955811 -0.261386454105377197 -0.0326511599123477936 -0.0268726237118244171
305.08282470703125 -135.55816650390625 4.6294856071472168 244 1644824746.74678731 0.958858251571655273 -0.280862480401992798 -0.0340819954872131348 -0.0233556721359491348
309.4439697265625 -138.515426635742188 4.17464303970336914 245 1644824747.64785409 0.956465423107147217 -0.289371997117996216 -0.0325797721743583679 -0.0193976592272520065
313.7435302734375 -141.411819458007812 3.7229008674621582 246 1644824748.54841566 0.955581247806549072 -0.291924327611923218 -0.0319366678595542908 -0.0249951817095279694
317.699615478515625 -144.516357421875 3.26833939552307129 247 1644824749.44821095 0.938214421272277832 -0.342771470546722412 -0.039728257805109024 -0.0261362828314304352
321.357696533203125 -148.281524658203125 2.70939016342163086 248 1644824750.44891286 0.91284257173538208 -0.404448181390762329 -0.0448575019836425781 -0.0335840918123722076
324.582672119140625 -152.5665283203125 2.1809694766998291 249 1644824751.64784908 0.88394010066986084 -0.464656740427017212 -0.0422533154487609863 -0.0309623777866363525
326.678070068359375 -157.089401245117188 1.66603660583496094 250 1644824752.94941258 0.825318694114685059 -0.562184154987335205 -0.0351550504565238953 -0.0395233854651451111
327.2843017578125 -161.567489624023438 1.10992050170898438 251 1644824754.14883161 0.714439094066619873 -0.696690559387207031 -0.0469882786273956299 -0.0446229204535484314
326.486480712890625 -164.482559204101562 0.779932618141174316 252 1644824754.951051 0.582187831401824951 -0.810952126979827881 -0.0522257760167121887 -0.0262002330273389816
324.61297607421875 -166.642227172851562 0.624969244003295898 253 1644824755.74990821 0.41279071569442749 -0.910425364971160889 -0.0189751908183097839 -0.0192200131714344025
322.405242919921875 -167.716567993164062 0.474849611520767212 254 1644824756.45152688 0.239710152149200439 -0.970400869846343994 -0.00497485324740409851 -0.0289208758622407913
317.8009033203125 -169.859146118164062 0.264569520950317383 255 1644824757.85270047 0.231549352407455444 -0.972757160663604736 -0.00748186465352773666 -0.00851246621459722519
313.2723388671875 -172.034011840820312 -0.0330970883369445801 256 1644824758.84945178 0.219379395246505737 -0.975512564182281494 -0.00494740111753344536 -0.0149464784190058708
308.576812744140625 -174.219497680664062 -0.343007713556289673 257 1644824759.7482996 0.217141777276992798 -0.975861907005310059 -0.00286600319668650627 -0.0231262650340795517
303.7841796875 -176.398941040039062 -0.650803506374359131 258 1644824760.64870906 0.209251999855041504 -0.977604031562805176 -0.00488592404872179031 -0.0219102334231138229
298.852630615234375 -178.383331298828125 -0.875132143497467041 259 1644824761.55256224 0.174731329083442688 -0.984549522399902344 -0.00645186193287372589 -0.00946595612913370132
293.97430419921875 -180.107955932617188 -1.01301348209381104 260 1644824762.45029855 0.177836298942565918 -0.983782768249511719 0.00494075426831841469 0.0228320471942424774
289.2833251953125 -181.944976806640625 -0.973790764808654785 261 1644824763.34948397 0.187119662761688232 -0.982248246669769287 -0.00162440945859998465 -0.0131132239475846291
284.36981201171875 -183.61614990234375 -1.16721773147583008 262 1644824764.3477726 0.154002517461776733 -0.987846910953521729 0.00111119844950735569 -0.0209869686514139175
279.474578857421875 -185.200332641601562 -1.32045483589172363 263 1644824765.35040307 0.149448558688163757 -0.988615632057189941 -0.0144120287150144577 -0.00982358213514089584
274.48638916015625 -186.2322998046875 -1.61506950855255127 264 1644824766.34998322 0.0898673534393310547 -0.994643092155456543 0.00374475563876330853 -0.0509411506354808807
269.451995849609375 -187.090133666992188 -1.87472593784332275 265 1644824767.35441899 0.0761956498026847839 -0.997055232524871826 -0.00739586353302001953 0.00452024303376674652
264.308746337890625 -187.678237915039062 -2.01584172248840332 266 1644824768.34957147 0.0533826164901256561 -0.998540580272674561 -0.00289171026088297367 -0.00766051840037107468
259.273712158203125 -188.18701171875 -2.16482901573181152 267 1644824769.25144124 0.047247517853975296 -0.998867273330688477 0.00199052202515304089 -0.00528371799737215042
253.96490478515625 -188.737945556640625 -2.33713507652282715 268 1644824770.15358663 0.0478301458060741425 -0.998834311962127686 -0.00203200732357800007 -0.00618002517148852348
248.610336303710938 -189.349411010742188 -2.50015163421630859 269 1644824771.05223513 0.0625789538025856018 -0.997920632362365723 0.00104647502303123474 -0.0154002802446484566
243.357513427734375 -190.007034301757812 -2.68137216567993164 270 1644824771.95453167 0.0588082149624824524 -0.998256504535675049 -1.0412225492473226e-05 -0.0050553944893181324
238.31658935546875 -190.504379272460938 -2.8589940071105957 271 1644824772.85311389 0.049076911062002182 -0.998703598976135254 0.00447189435362815857 -0.0127501701936125755
233.016021728515625 -191.3480224609375 -2.9965202808380127 272 1644824773.95011878 0.0889406278729438782 -0.995994865894317627 0.00683616148307919502 -0.00609055720269680023
228.110122680664062 -192.691070556640625 -3.12960696220397949 273 1644824775.05023408 0.147265389561653137 -0.989093959331512451 0.00064893416129052639 -0.00237283064052462578
222.910186767578125 -194.29095458984375 -3.23403811454772949 274 1644824776.15046692 0.150110766291618347 -0.988668918609619141 0.0003214202297385782 -0.000621467654127627611
217.952484130859375 -195.946609497070312 -3.3789212703704834 275 1644824777.05208898 0.161514714360237122 -0.986840188503265381 0.00551967974752187729 -0.0053781215101480484
213.071502685546875 -197.570526123046875 -3.53154325485229492 276 1644824777.84790397 0.153073549270629883 -0.988183498382568359 0.00289736827835440636 -0.00731462612748146057
208.038848876953125 -199.180831909179688 -3.67458057403564453 277 1644824778.64880395 0.153266027569770813 -0.988137364387512207 0.000999783514998853207 -0.00964832305908203125
203.173431396484375 -200.800537109375 -3.82878422737121582 278 1644824779.44730043 0.161245390772819519 -0.98687511682510376 -0.00394164770841598511 -0.0078683486208319664
198.428543090820312 -202.430435180664062 -3.99842309951782227 279 1644824780.2458787 0.164206445217132568 -0.986292421817779541 -0.0126190083101391792 -0.0102117005735635757
193.323959350585938 -204.136627197265625 -4.16645240783691406 280 1644824781.14660764 0.156742990016937256 -0.987504899501800537 -0.012982475571334362 -0.00985430460423231125
188.3924560546875 -205.495635986328125 -4.32602977752685547 281 1644824782.04691029 0.119317471981048584 -0.992766737937927246 -0.0127282766625285149 -0.00394268613308668137
182.893051147460938 -206.232818603515625 -4.4900050163269043 282 1644824783.04505181 0.0506694354116916656 -0.99865877628326416 -0.00569750135764479637 -0.00898832827806472778
177.830291748046875 -206.687530517578125 -4.66056585311889648 283 1644824783.94882131 0.0410501584410667419 -0.999054372310638428 -0.00801633019000291824 -0.0118720298632979393
172.310379028320312 -206.998260498046875 -4.8126988410949707 284 1644824784.94653869 0.0226973704993724823 -0.999678671360015869 -0.00718780979514122009 -0.00870446767657995224
166.84844970703125 -207.19000244140625 -4.92150306701660156 285 1644824785.94714379 0.0172488298267126083 -0.999845504760742188 -0.00222623115405440331 0.00255440152250230312
161.395263671875 -207.41265869140625 -5.021392822265625 286 1644824786.8451159 0.0175742302089929581 -0.999838709831237793 0.000919950893148779869 0.00358867878094315529
156.027557373046875 -207.705230712890625 -5.20766496658325195 287 1644824787.64490557 0.023843027651309967 -0.999393045902252197 0.00116400234401226044 -0.0253706108778715134
150.443405151367188 -208.018447875976562 -5.23137474060058594 288 1644824788.4482789 0.0197892487049102783 -0.999739348888397217 0.00128657463937997818 0.0113143669441342354
145.3289794921875 -208.275802612304688 -5.2526092529296875 289 1644824789.14815617 0.0301661267876625061 -0.999499142169952393 0.00301244505681097507 0.00907430611550807953
140.072372436523438 -208.519943237304688 -5.24133777618408203 290 1644824789.84619331 0.0247869100421667099 -0.99967491626739502 0.00394879607483744621 0.00448304228484630585
134.766830444335938 -208.786819458007812 -5.25095319747924805 291 1644824790.54753661 0.019117528572678566 -0.999782085418701172 0.00257506431080400944 0.0079773562029004097
129.423233032226562 -209.068038940429688 -5.25134897232055664 292 1644824791.24578214 0.0235943030565977097 -0.999698817729949951 -0.00351141649298369884 0.00576686672866344452
124.063217163085938 -209.2950439453125 -5.27161073684692383 293 1644824791.94620943 0.0190996713936328888 -0.999814629554748535 -0.000647289096377789974 0.00235347915440797806
118.661697387695312 -209.50567626953125 -5.25773143768310547 294 1644824792.64810109 0.0145932435989379883 -0.999848604202270508 -0.000385323481168597937 0.00947009958326816559
113.273162841796875 -209.6978759765625 -5.26136922836303711 295 1644824793.34737539 0.0167283136397600174 -0.999805867671966553 0.0015540712047368288 0.0102925244718790054
107.875038146972656 -209.869918823242188 -5.24855947494506836 296 1644824794.04613471 0.0135172922164201736 -0.999817430973052979 0.00267389114014804363 0.0132397226989269257
102.455039978027344 -210.083023071289062 -5.25955104827880859 297 1644824794.74526024 0.0218363646417856216 -0.999700725078582764 0.00193883036263287067 0.0108569096773862839
97.0133514404296875 -210.362777709960938 -5.27154445648193359 298 1644824795.44697452 0.0255239512771368027 -0.999618113040924072 -0.00479379715397953987 0.00944091379642486572
91.6190872192382812 -210.56304931640625 -5.26386308670043945 299 1644824796.14792752 0.0179986767470836639 -0.999777376651763916 0.00620962260290980339 0.00908988434821367264
86.227508544921875 -210.831558227539062 -5.26431083679199219 300 1644824796.84771895 0.0212906878441572189 -0.999647259712219238 0.00155893154442310333 0.0157986227422952652
80.838958740234375 -211.07489013671875 -5.26898479461669922 301 1644824797.54722548 0.0163202527910470963 -0.999814093112945557 0.00507726985961198807 0.00892568007111549377
75.4370346069335938 -211.27130126953125 -5.26969289779663086 302 1644824798.24805403 0.0152470832690596581 -0.999851107597351074 0.00360620580613613129 0.0072294529527425766
70.0511703491210938 -211.45111083984375 -5.27408027648925781 303 1644824798.94778204 0.0145221613347530365 -0.999878585338592529 0.000899315869901329279 0.00557627622038125992
64.8417510986328125 -211.617889404296875 -5.25754642486572266 304 1644824799.64676976 0.0169518366456031799 -0.999836146831512451 -2.6287785658496432e-05 0.00634656799957156181
59.832794189453125 -211.576950073242188 -5.27097272872924805 305 1644824800.34887815 -0.0344869568943977356 -0.999346137046813965 -0.0070700417272746563 0.00824290141463279724
54.4345016479492188 -210.911300659179688 -5.26783037185668945 306 1644824801.14737797 -0.0806848779320716858 -0.996684074401855469 -0.00526677025482058525 0.00911388825625181198
49.1792755126953125 -209.648849487304688 -5.2528233528137207 307 1644824801.94619346 -0.141574755311012268 -0.989810168743133545 -0.00890631414949893951 0.0123712560161948204
43.8450431823730469 -207.816848754882812 -5.26718330383300781 308 1644824802.75032067 -0.177037075161933899 -0.98408430814743042 -0.00696692569181323051 0.0136878732591867447
39.2254219055175781 -205.820968627929688 -5.26252126693725586 309 1644824803.44759941 -0.220889806747436523 -0.975184798240661621 -0.0134693942964076996 0.00639038719236850739
34.834808349609375 -203.284454345703125 -5.25376749038696289 310 1644824804.14821887 -0.274485796689987183 -0.96146005392074585 -0.00838660448789596558 0.01348074059933424
30.6944408416748047 -200.346786499023438 -5.21205043792724609 311 1644824804.84713602 -0.316357284784317017 -0.948556065559387207 -0.00580266071483492851 0.0112154623493552208
26.7969131469726562 -197.111282348632812 -5.14268016815185547 312 1644824805.54920626 -0.353495270013809204 -0.935348629951477051 -0.00778429163619875908 0.0101688168942928314
22.7337150573730469 -193.233734130859375 -5.0040736198425293 313 1644824806.35083389 -0.375802725553512573 -0.926389575004577637 -0.0095410570502281189 0.0219908952713012695
18.7824783325195312 -189.479537963867188 -4.86058616638183594 314 1644824807.15110755 -0.371483981609344482 -0.928099453449249268 -0.00873079616576433182 0.0235540810972452164
14.9683132171630859 -185.930511474609375 -4.68831872940063477 315 1644824807.95068669 -0.363845705986022949 -0.93109440803527832 -0.00898722931742668152 0.024468468502163887
10.9670181274414062 -182.090179443359375 -4.44852828979492188 316 1644824808.85074687 -0.370222181081771851 -0.928278863430023193 -0.0101342042908072472 0.033633798360824585
6.9891200065612793 -178.287704467773438 -4.20908737182617188 317 1644824809.85070324 -0.370547711849212646 -0.928080201148986816 -0.013060329481959343 0.034509807825088501
3.23865318298339844 -174.8419189453125 -3.96122908592224121 318 1644824810.94908404 -0.367340952157974243 -0.929284811019897461 -0.0142061226069927216 0.0358959846198558807
-0.403486311435699463 -171.330429077148438 -3.68727374076843262 319 1644824812.35043192 -0.382341921329498291 -0.923535943031311035 -0.00487502943724393845 0.0295342821627855301
-4.08945751190185547 -167.615676879882812 -3.37764620780944824 320 1644824814.15153289 -0.387323230504989624 -0.921117782592773438 -0.0051164836622774601 0.0386850126087665558
-7.8109126091003418 -164.110122680664062 -2.99327445030212402 321 1644824816.04760098 -0.346750020980834961 -0.936564385890960693 -0.0210030525922775269 0.046587727963924408
-11.8152685165405273 -160.695953369140625 -2.60499358177185059 322 1644824817.55144 -0.354246377944946289 -0.933666825294494629 -0.0229279939085245132 0.0474348589777946472
-15.6700439453125 -157.2828369140625 -2.20424032211303711 323 1644824818.84836841 -0.355843633413314819 -0.933074831962585449 -0.0222954284399747849 0.0474300384521484375
-19.3759918212890625 -153.815155029296875 -1.78636550903320312 324 1644824820.05113816 -0.37592315673828125 -0.924725949764251709 -0.0256306473165750504 0.0539142675697803497
-23.0996532440185547 -150.071029663085938 -1.37888741493225098 325 1644824821.25118232 -0.381906509399414062 -0.922272920608520508 -0.0173677299171686172 0.0570828765630722046
-27.0418300628662109 -146.4693603515625 -0.922188222408294678 326 1644824822.4496634 -0.357389390468597412 -0.931576192378997803 -0.0236711297184228897 0.062276158481836319
-30.8097858428955078 -143.034286499023438 -0.681815385818481445 327 1644824823.54976559 -0.367674320936203003 -0.929760336875915527 -0.00888919271528720856 0.0168007761240005493
-34.7752304077148438 -139.319778442382812 -0.19724765419960022 328 1644824824.74957252 -0.371539860963821411 -0.92699664831161499 -0.0216351430863142014 0.04655427485704422
-38.4891510009765625 -135.845504760742188 0.208541065454483032 329 1644824825.85078192 -0.366529136896133423 -0.928650200366973877 -0.0265739969909191132 0.0505864955484867096
-42.2354507446289062 -132.269638061523438 0.602439582347869873 330 1644824826.95399904 -0.384917765855789185 -0.921689689159393311 -0.0302671939134597778 0.037553589791059494
-45.584228515625 -128.264923095703125 1.0044935941696167 331 1644824828.05136395 -0.441316664218902588 -0.895572125911712646 -0.0340292006731033325 0.0450800694525241852
-48.7070465087890625 -123.938652038574219 1.39497625827789307 332 1644824829.15166497 -0.47361147403717041 -0.878934502601623535 -0.0398689769208431244 0.0397092550992965698
-51.2149124145507812 -119.221641540527344 1.81104981899261475 333 1644824830.24751711 -0.52853083610534668 -0.84715193510055542 -0.0380102172493934631 0.0392936877906322479
-53.3185806274414062 -114.375015258789062 2.32776761054992676 334 1644824831.35066128 -0.56048959493637085 -0.824937641620635986 -0.0407768934965133667 0.0605521388351917267
-54.9254570007324219 -109.500473022460938 2.81514334678649902 335 1644824832.44833183 -0.600248575210571289 -0.797286748886108398 -0.042476993054151535 0.0472357682883739471
-55.9776077270507812 -104.63836669921875 3.31981253623962402 336 1644824833.55132508 -0.635183751583099365 -0.769287347793579102 -0.0480427853763103485 0.0492997579276561737
-56.6874542236328125 -99.4088668823242188 3.84093475341796875 337 1644824834.7504499 -0.668999671936035156 -0.740587353706359863 -0.0470791086554527283 0.0418732836842536926
-56.8933906555175781 -94.1787109375 4.32353687286376953 338 1644824835.9477582 -0.699825704097747803 -0.711331188678741455 -0.0482649020850658417 0.0438453368842601776
-56.7316017150878906 -88.8737945556640625 4.69918489456176758 339 1644824837.14840508 -0.728018999099731445 -0.6832733154296875 -0.0488248802721500397 0.0272401291877031326
-56.2405776977539062 -83.473968505859375 5.15349674224853516 340 1644824838.34607005 -0.739967167377471924 -0.670093774795532227 -0.0436629951000213623 0.038942139595746994
-55.951507568359375 -78.1021499633789062 5.65635871887207031 341 1644824839.54507065 -0.723447322845458984 -0.687928497791290283 -0.0417088121175765991 0.0404812619090080261
-55.7332839965820312 -73.0835647583007812 6.07329511642456055 342 1644824840.64884186 -0.725296318531036377 -0.686303973197937012 -0.0408901944756507874 0.0354970842599868774
-55.3147735595703125 -68.0825729370117188 6.48688602447509766 343 1644824841.74550247 -0.739143133163452148 -0.671728372573852539 -0.0364944078028202057 0.0334150306880474091
-54.0173530578613281 -63.0158805847167969 6.99106121063232422 344 1644824843.24529481 -0.804672300815582275 -0.589508414268493652 -0.0469548292458057404 0.0527025982737541199
-54.8840065002441406 -59.7931098937988281 6.96229887008666992 345 1644824844.45072436 -0.598312437534332275 -0.798666059970855713 -0.0376376137137413025 -0.0523270033299922943
-53.0637359619140625 -55.5423202514648438 7.38100957870483398 346 1644824846.0456655 -0.91457444429397583 -0.402074813842773438 -0.0292839724570512772 0.0321233347058296204
-51.6855812072753906 -55.0452919006347656 7.41569757461547852 347 1644824846.44767642 -0.973357975482940674 -0.226763278245925903 -0.0213548280298709869 0.0263941697776317596
-50.1257095336914062 -55.1000595092773438 7.41889858245849609 348 1644824846.84656072 -0.999254405498504639 -0.028790552169084549 -0.0144621320068836212 0.021275002509355545
-47.7655715942382812 -55.8498001098632812 7.37944126129150391 349 1644824847.44358993 -0.988594412803649902 0.15018308162689209 -0.00278697186149656773 0.0108774295076727867
-42.8116073608398438 -57.4532394409179688 7.22954893112182617 350 1644824848.74672055 -0.992500603199005127 0.121290959417819977 0.00353110162541270256 0.0147858243435621262
-37.6201629638671875 -57.7852821350097656 7.14988994598388672 351 1644824850.44753838 -0.999479770660400391 0.0309431813657283783 -0.0034276170190423727 -0.00842108298093080521
-32.3804244995117188 -57.6677017211914062 6.91572856903076172 352 1644824851.75011158 -0.998193681240081787 -0.0557252131402492523 0.0194836575537919998 0.0111555298790335655
-20.7410011291503906 -54.0417823791503906 6.23853731155395508 353 1644824853.84788108 -0.997133851051330566 -0.0718244314193725586 0.015318441204726696 -0.018186202272772789
-5.79308891296386719 -54.8287391662597656 5.2713932991027832 354 1644824855.84831142 -0.998222231864929199 0.0540895238518714905 0.0172863565385341644 -0.0181069336831569672
10.5251846313476562 -56.2709846496582031 4.20799636840820312 355 1644824857.84923029 -0.998952209949493408 0.0417675338685512543 0.0126300957053899765 -0.0137985507026314735
28.1598873138427734 -56.0203628540039062 3.07517313957214355 356 1644824859.95003366 -0.997429013252258301 -0.0705038681626319885 0.0127006825059652328 -0.00181961676571518183
44.6722793579101562 -50.5232963562011719 2.35101652145385742 357 1644824862.04908299 -0.976505041122436523 -0.2154579758644104 -0.00381705001927912235 -0.00107874604873359203
58.7209625244140625 -41.3764877319335938 2.17365908622741699 358 1644824864.14428329 -0.941611170768737793 -0.336446166038513184 -0.0130676375702023506 -0.00127339910250157118
69.9935302734375 -32.0101280212402344 2.58987331390380859 359 1644824866.14952636 -0.957129418849945068 -0.287846624851226807 -0.0318999439477920532 -0.00547525892034173012
75.9089736938476562 -29.9981060028076172 2.71806001663208008 360 1644824867.14869595 -0.995267212390899658 -0.0944768860936164856 -0.0171242132782936096 0.0149704422801733017
80.9134063720703125 -29.8748302459716797 2.78480410575866699 361 1644824867.94768405 -0.999474048614501953 0.0243069324642419815 -0.0182232819497585297 0.0113433785736560822
86.1126556396484375 -30.8861808776855469 2.72757101058959961 362 1644824868.74798846 -0.993068099021911621 0.112358808517456055 -0.00943520478904247284 0.0331992544233798981
91.4546432495117188 -32.7320518493652344 2.49707126617431641 363 1644824869.54694605 -0.982100307941436768 0.186022430658340454 0.00179249513894319534 0.0295195039361715317
96.1729507446289062 -35.0211372375488281 2.269866943359375 364 1644824870.24423242 -0.966013133525848389 0.25836750864982605 0.00422358326613903046 0.00685449643060564995
100.586326599121094 -38.2363548278808594 2.06836986541748047 365 1644824870.94428945 -0.942456364631652832 0.334209948778152466 0.0030475312378257513 0.00839495286345481873
104.652374267578125 -41.997650146484375 1.86226189136505127 366 1644824871.64393902 -0.920878469944000244 0.389841854572296143 0.00108311651274561882 0.0022297506220638752
108.0302734375 -46.5051536560058594 1.66549587249755859 367 1644824872.34854746 -0.876971542835235596 0.480483680963516235 0.00491729751229286194 0.00567482691258192062
110.466346740722656 -51.5451889038085938 1.46124565601348877 368 1644824873.04597545 -0.827383160591125488 0.561528146266937256 0.00566091341897845268 0.00955162849277257919
111.661567687988281 -57.0134773254394531 1.26399874687194824 369 1644824873.74620366 -0.746022820472717285 0.665885567665100098 0.0053432057611644268 0.00422066356986761093
111.466552734375 -62.6127090454101562 1.04717624187469482 370 1644824874.44502759 -0.673335015773773193 0.739230334758758545 -0.00132928520906716585 0.0125151462852954865
110.401351928710938 -68.175750732421875 0.81152641773223877 371 1644824875.14669776 -0.610888779163360596 0.7916603684425354 0.00175372522789984941 0.00925428420305252075
108.346420288085938 -73.4463424682617188 0.563172399997711182 372 1644824875.84799814 -0.530507981777191162 0.847618460655212402 0.0061976318247616291 0.00811103172600269318
105.144813537597656 -78.0079421997070312 0.308916240930557251 373 1644824876.5461576 -0.427283614873886108 0.904023528099060059 0.00563039444386959076 0.0117681287229061127
101.236930847167969 -81.8505935668945312 0.104909650981426239 374 1644824877.24786043 -0.36280784010887146 0.931602716445922852 -0.0119450958445668221 0.0185518022626638412
96.9910125732421875 -85.1718673706054688 -0.317673355340957642 375 1644824877.94509077 -0.299067884683609009 0.953440248966217041 0.0102194007486104965 0.0374919064342975616
92.5039443969726562 -87.75830078125 -0.70712202787399292 376 1644824878.64738321 -0.243451416492462158 0.969651937484741211 -0.000425312580773606896 0.0225030630826950073
87.5668563842773438 -90.0987396240234375 -0.888470768928527832 377 1644824879.4452374 -0.208820000290870667 0.977950632572174072 -0.000442415010184049606 0.00256001856178045273
82.5346145629882812 -92.1872482299804688 -0.981788575649261475 378 1644824880.34779501 -0.196245819330215454 0.98043292760848999 -0.0126044834032654762 0.00894362479448318481
77.648162841796875 -94.1170120239257812 -0.929910898208618164 379 1644824881.34586811 -0.152863159775733948 0.988019049167633057 -0.00900857243686914444 -0.019236372783780098
72.32452392578125 -94.7539825439453125 -0.885386943817138672 380 1644824882.34719324 -0.0274135824292898178 0.999258935451507568 -0.0178816672414541245 -0.0202551372349262238
66.8918685913085938 -93.9467697143554688 -0.907564520835876465 381 1644824883.3493197 0.143815085291862488 0.989545822143554688 -0.00427528005093336105 -0.00990033894777297974
62.9392127990722656 -91.5690383911132812 -0.923383414745330811 382 1644824884.24679375 0.330332159996032715 0.943825662136077881 0.00775341922417283058 -0.00369378481991589069
61.2075042724609375 -89.1025848388671875 -0.969429075717926025 383 1644824884.94790554 0.498122602701187134 0.866681158542633057 0.0196125656366348267 0.0187885463237762451
60.9526824951171875 -87.0163040161132812 -0.931699573993682861 384 1644824885.54879379 0.644804120063781738 0.7641448974609375 0.0173533428460359573 -0.00301079964265227318
61.4637870788574219 -85.2441635131835938 -0.892371237277984619 385 1644824886.14864898 0.784668326377868652 0.619659245014190674 0.0176674909889698029 -0.00242971046827733517
62.4677276611328125 -83.9853286743164062 -0.870144486427307129 386 1644824886.65075302 0.881357014179229736 0.472102910280227661 0.018103456124663353 -0.000973856193013489246
64.0486221313476562 -83.03289794921875 -0.862910985946655273 387 1644824887.14810872 0.959180533885955811 0.281967431306838989 0.0181957054883241653 0.0116622317582368851
65.6589584350585938 -82.8125686645507812 -0.85000985860824585 388 1644824887.54845357 0.994161069393157959 0.106507726013660431 0.0138056008145213127 0.0104544898495078087
67.8128280639648438 -83.1468887329101562 -0.853430092334747314 389 1644824888.04914737 0.997471630573272705 -0.0696680024266242981 0.0102773550897836685 0.00954142305999994278
72.8776779174804688 -85.043670654296875 -0.870329082012176514 390 1644824889.14726162 0.983877658843994141 -0.177893802523612976 0.0157420635223388672 -0.00952804461121559143
77.7376022338867188 -86.59637451171875 -0.903411209583282471 391 1644824890.05105042 0.989166557788848877 -0.145077541470527649 0.0134682357311248779 -0.0179071463644504547
90.7863006591796875 -87.9655990600585938 -0.781994402408599854 392 1644824892.14770532 0.998596429824829102 0.0369565263390541077 0.0321532972157001495 -0.0201387405395507812
96.91461181640625 -85.9921112060546875 -0.357620835304260254 393 1644824893.15231729 0.973778188228607178 0.219192430377006531 0.0550667941570281982 -0.0260458886623382568
103.68035888671875 -80.6388320922851562 0.263467699289321899 394 1644824894.55043888 0.921915888786315918 0.3854350745677948 0.038542475551366806 -0.00503785861656069756
110.097061157226562 -70.9945907592773438 0.69632422924041748 395 1644824896.45036864 0.836915493011474609 0.546201467514038086 0.0307878945022821426 -0.0169863738119602203
111.682289123535156 -63.154022216796875 1.02737998962402344 396 1644824897.75188017 0.721993207931518555 0.691242635250091553 0.0235820133239030838 -0.0187959242612123489
110.291114807128906 -56.429107666015625 1.26089656352996826 397 1644824898.846457 0.590106666088104248 0.806758344173431396 0.022527892142534256 -0.0201896745711565018
104.283363342285156 -45.1696243286132812 1.71727406978607178 398 1644824900.84697199 0.44550025463104248 0.894638955593109131 0.0214235186576843262 -0.0262998640537261963
94.7405548095703125 -36.9798049926757812 2.20829582214355469 399 1644824902.85231924 0.279307961463928223 0.959852993488311768 0.0164649132639169693 -0.0199555940926074982
87.7985610961914062 -34.0720748901367188 2.48320150375366211 400 1644824904.44572973 0.0807067006826400757 0.996563136577606201 0.00843943469226360321 -0.0166452806442975998
85.6529312133789062 -34.5770492553710938 2.50571990013122559 401 1644824905.0511713 -0.10394778847694397 0.994408071041107178 0.00789607968181371689 -0.0168833807110786438
83.8529129028320312 -35.8462944030761719 2.45640969276428223 402 1644824905.64673996 -0.284628242254257202 0.958484649658203125 0.0162014439702033997 -0.00560896098613739014
79.6903152465820312 -38.7765998840332031 2.53492522239685059 403 1644824906.85391378 -0.280951887369155884 0.959629356861114502 -0.00321682915091514587 -0.0129278292879462242
75.3860549926757812 -41.9148788452148438 2.43825364112854004 404 1644824908.04992437 -0.349942684173583984 0.936725914478302002 -0.00851558707654476166 0.00348015944473445415
71.4390411376953125 -45.3407402038574219 2.37155556678771973 405 1644824909.75060821 -0.31615564227104187 0.948183178901672363 0.0195740759372711182 -0.0247201006859540939
69.609344482421875 -47.6977691650390625 2.34018111228942871 406 1644824910.74575925 -0.508199870586395264 0.860350847244262695 -0.0363194122910499573 0.0144989071413874626
69.4527587890625 -49.6371650695800781 2.28585553169250488 407 1644824911.35060835 -0.657004952430725098 0.753232598304748535 -0.0207331422716379166 0.023564634844660759
70.364410400390625 -54.6467399597167969 2.11208653450012207 408 1644824912.8476584 -0.75409466028213501 0.656450748443603516 0.0106309736147522926 0.0173377227038145065
71.2426376342773438 -59.7328987121582031 1.90969550609588623 409 1644824914.45349479 -0.798455953598022461 0.601649045944213867 -0.00735089089721441269 0.0207962580025196075
73.0402679443359375 -62.7297096252441406 1.79586243629455566 410 1644824915.55333447 -0.905076980590820312 0.424366742372512817 0.00765750184655189514 0.0262654349207878113
77.7465362548828125 -65.0334014892578125 1.84141075611114502 411 1644824917.15234518 -0.993485987186431885 0.111616186797618866 -0.00304334145039319992 0.0227626319974660873
82.5118484497070312 -64.5598602294921875 1.81296753883361816 412 1644824918.65084529 -0.992272257804870605 -0.117750845849514008 -0.012164875864982605 0.0371825508773326874
85.2204742431640625 -62.8528518676757812 1.83759260177612305 413 1644824919.65177679 -0.946753442287445068 -0.31882023811340332 -0.0139448046684265137 0.0426273271441459656
86.7356033325195312 -60.703369140625 1.89238560199737549 414 1644824920.45238495 -0.872102677822113037 -0.488014161586761475 -0.00750138051807880402 0.0349680706858634949
87.3779983520507812 -57.6341285705566406 1.99921596050262451 415 1644824921.45142961 -0.748765289783477783 -0.661974489688873291 -0.00200835708528757095 0.0337085165083408356
86.7774429321289062 -55.2740478515625 2.11591267585754395 416 1644824922.25156713 -0.608916640281677246 -0.792713642120361328 -0.00474385824054479599 0.0283389221876859665
85.4269638061523438 -53.2250823974609375 2.17583513259887695 417 1644824923.05275202 -0.459936022758483887 -0.887559831142425537 -0.00119231594726443291 0.0263614337891340256
81.8315353393554688 -49.679962158203125 2.2848966121673584 418 1644824924.65069795 -0.402692645788192749 -0.91505730152130127 0.00129975401796400547 0.0225183162838220596
79.72161865234375 -45.0716705322265625 2.42537283897399902 419 1644824926.65239 -0.646404743194580078 -0.762717604637145996 -0.0182927008718252182 0.0093863634392619133
80.23699951171875 -42.8278961181640625 2.4192347526550293 420 1644824927.55180907 -0.771088719367980957 -0.636348366737365723 0.00266372389160096645 0.0218151994049549103
82.0891342163085938 -38.4839324951171875 2.59001278877258301 421 1644824929.55253053 -0.853209793567657471 -0.518509387969970703 -0.038855820894241333 0.0408812947571277618
84.198974609375 -33.3788185119628906 2.59162044525146484 422 1644824931.5526278 -0.773285925388336182 -0.631832301616668701 -0.0111954379826784134 0.0518794693052768707
83.7327194213867188 -31.3243045806884766 2.70406126976013184 423 1644824932.15369654 -0.638386249542236328 -0.768342256546020508 -0.0124930981546640396 0.0442390479147434235
81.4506149291992188 -23.1429157257080078 3.11487865447998047 424 1644824934.25033474 -0.687160074710845947 -0.72513812780380249 -0.0417678505182266235 0.0155298430472612381
82.2969589233398438 -19.0046863555908203 3.33250546455383301 425 1644824935.14972997 -0.809817194938659668 -0.585007429122924805 -0.0440291799604892731 -0.00488310679793357849
88.3228912353515625 -11.1817216873168945 3.86843442916870117 426 1644824937.15166259 -0.921533644199371338 -0.385709911584854126 -0.044055502861738205 0.00792169943451881409
96.0342636108398438 -3.2867429256439209 4.5285029411315918 427 1644824939.25459194 -0.929082214832305908 -0.367263913154602051 -0.0412670224905014038 0.0148475505411624908
104.157539367675781 4.52934837341308594 5.27486705780029297 428 1644824941.35176063 -0.92907404899597168 -0.36646425724029541 -0.0496019721031188965 0.00806029047816991806
112.040679931640625 11.9908657073974609 6.06845712661743164 429 1644824943.35468531 -0.928432345390319824 -0.367782622575759888 -0.0515541769564151764 0.00956277735531330109
119.515365600585938 19.7137031555175781 6.85221767425537109 430 1644824945.35480547 -0.918612658977508545 -0.392472624778747559 -0.0438581965863704681 0.0138732511550188065
127.278091430664062 26.9482498168945312 7.64205074310302734 431 1644824947.35612965 -0.931835949420928955 -0.360138148069381714 -0.0405021868646144867 0.0184903331100940704
129.824234008789062 36.1039199829101562 8.19911670684814453 432 1644824949.45202136 -0.616966545581817627 -0.786426663398742676 -0.0234484393149614334 0.0183169934898614883
121.488410949707031 43.3861618041992188 7.66393041610717773 433 1644824951.55297828 -0.177300065755844116 -0.984080910682678223 0.0104032112285494804 0.00642372714355587959
111.719573974609375 48.1831169128417969 7.62923908233642578 434 1644824953.65061784 -0.339390397071838379 -0.940482676029205322 -0.0131263360381126404 0.0115813817828893661
103.540298461914062 57.48797607421875 7.64020586013793945 435 1644824955.74965048 -0.508991599082946777 -0.860593855381011963 -0.0167064648121595383 0.0051615564152598381
98.9182586669921875 68.0627517700195312 7.67824602127075195 436 1644824957.75037169 -0.476665347814559937 -0.878841221332550049 -0.0091032637283205986 0.0185856278985738754
89.7034072875976562 77.8371353149414062 7.85025310516357422 437 1644824959.85059047 -0.372731715440750122 -0.927564799785614014 -0.00570920668542385101 0.025728987529873848
86.0499038696289062 81.3572006225585938 7.83326292037963867 438 1644824960.65942621 -0.379503458738327026 -0.925059616565704346 -0.00589439552277326584 0.0143926190212368965
82.2188339233398438 85.1861419677734375 7.87719011306762695 439 1644824961.54987431 -0.388777285814285278 -0.921175718307495117 -0.00834367983043193817 0.0147626455873250961
78.643157958984375 88.8416595458984375 7.89315128326416016 440 1644824962.35018826 -0.388819992542266846 -0.921156346797943115 -0.00240927981212735176 0.0168590787798166275
74.7065200805664062 92.7767105102539062 7.90485286712646484 441 1644824963.24896383 -0.387282997369766235 -0.921956539154052734 -0.00266740634106099606 0.000929233909118920565
71.1033248901367188 96.3308486938476562 7.90843105316162109 442 1644824964.15654826 -0.378688812255859375 -0.925187528133392334 -0.0172635186463594437 0.0180206764489412308
67.4576950073242188 99.9305953979492188 7.90385246276855469 443 1644824965.04935455 -0.378971576690673828 -0.925336003303527832 -0.00337224779650568962 0.0110665718093514442
63.9135208129882812 104.100242614746094 7.87366342544555664 444 1644824966.05195355 -0.47660750150680542 -0.8789101243019104 -0.0189270544797182083 -0.00200920482166111469
62.6544227600097656 107.934516906738281 7.84979629516601562 445 1644824966.85166693 -0.622398972511291504 -0.78269118070602417 -0.00300124567002058029 -0.00224598287604749203
