# .PCD v0.7 - Point Cloud Data file format
VERSION 0.7
FIELDS x y z intensity t qx qy qz qw
SIZE 4 4 4 4 8 4 4 4 4
TYPE F F F F F F F F F
COUNT 1 1 1 1 1 1 1 1 1
WIDTH 277
HEIGHT 1
VIEWPOINT 0 0 0 1 0 0 0
POINTS 277
DATA ascii
143.585372924804688 -211.684097290039062 -5.31936264038085938 134 1644762933.97061539 0.999738752841949463 0.0119593841955065727 0.00752450013533234596 0.0179667472839355469
148.695587158203125 -211.454910278320312 -5.29868793487548828 135 1644762934.67247653 0.999555826187133789 0.0226277187466621399 0.00670265965163707733 0.018198888748884201
153.78228759765625 -211.145217895507812 -5.2430882453918457 136 1644762935.37157536 0.999453306198120117 0.0275279972702264786 0.00746745569631457329 0.0167208369821310043
158.881988525390625 -210.852691650390625 -5.17903900146484375 137 1644762936.07375693 0.999430358409881592 0.0296134240925312042 0.00715242559090256691 0.0145210623741149902
163.927215576171875 -210.555557250976562 -5.10277509689331055 138 1644762936.77344108 0.999566495418548584 0.0207224804908037186 0.0136489672586321831 0.0158454664051532745
168.947662353515625 -210.288131713867188 -4.9912562370300293 139 1644762937.47317004 0.999353468418121338 0.0299797710031270981 0.015913965180516243 0.0118598854169249535
173.942733764648438 -210.025741577148438 -4.86383628845214844 140 1644762938.17368817 0.999617815017700195 0.0186691805720329285 0.016933932900428772 0.0113567449152469635
179.63348388671875 -209.717742919921875 -4.68781661987304688 141 1644762938.97497964 0.999423444271087646 0.0227808840572834015 0.0201579686254262924 0.0150830904021859169
185.287155151367188 -209.444381713867188 -4.50970602035522461 142 1644762939.7750597 0.999486923217773438 0.0201481115072965622 0.0213891789317131042 0.0127463610842823982
190.88836669921875 -209.177505493164062 -4.34706735610961914 143 1644762940.56952381 0.999371826648712158 0.0240487735718488693 0.0241968315094709396 0.009600040502846241
196.542236328125 -208.806625366210938 -4.1573643684387207 144 1644762941.3765521 0.999036490917205811 0.0374754779040813446 0.021931057795882225 0.00638456270098686218
202.130401611328125 -208.307373046875 -3.98609757423400879 145 1644762942.17550111 0.998096823692321777 0.05872349813580513 0.0186855383217334747 0.00227350345812737942
207.68524169921875 -207.33160400390625 -3.82766985893249512 146 1644762942.97644258 0.994985044002532959 0.0981157571077346802 0.0184867028146982193 0.00602956907823681831
213.120208740234375 -205.951522827148438 -3.67921090126037598 147 1644762943.77339697 0.990872859954833984 0.133119776844978333 0.0196470525115728378 0.00800613779574632645
218.500045776367188 -204.384368896484375 -3.51849126815795898 148 1644762944.56953382 0.988602042198181152 0.148223713040351868 0.0256144516170024872 0.00629548029974102974
223.87554931640625 -202.641021728515625 -3.35441875457763672 149 1644762945.37180901 0.987116873264312744 0.158709213137626648 0.0200167503207921982 0.00331618916243314743
229.18157958984375 -200.768142700195312 -3.20963740348815918 150 1644762946.17339063 0.983615696430206299 0.178079098463058472 0.0274419840425252914 0.00590851716697216034
234.47003173828125 -198.880691528320312 -3.02882266044616699 151 1644762946.97135806 0.984375417232513428 0.174332708120346069 0.022436831146478653 0.0104731004685163498
239.861068725585938 -197.159103393554688 -2.87965893745422363 152 1644762947.7721827 0.990417361259460449 0.136621579527854919 0.01184866763651371 0.016359994187951088
245.389022827148438 -195.960418701171875 -2.7571563720703125 153 1644762948.57210922 0.995129644870758057 0.096373729407787323 -0.00846699904650449753 0.0189043544232845306
250.741165161132812 -195.012969970703125 -2.54755830764770508 154 1644762949.37485504 0.996206462383270264 0.0809758678078651428 0.0287945792078971863 0.013654717244207859
256.187347412109375 -194.2791748046875 -2.36338281631469727 155 1644762950.17338157 0.997752010822296143 0.062687307596206665 0.0213640537112951279 0.0102351298555731773
261.59356689453125 -193.501388549804688 -2.16122865676879883 156 1644762950.97170496 0.997383832931518555 0.0666288584470748901 0.0234123580157756805 0.0154240680858492851
267.02392578125 -192.642654418945312 -1.965370774269104 157 1644762951.7706759 0.996559321880340576 0.0781976580619812012 0.0223153308033943176 0.0160205624997615814
272.42755126953125 -191.671905517578125 -1.80752658843994141 158 1644762952.57111931 0.994492530822753906 0.102449558675289154 0.0203535687178373337 0.00862777139991521835
277.748687744140625 -190.289840698242188 -1.62197697162628174 159 1644762953.36992264 0.989793121814727783 0.138615697622299194 0.029649343341588974 0.0147037766873836517
283.052703857421875 -188.588180541992188 -1.44150710105895996 160 1644762954.16939473 0.985401153564453125 0.169307142496109009 0.0176493432372808456 0.00286450539715588093
288.27008056640625 -186.582595825195312 -1.27466392517089844 161 1644762954.97040868 0.98211216926574707 0.186964496970176697 0.0216962005943059921 0.00540200807154178619
293.4671630859375 -184.480453491210938 -1.09860992431640625 162 1644762955.7683332 0.979905366897583008 0.198292091488838196 0.020839417353272438 0.00560675328597426414
298.5723876953125 -182.232345581054688 -0.921121001243591309 163 1644762956.56910229 0.977131664752960205 0.209028840065002441 0.0366707220673561096 0.0132626332342624664
303.63519287109375 -179.942291259765625 -0.711267828941345215 164 1644762957.37129593 0.977073252201080322 0.208696886897087097 0.0379274338483810425 0.0183030739426612854
308.59930419921875 -177.736923217773438 -0.426949590444564819 165 1644762958.16896033 0.978314995765686035 0.203496336936950684 0.0365238003432750702 0.0124500207602977753
313.16632080078125 -175.71710205078125 -0.138033404946327209 166 1644762958.97109985 0.977850258350372314 0.20659463107585907 0.0328108184039592743 0.00714355474337935448
317.999298095703125 -173.455245971679688 0.166795581579208374 167 1644762959.96961045 0.974624395370483398 0.221393972635269165 0.0322321429848670959 0.00728249456733465195
322.358612060546875 -170.30633544921875 0.463201373815536499 168 1644762961.06958795 0.92715531587600708 0.373154163360595703 0.0333258882164955139 -0.00532549293711781502
324.17718505859375 -167.17816162109375 0.609137654304504395 169 1644762961.7697823 0.846554100513458252 0.531538903713226318 0.0277496948838233948 -0.00651971716433763504
324.876434326171875 -163.688720703125 0.897657930850982666 170 1644762962.47001195 0.730149805545806885 0.678354322910308838 0.0478505045175552368 -0.0665357783436775208
324.020904541015625 -159.786331176757812 1.37134635448455811 171 1644762963.26966286 0.586622357368469238 0.806593179702758789 0.0395809784531593323 -0.0609510466456413269
321.212310791015625 -155.525161743164062 1.98777973651885986 172 1644762964.37051129 0.455575495958328247 0.887629091739654541 0.0469880253076553345 -0.048556007444858551
317.665771484375 -151.481002807617188 2.53503060340881348 173 1644762965.5705018 0.402816206216812134 0.91320270299911499 0.0444782301783561707 -0.0426808483898639679
313.909393310546875 -147.730987548828125 3.11606764793395996 174 1644762966.76983094 0.379514992237091064 0.922597169876098633 0.0464280284941196442 -0.0512564629316329956
309.972900390625 -144.274337768554688 3.68341398239135742 175 1644762967.97143435 0.328537076711654663 0.942761659622192383 0.0334223397076129913 -0.0463332049548625946
305.4854736328125 -141.507034301757812 4.15110540390014648 176 1644762969.17125607 0.25953790545463562 0.964367449283599854 0.0307491440325975418 -0.0411096289753913879
300.66925048828125 -139.018646240234375 4.61538887023925781 177 1644762970.36961818 0.235700815916061401 0.970494925975799561 0.0312794037163257599 -0.0400786660611629486
296.11737060546875 -136.689132690429688 5.0353240966796875 178 1644762971.47045684 0.244297981262207031 0.967828094959259033 0.0395474880933761597 -0.0454234182834625244
291.504608154296875 -134.041824340820312 5.41759157180786133 179 1644762972.57096839 0.258735001087188721 0.964982807636260986 0.0286700688302516937 -0.0322869755327701569
286.7647705078125 -131.619644165039062 5.66355323791503906 180 1644762973.77353239 0.23200632631778717 0.97164076566696167 0.0416633710265159607 -0.0187471881508827209
282.343505859375 -128.925552368164062 5.84233665466308594 181 1644762975.17370224 0.277779668569564819 0.960196733474731445 0.01951640285551548 -0.0219054669141769409
278.06378173828125 -125.872360229492188 5.99902248382568359 182 1644762976.37292123 0.299269169569015503 0.954080700874328613 0.00206710654310882092 -0.0127932112663984299
273.860260009765625 -123.120834350585938 6.07191610336303711 183 1644762977.37062716 0.277805358171463013 0.960494101047515869 -0.00861235614866018295 -0.0141807310283184052
269.580657958984375 -120.473892211914062 6.12723731994628906 184 1644762978.27460909 0.275597244501113892 0.96118396520614624 -0.00465959450230002403 -0.0122384047135710716
265.0648193359375 -117.463890075683594 6.1735224723815918 185 1644762979.17307615 0.300992280244827271 0.953564465045928955 0.00235143047757446766 -0.0106244776397943497
261.072174072265625 -114.366950988769531 6.22664928436279297 186 1644762979.97399211 0.33512529730796814 0.942091047763824463 -0.00401349784806370735 -0.0118058687075972557
257.115386962890625 -110.84765625 6.23206663131713867 187 1644762980.77367187 0.366563171148300171 0.930329859256744385 -0.000651346228551119566 -0.010831143707036972
253.225143432617188 -106.893470764160156 6.23235225677490234 188 1644762981.57408476 0.393630504608154297 0.919210493564605713 -0.00594282941892743111 -0.00847097113728523254
249.463241577148438 -102.622688293457031 6.26044511795043945 189 1644762982.37356043 0.424105167388916016 0.905582547187805176 -0.00292390189133584499 -0.00682157184928655624
246.49786376953125 -98.4793472290039062 6.21153450012207031 190 1644762983.0756228 0.484449684619903564 0.874806523323059082 0.00191391096450388432 0.00429223710671067238
244.0537109375 -94.0372467041015625 6.24400186538696289 191 1644762983.77176476 0.521726369857788086 0.853061079978942871 0.00932227354496717453 -0.00123058678582310677
242.085586547851562 -89.3644332885742188 6.28097343444824219 192 1644762984.46938181 0.56318962574005127 0.826211690902709961 0.00201009633019566536 -0.0136997224763035774
240.398818969726562 -84.488525390625 6.29839801788330078 193 1644762985.17577147 0.590135455131530762 0.80726701021194458 -0.0017111942870542407 -0.00755860144272446632
239.04388427734375 -79.606201171875 6.31351661682128906 194 1644762985.86915445 0.611621439456939697 0.791109621524810791 -0.00361461588181555271 -0.00718649150803685188
237.873565673828125 -74.0761489868164062 6.32073307037353516 195 1644762986.67210531 0.649767816066741943 0.76012718677520752 -0.00187277817167341709 0.00222612475045025349
237.475814819335938 -68.8526458740234375 6.33615493774414062 196 1644762987.4676311 0.683684587478637695 0.729763448238372803 -0.00361322122626006603 -0.00276386993937194347
237.283370971679688 -63.2484588623046875 6.3464508056640625 197 1644762988.37385416 0.694395065307617188 0.719568550586700439 -0.00207219249568879604 -0.00568409962579607964
236.918106079101562 -58.1473503112792969 6.40192031860351562 198 1644762989.26658821 0.673079609870910645 0.739486992359161377 0.00265103555284440517 -0.0107611212879419327
235.693435668945312 -53.0780868530273438 6.45440769195556641 199 1644762990.2689631 0.58472132682800293 0.810986876487731934 -0.00863256398588418961 -0.0180765204131603241
233.13885498046875 -48.7011451721191406 6.50862550735473633 200 1644762991.36721396 0.466176867485046387 0.884519875049591064 0.0129643864929676056 -0.0116471480578184128
229.750152587890625 -45.7932968139648438 6.52281665802001953 201 1644762992.46569824 0.295636087656021118 0.955294609069824219 0.00216920068487524986 0.00260703149251639843
224.8133544921875 -43.8494606018066406 6.54438066482543945 202 1644762993.9723556 0.185035660862922668 0.982357501983642578 0.0267174392938613892 -0.0046551763080060482
220.071487426757812 -41.9555282592773438 6.50732326507568359 203 1644762995.1681385 0.192857444286346436 0.981118977069854736 0.0142620867118239403 0.00285288365557789803
215.495803833007812 -39.7548904418945312 6.49202871322631836 204 1644762996.36607957 0.234489515423774719 0.971991479396820068 0.0156968887895345688 0.000948202214203774929
210.778762817382812 -37.1552391052246094 6.47351312637329102 205 1644762997.66576076 0.263898879289627075 0.964227497577667236 0.0238003935664892197 0.00750370929017663002
206.5810546875 -34.4178810119628906 6.46873044967651367 206 1644762998.96591687 0.297575980424880981 0.954411923885345459 0.0218049418181180954 0.00842660292983055115
202.367202758789062 -31.3482189178466797 6.47817564010620117 207 1644763000.56708789 0.312827140092849731 0.949666380882263184 0.0156407151371240616 0.00532398838549852371
198.353103637695312 -28.2085094451904297 6.52241802215576172 208 1644763002.56542492 0.326855719089508057 0.944936513900756836 0.0141418436542153358 -0.00777013599872589111
194.287734985351562 -24.9113845825195312 6.63340187072753906 209 1644763004.3647275 0.33548659086227417 0.941871583461761475 0.014914296567440033 -0.0102079957723617554
190.266647338867188 -21.5683612823486328 6.7264256477355957 210 1644763006.06778002 0.342916280031204224 0.939278483390808105 0.0115312375128269196 -0.00560073414817452431
186.380264282226562 -17.9337902069091797 6.76502227783203125 211 1644763007.66483068 0.382400572299957275 0.923951983451843262 0.00861521065235137939 -0.00288118491880595684
182.949462890625 -14.2297077178955078 6.78950786590576172 212 1644763009.06374192 0.395820081233978271 0.918300390243530273 0.00469638872891664505 -0.00536585086956620216
179.11688232421875 -10.5211877822875977 6.91426563262939453 213 1644763010.46426034 0.372119098901748657 0.927907645702362061 0.0176926031708717346 -0.0142039051279425621
175.40655517578125 -7.08204936981201172 7.03963184356689453 214 1644763011.7644465 0.371584922075271606 0.92808300256729126 0.0227586403489112854 -0.00828756857663393021
171.546234130859375 -3.41600441932678223 7.19085836410522461 215 1644763013.16706824 0.379025846719741821 0.924862504005432129 0.030607275664806366 -0.00565001321956515312
167.812820434570312 0.209076449275016785 7.39308738708496094 216 1644763014.56474257 0.379295378923416138 0.92485576868057251 0.026076190173625946 -0.00984135828912258148
164.151275634765625 3.90362954139709473 7.62284040451049805 217 1644763016.16573048 0.388205021619796753 0.920612633228302002 0.0358973965048789978 -0.021921815350651741
160.457672119140625 7.6950383186340332 7.8132023811340332 218 1644763017.66797113 0.388595908880233765 0.921094596385955811 0.0145381772890686989 -0.0191458743065595627
156.8232421875 11.2016429901123047 8.01189327239990234 219 1644763019.16823196 0.379185587167739868 0.924898803234100342 0.023096064105629921 -0.0157189797610044479
153.24041748046875 14.823908805847168 8.19167804718017578 220 1644763020.76918459 0.386314898729324341 0.922079265117645264 0.0169712081551551819 -0.0155765702947974205
149.553115844726562 18.7121295928955078 8.39717578887939453 221 1644763022.3687923 0.396662086248397827 0.917547762393951416 0.0216673854738473892 -0.0171981360763311386
145.961624145507812 22.4879875183105469 8.53649616241455078 222 1644763023.76930308 0.395664513111114502 0.918242216110229492 0.0144101111218333244 -0.0085509205237030983
142.224227905273438 25.9993267059326172 8.42639827728271484 223 1644763025.06909084 0.368788182735443115 0.929176390171051025 0.0189311113208532333 0.0163737982511520386
138.409103393554688 29.2692661285400391 8.35145187377929688 224 1644763026.37014675 0.353893458843231201 0.934535384178161621 0.0323953330516815186 0.0188031494617462158
134.568099975585938 32.4940681457519531 8.349090576171875 225 1644763027.66865349 0.343571484088897705 0.938667356967926025 0.0256111752241849899 0.0143628017976880074
130.485275268554688 35.7523155212402344 8.21495532989501953 226 1644763028.96495676 0.33963051438331604 0.939393341541290283 0.0387123823165893555 0.0263172909617424011
126.647651672363281 39.1641502380371094 8.00294780731201172 227 1644763030.26721883 0.376529961824417114 0.924724817276000977 0.0210767388343811035 0.051622878760099411
124.725669860839844 42.5129051208496094 7.80833721160888672 228 1644763031.16515088 0.548125386238098145 0.833871006965637207 0.0431548543274402618 0.0485325343906879425
124.554595947265625 45.4664993286132812 7.76653432846069336 229 1644763031.76576471 0.698365092277526855 0.71426856517791748 0.0284763332456350327 0.0359956696629524231
125.4884033203125 48.2195777893066406 7.68048810958862305 230 1644763032.36612153 0.81561887264251709 0.578152239322662354 -0.00769258523359894753 0.0211345534771680832
128.733993530273438 52.6653900146484375 7.64273595809936523 231 1644763033.46343255 0.90068817138671875 0.434340476989746094 0.00104491447564214468 -0.0103986253961920738
132.190658569335938 56.8402061462402344 7.61732053756713867 232 1644763034.46586466 0.894597172737121582 0.446029871702194214 -0.0125883994624018669 -0.0243885461241006851
133.381072998046875 61.9560966491699219 7.65453767776489258 233 1644763035.56597066 0.696557283401489258 0.716727912425994873 -0.0183857250958681107 -0.0277675539255142212
130.661117553710938 66.3736343383789062 7.69044733047485352 234 1644763036.66602778 0.430411994457244873 0.902586638927459717 -0.00242610694840550423 -0.00877436622977256775
126.64678955078125 69.9748077392578125 7.68571376800537109 235 1644763037.66559243 0.335918158292770386 0.94188302755355835 -0.000272076780674979091 -0.00390120712108910084
122.32781982421875 73.211151123046875 7.67082834243774414 236 1644763038.5652864 0.322512209415435791 0.946535348892211914 0.00752569595351815224 0.000347952067386358976
118.324165344238281 76.4402008056640625 7.66044378280639648 237 1644763039.36554551 0.336366534233093262 0.941680431365966797 0.0070221233181655407 -0.00679833628237247467
114.227951049804688 79.9119186401367188 7.70939445495605469 238 1644763040.16493034 0.342602252960205078 0.939396679401397705 -0.00193411542568355799 -0.012403625063598156
109.994003295898438 83.5882339477539062 7.69333744049072266 239 1644763040.96582794 0.353697746992111206 0.935355842113494873 -0.00156550842802971601 -0.0022268716711550951
106.238677978515625 86.9361572265625 7.67628097534179688 240 1644763041.66752768 0.362076550722122192 0.932122528553009033 0.0051407194696366787 -0.00466422177851200104
102.442451477050781 90.31207275390625 7.65159177780151367 241 1644763042.36788988 0.358817428350448608 0.933316707611083984 0.0125539489090442657 -0.00351880327798426151
98.6544647216796875 93.7900619506835938 7.6382594108581543 242 1644763043.06906796 0.360654562711715698 0.932697772979736328 -0.000757410540245473385 -0.00161271181423217058
94.8957138061523438 97.262115478515625 7.63244104385375977 243 1644763043.7681725 0.370427519083023071 0.928846418857574463 0.00388093828223645687 -0.00357264606282114983
91.1576690673828125 100.748878479003906 7.65586948394775391 244 1644763044.46731186 0.366844445466995239 0.930256068706512451 0.00360128050670027733 -0.00598754175007343292
87.4451065063476562 104.261268615722656 7.66760015487670898 245 1644763045.16680288 0.372543603181838989 0.927939414978027344 0.00736257154494524002 -0.00924422405660152435
83.77923583984375 107.710975646972656 7.65961885452270508 246 1644763045.86702037 0.372507035732269287 0.92801278829574585 0.00334438751451671124 0.00442336872220039368
79.8748016357421875 111.463943481445312 7.65164899826049805 247 1644763046.66906214 0.372702121734619141 0.92794954776763916 -0.0016103062080219388 0.000367356027709320188
76.2347030639648438 114.989227294921875 7.67614650726318359 248 1644763047.46829939 0.377449721097946167 0.926009416580200195 0.00618356559425592422 -0.000147124374052509665
72.4177474975585938 118.381019592285156 7.68612813949584961 249 1644763048.36745477 0.322644561529159546 0.946494817733764648 -0.00684489170089364052 -0.00108821841422468424
69.6780242919921875 119.314605712890625 7.71013212203979492 250 1644763048.96923256 0.110875219106674194 0.993446111679077148 -0.027596399188041687 -0.00315307453274726868
67.5904312133789062 118.889701843261719 7.72217750549316406 251 1644763049.46872044 -0.10011252760887146 0.994368970394134521 -0.0346244163811206818 0.00299995462410151958
65.072967529296875 117.315032958984375 7.7611079216003418 252 1644763050.26824975 -0.284537315368652344 0.957877874374389648 -0.0376299619674682617 0.00961830466985702515
61.9042625427246094 113.721832275390625 7.83240604400634766 253 1644763051.46606183 -0.468047678470611572 0.883112490177154541 -0.0321474485099315643 0.00319539220072329044
61.1746063232421875 110.985389709472656 7.85080671310424805 254 1644763052.06878543 -0.631772994995117188 0.774385392665863037 -0.0277422554790973663 0.0205066222697496414
61.6367301940917969 108.117454528808594 7.85372447967529297 255 1644763052.66958547 -0.772687196731567383 0.634078383445739746 -0.0106019703671336174 0.0280473064631223679
63.8579788208007812 103.526657104492188 7.89917850494384766 256 1644763053.66707373 -0.861245572566986084 0.507691085338592529 -0.01611311174929142 0.0156923141330480576
67.1174697875976562 99.5274810791015625 7.92581510543823242 257 1644763054.56897616 -0.916681289672851562 0.399101585149765015 -0.0117319412529468536 0.0166034940630197525
71.2559432983398438 95.8838272094726562 7.93190765380859375 258 1644763055.47026205 -0.938548862934112549 0.344483792781829834 -0.017090924084186554 0.0128378411754965782
75.3065719604492188 92.5261611938476562 7.86987400054931641 259 1644763056.27030587 -0.937261700630187988 0.342227846384048462 0.0560872927308082581 0.0357048511505126953
79.1697616577148438 89.3189849853515625 7.91771888732910156 260 1644763057.07051921 -0.939056277275085449 0.34369271993637085 -0.00487653771415352821 0.00498529849573969841
83.1148147583007812 86.0687179565429688 7.89206504821777344 261 1644763057.86856937 -0.941450893878936768 0.337086021900177002 -0.00648297695443034172 -0.00111182627733796835
87.1668319702148438 82.7579421997070312 7.85562324523925781 262 1644763058.66758728 -0.941097021102905273 0.338120460510253906 -0.000690244312863796949 -0.00324314367026090622
91.3308792114257812 79.4014053344726562 7.81559848785400391 263 1644763059.46521711 -0.94376140832901001 0.330579161643981934 0.0056304931640625 -0.000279158062767237425
95.3216781616210938 76.1784896850585938 7.73819780349731445 264 1644763060.27165508 -0.942605078220367432 0.333630979061126709 0.0118372896686196327 -0.00678001251071691513
99.4813079833984375 72.6181869506835938 7.71141672134399414 265 1644763061.17012811 -0.938030660152435303 0.346356511116027832 -0.00774467503651976585 -0.00870158988982439041
103.466011047363281 69.0388870239257812 7.72727680206298828 266 1644763062.06510329 -0.933661758899688721 0.357918053865432739 0.00125392270274460316 0.012992524541914463
107.808662414550781 65.4498443603515625 7.67755842208862305 267 1644763062.96951556 -0.937049627304077148 0.349178820848464966 -0.0021067510824650526 0.00277215335518121719
111.736549377441406 61.8207817077636719 7.66310644149780273 268 1644763063.76909757 -0.925101280212402344 0.379497498273849487 -0.000134233618155121803 -0.0130082787945866585
115.286224365234375 58.1406021118164062 7.68712377548217773 269 1644763064.56685877 -0.918967366218566895 0.394270002841949463 0.00189253431744873524 -0.00682140327990055084
118.801483154296875 54.4143486022949219 7.66351795196533203 270 1644763065.5679121 -0.917263150215148926 0.398198157548904419 -0.00413685617968440056 -0.00703177647665143013
126.247055053710938 46.8929672241210938 7.71130561828613281 271 1644763067.57077503 -0.921239674091339111 0.388673126697540283 -0.00505819916725158691 -0.0150014413520693779
132.988800048828125 38.2371253967285156 8.5202484130859375 272 1644763069.66959453 -0.871926307678222656 0.488838225603103638 -0.0223226547241210938 0.0168336108326911926
134.643478393554688 32.8441543579101562 8.37421607971191406 273 1644763070.8709836 -0.76897883415222168 0.63833993673324585 -0.00399902835488319397 0.0343175493180751801
134.294708251953125 29.4989681243896484 8.19709682464599609 274 1644763071.57112193 -0.641719579696655273 0.76627117395401001 0.0127793708816170692 0.0293453652411699295
133.090103149414062 27.0662555694580078 7.97956180572509766 275 1644763072.06918788 -0.499182522296905518 0.865133464336395264 0.0389766469597816467 0.0290118064731359482
129.451919555664062 23.1982688903808594 7.55819272994995117 276 1644763072.96620131 -0.389298051595687866 0.920385003089904785 0.0240564905107021332 0.0275630932301282883
125.617546081542969 19.4075126647949219 7.16120147705078125 277 1644763073.76565933 -0.378321915864944458 0.924911260604858398 0.0285457875579595566 0.0244299322366714478
121.898704528808594 15.7681865692138672 6.77592897415161133 278 1644763074.46686578 -0.373631298542022705 0.926871180534362793 0.0208076685667037964 0.0296060144901275635
118.102752685546875 11.943842887878418 6.39402437210083008 279 1644763075.16550922 -0.386164277791976929 0.92189866304397583 0.0149395260959863663 0.0275107063353061676
114.242149353027344 7.94090700149536133 5.9791259765625 280 1644763075.8663373 -0.390402138233184814 0.919785141944885254 0.0206532515585422516 0.0339836478233337402
110.353309631347656 3.81365346908569336 5.54895544052124023 281 1644763076.56552958 -0.391925632953643799 0.919097721576690674 0.0265523474663496017 0.0307997278869152069
106.338279724121094 -0.26035010814666748 5.12906122207641602 282 1644763077.26455188 -0.376761406660079956 0.925503313541412354 0.0286609623581171036 0.0259423255920410156
102.147476196289062 -4.22524070739746094 4.74251365661621094 283 1644763077.96550179 -0.360518813133239746 0.932190954685211182 0.0278213731944561005 0.0164969172328710556
97.85174560546875 -8.11321926116943359 4.39924955368041992 284 1644763078.66345692 -0.360200971364974976 0.932387471199035645 0.0231748912483453751 0.0192812252789735794
93.6206817626953125 -12.0863142013549805 4.07526206970214844 285 1644763079.36617589 -0.368164807558059692 0.929261326789855957 0.0206540953367948532 0.0223942417651414871
89.4567413330078125 -16.0527477264404297 3.75697517395019531 286 1644763080.06352663 -0.374853760004043579 0.926589429378509521 0.0134317260235548019 0.0271347258239984512
85.3453369140625 -20.0569210052490234 3.4282987117767334 287 1644763080.76420212 -0.375143229961395264 0.92657935619354248 0.00990855507552623749 0.0249007176607847214
81.2937545776367188 -24.1463642120361328 3.04891371726989746 288 1644763081.46371269 -0.385114938020706177 0.922299802303314209 0.0174295231699943542 0.0273089706897735596
77.3478240966796875 -28.2150058746337891 2.80662727355957031 289 1644763082.16333938 -0.390421360731124878 0.920587837696075439 0.00934258103370666504 0.00137145968619734049
73.440582275390625 -32.3220367431640625 2.62022018432617188 290 1644763082.86315179 -0.393444985151290894 0.919151186943054199 0.0181911401450634003 0.00559167377650737762
69.62713623046875 -36.3894805908203125 2.4266197681427002 291 1644763083.56382585 -0.390327036380767822 0.920296072959899902 0.0254367813467979431 0.00727301090955734253
65.7806243896484375 -40.2782783508300781 2.29312038421630859 292 1644763084.26359773 -0.372096270322799683 0.927837073802947998 0.0257124807685613632 -0.00125479756388813257
61.6677780151367188 -43.7663421630859375 2.23159503936767578 293 1644763084.96406484 -0.329405784606933594 0.944008111953735352 0.0170021001249551773 -0.00717152329161763191
57.3670997619628906 -46.8377761840820312 2.24232578277587891 294 1644763085.66304612 -0.297868520021438599 0.954568445682525635 0.00156384101137518883 -0.00842786021530628204
52.9184913635253906 -49.5904045104980469 2.27888655662536621 295 1644763086.36321712 -0.262928366661071777 0.964789509773254395 -0.00294246873818337917 -0.00642266916111111641
48.359710693359375 -52.0140190124511719 2.34752869606018066 296 1644763087.06275535 -0.231798261404037476 0.972713947296142578 -0.00408600736409425735 -0.00897005200386047363
43.7332572937011719 -54.0893440246582031 2.47382020950317383 297 1644763087.76323509 -0.198347419500350952 0.979931235313415527 -0.0107148792594671249 -0.0166797749698162079
39.0818061828613281 -55.9651832580566406 2.63730359077453613 298 1644763088.4631083 -0.181674107909202576 0.983065009117126465 -0.00513158785179257393 -0.023482590913772583
33.6813392639160156 -57.7012786865234375 2.86559224128723145 299 1644763089.26314688 -0.128936737775802612 0.991382718086242676 0.00147526699583977461 -0.023096742108464241
28.2094593048095703 -58.7949333190917969 3.14828276634216309 300 1644763090.06334209 -0.0771493017673492432 0.996546804904937744 -0.00342321209609508514 -0.030508456751704216
22.7225799560546875 -59.3558311462402344 3.44230842590332031 301 1644763090.862499 -0.0295114945620298386 0.999015748500823975 -0.000291357195237651467 -0.0331139117479324341
17.2884597778320312 -59.4154472351074219 3.78571486473083496 302 1644763091.6649363 0.0108353998512029648 0.999236226081848145 0.00239256653003394604 -0.0374671965837478638
11.9953651428222656 -59.1520462036132812 4.15678262710571289 303 1644763092.46273804 0.0300795994699001312 0.998828887939453125 0.00346026918850839138 -0.0377377308905124664
6.7739415168762207 -58.8140678405761719 4.47607660293579102 304 1644763093.26372886 0.0336090698838233948 0.998792290687561035 -0.000851445598527789116 -0.035828467458486557
1.65537846088409424 -58.4421310424804688 4.80604457855224609 305 1644763094.0648396 0.0371535494923591614 0.998484909534454346 -0.00530369067564606667 -0.0402413941919803619
-3.3866112232208252 -58.06781005859375 5.15365266799926758 306 1644763094.86341977 0.0387367866933345795 0.998500227928161621 -0.00377354491502046585 -0.0385037846863269806
-8.37353610992431641 -57.6893463134765625 5.49631261825561523 307 1644763095.66340184 0.0397068224847316742 0.998395681381225586 -0.0051939813420176506 -0.0400303900241851807
-13.9531669616699219 -57.2608528137207031 5.8749079704284668 308 1644763096.56636405 0.0379592254757881165 0.99835282564163208 -0.0100868726149201393 -0.0418203771114349365
-19.4428882598876953 -56.8502082824707031 6.19789218902587891 309 1644763097.46541333 0.0397761426866054535 0.998471915721893311 -0.0108759840950369835 -0.0367882885038852692
-24.5901317596435547 -56.142364501953125 6.50504875183105469 310 1644763098.36927366 0.125179126858711243 0.991729915142059326 0.00762139540165662766 -0.0272736735641956329
-27.2628135681152344 -54.56988525390625 6.6630401611328125 311 1644763098.96491265 0.297675579786300659 0.954388856887817383 0.00504167471081018448 -0.0224892217665910721
-29.3787975311279297 -51.7432785034179688 6.81963872909545898 312 1644763099.66469097 0.478010088205337524 0.878051102161407471 0.00284998654387891293 -0.022902708500623703
-30.3581600189208984 -48.2742919921875 7.01606416702270508 313 1644763100.3644855 0.635682046413421631 0.771421134471893311 0.0142354434356093407 -0.0248018465936183929
-30.4281177520751953 -37.3172836303710938 7.57583236694335938 314 1644763102.36573052 0.715782642364501953 0.697011113166809082 0.00857845693826675415 -0.041917949914932251
-29.6088085174560547 -25.6708965301513672 8.12578678131103516 315 1644763104.36602855 0.734701871871948242 0.677539944648742676 0.00494361435994505882 -0.0335909947752952576
-31.9949455261230469 -14.5220165252685547 8.54625988006591797 316 1644763106.46652484 0.56991422176361084 0.821570992469787598 0.0142066525295376778 -0.00413084728643298149
-34.7661170959472656 -5.33519315719604492 8.76967716217041016 317 1644763108.56652355 0.696430087089538574 0.717096567153930664 0.0254870504140853882 0.010393473319709301
-28.9706001281738281 0.884510815143585205 8.78754615783691406 318 1644763110.56849909 0.995850324630737305 0.0833775773644447327 -0.00426295306533575058 0.0362228304147720337
-20.472747802734375 -4.06131696701049805 8.59298324584960938 319 1644763112.66564178 0.952673077583312988 -0.303944587707519531 -0.00362596474587917328 0.00430589029565453529
-10.6968955993652344 -8.54518890380859375 8.45339107513427734 320 1644763114.47000265 0.992132961750030518 -0.124574378132820129 -0.00105906941462308168 -0.0123420767486095428
3.97671771049499512 -9.48653507232666016 7.54982280731201172 321 1644763116.56881428 0.997734606266021729 0.0540569648146629333 -0.0400397256016731262 -0.000575617828872054815
18.9108753204345703 -5.27672910690307617 6.57483100891113281 322 1644763118.6686995 0.973849177360534668 0.226435154676437378 -0.0180766861885786057 -0.00425735674798488617
30.5028629302978516 4.4936060905456543 6.4814753532409668 323 1644763120.76554489 0.924704968929290771 0.380642235279083252 0.00366298318840563297 -0.00433628959581255913
40.5922126770019531 14.974278450012207 6.53646993637084961 324 1644763122.76691031 0.925597131252288818 0.378314793109893799 0.00406476156786084175 -0.0114609887823462486
51.6085929870605469 25.6577415466308594 6.56580638885498047 325 1644763124.86700487 0.928171157836914062 0.372038513422012329 0.00109754409641027451 -0.00918692629784345627
61.9077110290527344 36.6149330139160156 6.97117710113525391 326 1644763126.9614327 0.917291343212127686 0.397654354572296143 0.0206654593348503113 -0.00453079864382743835
70.4866943359375 47.3647994995117188 7.42658185958862305 327 1644763128.96155286 0.823064625263214111 0.567254543304443359 0.00724397646263241768 -0.0271006077527999878
70.9241104125976562 51.6484222412109375 7.52205038070678711 328 1644763129.66169739 0.708529472351074219 0.705435812473297119 -0.00427457690238952637 -0.0181117076426744461
73.83258056640625 62.2546653747558594 7.72239398956298828 329 1644763131.66176367 0.908476948738098145 0.417651474475860596 0.000821372726932168007 -0.0153694497421383858
79.7479400634765625 68.048553466796875 7.7262425422668457 330 1644763133.06209946 0.928185403347015381 0.371962010860443115 0.00691421283408999443 -0.00826482474803924561
82.66290283203125 70.9698867797851562 7.73670864105224609 331 1644763133.76417828 0.923971354961395264 0.382451742887496948 0.00270719616673886776 0.00055117323063313961
84.2313385009765625 72.5786972045898438 7.75159311294555664 332 1644763134.1627717 0.923722922801971436 0.383046865463256836 0.00242142658680677414 0.00227385712787508965
85.0043411254882812 73.3315200805664062 7.77282810211181641 333 1644763134.36400867 0.920698463916778564 0.390172809362411499 0.00465709157288074493 -0.00760199036449193954
85.3774948120117188 73.7219619750976562 7.78144693374633789 334 1644763134.46649218 0.923452675342559814 0.383368194103240967 0.0152543894946575165 -0.00559446355327963829
85.7607955932617188 74.1389541625976562 7.76230669021606445 335 1644763134.56342125 0.927449524402618408 0.373766928911209106 -0.00129371928051114082 0.0115741696208715439
89.6648406982421875 76.3940353393554688 7.80214309692382812 336 1644763135.46322107 0.983464479446411133 0.179993972182273865 -0.00666509941220283508 0.0188498944044113159
98.3340072631835938 72.9017791748046875 7.70996809005737305 337 1644763137.56183434 0.951508760452270508 -0.30716666579246521 -0.000136471207952126861 0.0167257785797119141
107.650665283203125 65.4794158935546875 7.68613100051879883 338 1644763139.66063046 0.940831303596496582 -0.338824361562728882 0.00543464953079819679 -0.00222718855366110802
117.194442749023438 56.803192138671875 7.62988567352294922 339 1644763141.66250563 0.923566341400146484 -0.379040747880935669 -0.0574335679411888123 0.00739950267598032951
125.411369323730469 48.157440185546875 7.69659900665283203 340 1644763143.66279125 0.915582537651062012 -0.402036458253860474 0.000562430359423160553 0.00865774974226951599
130.230789184570312 43.0833854675292969 8.15861701965332031 341 1644763144.76104403 0.921453416347503662 -0.381407678127288818 0.0694755017757415771 0.0249991565942764282
139.22161865234375 34.3777503967285156 8.68087482452392578 342 1644763146.76200247 0.944859325885772705 -0.325241982936859131 0.0187102779746055603 -0.0332938171923160553
143.088150024414062 31.0320358276367188 8.70575523376464844 343 1644763147.5655508 0.926771879196166992 -0.373174339532852173 0.0408944971859455109 -0.0127455508336424828
152.85101318359375 20.1940956115722656 8.45264816284179688 344 1644763149.66312623 0.920669972896575928 -0.38957783579826355 -0.00343269133009016514 -0.0241685565561056137
164.018508911132812 10.1558942794799805 7.88194990158081055 345 1644763151.66580844 0.945382833480834961 -0.325286060571670532 -0.00567278452217578888 -0.0202013347297906876
174.7161865234375 -1.69325101375579834 7.31681585311889648 346 1644763153.76410222 0.910504996776580811 -0.41276136040687561 -0.0020201471634209156 -0.0245894826948642731
185.347412109375 -12.6525859832763672 6.88068866729736328 347 1644763155.76456618 0.925096869468688965 -0.378970861434936523 0.00575623707845807076 -0.0233180392533540726
196.48126220703125 -22.6290931701660156 6.72194433212280273 348 1644763157.76608205 0.951955020427703857 -0.304478496313095093 0.00270044384524226189 -0.0326680019497871399
209.348602294921875 -31.3884773254394531 6.62508296966552734 349 1644763159.86687088 0.957882940769195557 -0.286125868558883667 0.0165393855422735214 -0.0178516805171966553
222.055389404296875 -38.1918525695800781 6.62979745864868164 350 1644763161.86748719 0.976759910583496094 -0.213766679167747498 0.00511257024481892586 -0.0147550748661160469
233.82122802734375 -44.1587295532226562 6.61071348190307617 351 1644763163.96279836 0.968039333820343018 -0.250287234783172607 0.00315662357024848461 -0.0156896188855171204
238.102401733398438 -46.865692138671875 6.60139036178588867 352 1644763164.96255112 0.952200651168823242 -0.305347263813018799 0.00187121890485286713 -0.00856838654726743698
240.606842041015625 -49.8599853515625 6.55623054504394531 353 1644763165.86229277 0.879950463771820068 -0.474860876798629761 -0.012711833231151104 0.00572680635377764702
241.196395874023438 -52.5476188659667969 6.47307395935058594 354 1644763166.56279039 0.77685546875 -0.629480719566345215 -0.0107235265895724297 -0.011602756567299366
240.815322875976562 -62.0308837890625 6.27718019485473633 355 1644763168.56304502 0.707739830017089844 -0.706436395645141602 -0.00512247206643223763 0.00507192313671112061
242.215682983398438 -74.7905120849609375 6.25267791748046875 356 1644763170.66450715 0.753293037414550781 -0.657087743282318115 0.0144227417185902596 0.0240274369716644287
245.898895263671875 -88.0548858642578125 6.18616724014282227 357 1644763172.7627542 0.811556160449981689 -0.584188520908355713 -0.000901629158761352301 0.00997599214315414429
252.977554321289062 -101.218727111816406 6.16271829605102539 358 1644763174.86295152 0.87266838550567627 -0.487725645303726196 -0.00156662554945796728 0.0238975994288921356
260.720428466796875 -109.747665405273438 6.14777421951293945 359 1644763176.46359396 0.944346725940704346 -0.328623950481414795 -0.00910501554608345032 0.0115198437124490738
272.72564697265625 -117.444389343261719 6.03091096878051758 360 1644763178.56279325 0.969984352588653564 -0.243091017007827759 -0.0020207124762237072 0.00574842747300863266
277.44281005859375 -119.369110107421875 5.96553945541381836 361 1644763179.56331539 0.978780865669250488 -0.202779054641723633 -0.0194687973707914352 0.0221265256404876709
281.978759765625 -121.611038208007812 5.96848821640014648 362 1644763181.36168694 0.973078131675720215 -0.230070248246192932 0.0037034244742244482 0.0131481178104877472
286.435760498046875 -123.937850952148438 5.94323873519897461 363 1644763183.16771913 0.967341780662536621 -0.253040701150894165 0.0148249957710504532 0.000674766604788601398
291.023406982421875 -126.708206176757812 5.86644363403320312 364 1644763184.46375728 0.962995529174804688 -0.268710404634475708 -0.00661279913038015366 -0.0197648331522941589
295.235015869140625 -129.476638793945312 5.62347078323364258 365 1644763185.56280422 0.95861661434173584 -0.282139211893081665 -0.0214969292283058167 -0.0314571820199489594
299.6568603515625 -131.950927734375 5.20082759857177734 366 1644763186.56386495 0.967063426971435547 -0.250688254833221436 -0.0335686244070529938 -0.0285811349749565125
304.26873779296875 -134.76666259765625 4.73027896881103516 367 1644763187.56355786 0.958981454372406006 -0.279442101716995239 -0.0378931313753128052 -0.0288229323923587799
309.419921875 -138.385910034179688 4.18100214004516602 368 1644763188.66480136 0.948313415050506592 -0.314283072948455811 -0.0406818799674510956 -0.0165151264518499374
317.865142822265625 -145.682846069335938 3.13476181030273438 369 1644763190.76488709 0.924197494983673096 -0.377140283584594727 -0.0452200546860694885 -0.0397413633763790131
323.8828125 -152.840560913085938 2.18073248863220215 370 1644763192.86703968 0.899042904376983643 -0.43427702784538269 -0.0395634360611438751 -0.0394975505769252777
328.22100830078125 -158.282272338867188 1.52009165287017822 371 1644763194.96604085 0.897528648376464844 -0.436929434537887573 -0.0270944386720657349 -0.0529232695698738098
330.9154052734375 -162.577606201171875 1.05185830593109131 372 1644763196.56521583 0.859996795654296875 -0.508013665676116943 -0.0174329709261655807 -0.0449862219393253326
332.034515380859375 -167.020416259765625 1.04100966453552246 373 1644763198.26651931 0.76301199197769165 -0.645563006401062012 0.0240690466016530991 -0.0219492875039577484
331.6158447265625 -170.465316772460938 0.960161685943603516 374 1644763199.16587138 0.626087009906768799 -0.779593050479888916 0.000806317897513508797 -0.0157827418297529221
330.092437744140625 -172.85516357421875 0.830524682998657227 375 1644763199.76510501 0.454833149909973145 -0.890247642993927002 -0.0173032172024250031 -0.0169283635914325714
327.102203369140625 -174.9710693359375 0.65610039234161377 376 1644763200.46284866 0.279024571180343628 -0.959916532039642334 -0.0144947925582528114 -0.0222596358507871628
322.42108154296875 -177.262100219726562 0.414638906717300415 377 1644763201.36824107 0.21747434139251709 -0.975777328014373779 -0.00108363991603255272 -0.0237140338867902756
317.62908935546875 -179.3817138671875 0.145331501960754395 378 1644763202.16716504 0.211365267634391785 -0.977139651775360107 0.00661581475287675858 -0.0218875911086797714
313.0582275390625 -181.49871826171875 -0.111204639077186584 379 1644763202.87110782 0.218939617276191711 -0.975234389305114746 0.0160292871296405792 -0.026950690895318985
308.390350341796875 -183.718658447265625 -0.365499794483184814 380 1644763203.56238461 0.215004459023475647 -0.976158440113067627 0.0123718148097395897 -0.0271066632121801376
303.449554443359375 -185.678237915039062 -0.610871434211730957 381 1644763204.2614212 0.178196370601654053 -0.983571171760559082 0.0168186035007238388 -0.0234732441604137421
298.3592529296875 -187.610443115234375 -0.825298428535461426 382 1644763204.96971655 0.179141923785209656 -0.983414232730865479 0.0201263818889856339 -0.0199901722371578217
293.36859130859375 -189.50054931640625 -1.01362061500549316 383 1644763205.66130161 0.180268391966819763 -0.983299195766448975 0.0191150903701782227 -0.016145169734954834
287.5694580078125 -191.6610107421875 -1.21458780765533447 384 1644763206.46198392 0.176587030291557312 -0.983828425407409668 0.0197855457663536072 -0.0225209817290306091
281.790863037109375 -193.787277221679688 -1.39396035671234131 385 1644763207.26170874 0.177429139614105225 -0.983816385269165039 0.0203176699578762054 -0.0145407719537615776
276.712188720703125 -195.607467651367188 -1.55699527263641357 386 1644763207.96116853 0.171565592288970947 -0.984741151332855225 0.0183570925146341324 -0.0226518306881189346
271.5950927734375 -197.3221435546875 -1.74256300926208496 387 1644763208.66662049 0.152437642216682434 -0.987990796566009521 0.0171087887138128281 -0.01855502650141716
266.4891357421875 -198.934890747070312 -1.89573073387145996 388 1644763209.36629176 0.155205190181732178 -0.987783432006835938 0.0121515011414885521 -0.00689941225573420525
261.351715087890625 -200.568939208984375 -2.07361388206481934 389 1644763210.06622696 0.146567866206169128 -0.988986492156982422 0.0132510410621762276 -0.0157464873045682907
256.18182373046875 -202.032821655273438 -2.25507307052612305 390 1644763210.76549888 0.1292705237865448 -0.991462767124176025 0.00649646902456879616 -0.0157649628818035126
250.984878540039062 -203.2862548828125 -2.4319465160369873 391 1644763211.46229339 0.124586284160614014 -0.992050111293792725 0.0137997502461075783 -0.0111513556912541389
245.781661987304688 -204.756576538085938 -2.62146568298339844 392 1644763212.16363072 0.139203101396560669 -0.990011453628540039 0.0110066551715135574 -0.0194579381495714188
240.6385498046875 -206.310012817382812 -2.82462501525878906 393 1644763212.8652246 0.142096877098083496 -0.989667534828186035 0.0118978666141629219 -0.0150010865181684494
235.536605834960938 -207.977401733398438 -2.96504592895507812 394 1644763213.5644865 0.166410595178604126 -0.985882699489593506 0.0150922760367393494 -0.0107253734022378922
230.584335327148438 -209.938751220703125 -3.08804965019226074 395 1644763214.26162601 0.18601343035697937 -0.982545197010040283 -0.00144350575283169746 -0.00134443561546504498
225.5614013671875 -211.878982543945312 -3.27147197723388672 396 1644763214.96390629 0.165201485157012939 -0.986075818538665771 -0.0171555466949939728 -0.00828660279512405396
220.409286499023438 -213.418716430664062 -3.46514320373535156 397 1644763215.66141534 0.131563171744346619 -0.991113662719726562 -0.0154210431501269341 -0.0121275801211595535
215.174942016601562 -214.667526245117188 -3.63157367706298828 398 1644763216.36177444 0.110060200095176697 -0.99368894100189209 -0.0176357124000787735 -0.012572052888572216
209.87554931640625 -215.561279296875 -3.77508640289306641 399 1644763217.06060863 0.0649962052702903748 -0.997701406478881836 -0.011733178049325943 -0.0151575244963169098
204.5621337890625 -216.081207275390625 -3.89590644836425781 400 1644763217.76168656 0.035152483731508255 -0.999258041381835938 -0.0131096579134464264 -0.00870397500693798065
199.260833740234375 -216.18109130859375 -4.0234684944152832 401 1644763218.46072793 -0.00720623694360256195 -0.9997977614402771 -0.0187587402760982513 -0.000790365564171224833
193.924224853515625 -216.005844116210938 -4.19318199157714844 402 1644763219.16123223 -0.0143302129581570625 -0.999818682670593262 -0.00914062187075614929 -0.00858526770025491714
188.5858154296875 -215.7520751953125 -4.34561729431152344 403 1644763219.8600533 -0.0294280052185058594 -0.999450504779815674 -0.00873481202870607376 -0.0125071201473474503
183.256576538085938 -215.445388793945312 -4.50220394134521484 404 1644763220.56062365 -0.0293346662074327469 -0.999490499496459961 0.00374735030345618725 -0.0120088588446378708
177.909759521484375 -215.219497680664062 -4.67726564407348633 405 1644763221.2598753 -0.0160075593739748001 -0.999738514423370361 0.00462475186213850975 -0.0156613569706678391
172.563186645507812 -215.369888305664062 -4.8560490608215332 406 1644763221.95997 0.0199302658438682556 -0.999740898609161377 -0.000752212246879935265 -0.0109708812087774277
167.23284912109375 -215.635147094726562 -4.97728729248046875 407 1644763222.65902042 0.0194386858493089676 -0.999785006046295166 -0.00242471462115645409 -0.00679296068847179413
161.909164428710938 -215.757354736328125 -5.04863119125366211 408 1644763223.35956407 0.0126485945656895638 -0.999916195869445801 0.001609956962056458 -0.00223187287338078022
156.635818481445312 -215.907333374023438 -5.12623882293701172 409 1644763224.05883431 0.0155144771561026573 -0.999877572059631348 0.00094402342801913619 -0.00181527610402554274
151.349960327148438 -216.103195190429688 -5.19499969482421875 410 1644763224.75911474 0.0134267695248126984 -0.999897420406341553 -0.00283412565477192402 -0.00410684477537870407
