# .PCD v0.7 - Point Cloud Data file format
VERSION 0.7
FIELDS x y z intensity t qx qy qz qw
SIZE 4 4 4 4 8 4 4 4 4
TYPE F F F F F F F F F
COUNT 1 1 1 1 1 1 1 1 1
WIDTH 276
HEIGHT 1
VIEWPOINT 0 0 0 1 0 0 0
POINTS 276
DATA ascii
-59.335296630859375 -78.6272659301757812 5.55593633651733398 59 1645008809.35470557 0.699242949485778809 -0.713306546211242676 -0.0410737209022045135 -0.0237906072288751602
-59.5401763916015625 -83.9323272705078125 5.10233831405639648 60 1645008810.15401602 0.685082793235778809 -0.726292848587036133 -0.0467234626412391663 -0.031259492039680481
-59.8777122497558594 -89.2787933349609375 4.75172567367553711 61 1645008811.05183291 0.679528474807739258 -0.732135534286499023 -0.0449259392917156219 -0.0141519075259566307
-60.1417312622070312 -94.6942291259765625 4.22154712677001953 62 1645008811.9497304 0.698806643486022949 -0.711687207221984863 -0.0573274195194244385 -0.0434074215590953827
-59.9314613342285156 -99.68121337890625 3.82315874099731445 63 1645008812.753196 0.726527869701385498 -0.685816764831542969 -0.0359274186193943024 -0.0228443387895822525
-59.2667388916015625 -105.056793212890625 3.35469794273376465 64 1645008813.55264592 0.7535247802734375 -0.655663788318634033 -0.0419827699661254883 -0.0232991967350244522
-58.1824989318847656 -109.966552734375 2.87492036819458008 65 1645008814.25549364 0.780642807483673096 -0.622671544551849365 -0.0517563335597515106 -0.0140784839168190956
-56.6323890686035156 -114.892295837402344 2.37415361404418945 66 1645008814.95169759 0.814128756523132324 -0.578140676021575928 -0.0511504597961902618 -0.0182025972753763199
-54.4978790283203125 -119.852584838867188 1.85931169986724854 67 1645008815.65192771 0.838265717029571533 -0.543085813522338867 -0.0480023287236690521 -0.00801237206906080246
-51.9241943359375 -124.747406005859375 1.42628681659698486 68 1645008816.35264778 0.860063493251800537 -0.508572697639465332 -0.0405525639653205872 -0.000350839924067258835
-48.8953285217285156 -129.469009399414062 1.06227016448974609 69 1645008817.05066228 0.884451985359191895 -0.465645641088485718 -0.0302748940885066986 0.00148660945706069469
-45.2998771667480469 -133.881561279296875 0.662824332714080811 70 1645008817.75048184 0.909575223922729492 -0.413674414157867432 -0.0381342433393001556 -0.00960200373083353043
-41.2186203002929688 -137.948379516601562 0.206717520952224731 71 1645008818.44948721 0.928853452205657959 -0.368295371532440186 -0.0372893698513507843 -0.014115634374320507
-37.47576904296875 -141.294662475585938 -0.198101803660392761 72 1645008819.05083609 0.933813869953155518 -0.35553508996963501 -0.0385560914874076843 -0.00999155547469854355
-33.7124481201171875 -144.748397827148438 -0.574707269668579102 73 1645008819.65334511 0.930166780948638916 -0.365342646837234497 -0.0327904149889945984 -0.0154694467782974243
-29.9794845581054688 -148.306106567382812 -0.984988987445831299 74 1645008820.25330734 0.92445296049118042 -0.378566235303878784 -0.0412828437983989716 -0.0192370321601629257
-26.3041839599609375 -151.978469848632812 -1.42347133159637451 75 1645008820.85182762 0.920272231101989746 -0.388973861932754517 -0.0358766205608844757 -0.0226091630756855011
-22.6051063537597656 -155.724166870117188 -1.84489405155181885 76 1645008821.45291686 0.923905372619628906 -0.380946427583694458 -0.029059678316116333 -0.0208375360816717148
-18.7661380767822266 -159.359298706054688 -2.22772717475891113 77 1645008822.05197072 0.930100142955780029 -0.365078538656234741 -0.0311782732605934143 -0.0256765652447938919
-14.8645658493041992 -162.935958862304688 -2.6467583179473877 78 1645008822.65089536 0.929273068904876709 -0.366747736930847168 -0.040029570460319519 -0.0185819268226623535
-10.952214241027832 -166.556777954101562 -3.06907534599304199 79 1645008823.25182629 0.928395271301269531 -0.369343757629394531 -0.0392564684152603149 -0.0112402718514204025
-7.04076862335205078 -170.17535400390625 -3.43130755424499512 80 1645008823.85104227 0.929076015949249268 -0.36851811408996582 -0.0310076866298913956 -0.00711847143247723579
-3.15171575546264648 -173.787506103515625 -3.77102231979370117 81 1645008824.44856262 0.929332137107849121 -0.367943465709686279 -0.0291211828589439392 -0.0105507383123040199
0.763103246688842773 -177.455184936523438 -4.08234548568725586 82 1645008825.05468822 0.928338468074798584 -0.370761871337890625 -0.0249937884509563446 -0.00993042532354593277
4.59221506118774414 -181.043701171875 -4.36625003814697266 83 1645008825.65102148 0.927713394165039062 -0.372324049472808838 -0.0259120650589466095 -0.00715865194797515869
8.35587120056152344 -184.59527587890625 -4.59161233901977539 84 1645008826.2488358 0.929104983806610107 -0.369229435920715332 -0.0176328178495168686 -0.0110735595226287842
12.4358615875244141 -188.4476318359375 -4.65650177001953125 85 1645008826.94800043 0.927871644496917725 -0.371598809957504272 0.0296172238886356354 0.0095563223585486412
16.5204830169677734 -192.24322509765625 -4.90550994873046875 86 1645008827.65331554 0.929640591144561768 -0.36841815710067749 0.0040994398295879364 -0.00443235738202929497
20.4767932891845703 -195.9171142578125 -5.07048892974853516 87 1645008828.34914708 0.928492367267608643 -0.370976537466049194 -0.0141397258266806602 -0.00885776430368423462
24.3354835510253906 -199.487884521484375 -5.20700359344482422 88 1645008829.04866934 0.931306660175323486 -0.363742411136627197 -0.0167344287037849426 -0.00890487618744373322
28.3211765289306641 -202.602310180664062 -5.29581928253173828 89 1645008829.74885774 0.951225817203521729 -0.308439016342163086 0.00550295691937208176 0.00212720385752618313
33.0307388305664062 -205.838348388671875 -5.34283638000488281 90 1645008830.55114651 0.954405844211578369 -0.298308014869689941 -0.0074940691702067852 0.00810380000621080399
37.650970458984375 -208.776321411132812 -5.32080602645874023 91 1645008831.34725165 0.962283194065093994 -0.271928280591964722 -0.00356135680340230465 0.00730676855891942978
42.319427490234375 -211.310043334960938 -5.28785943984985352 92 1645008832.1460824 0.973841309547424316 -0.22713884711265564 0.00619624042883515358 0.0016370423836633563
47.5870704650878906 -213.071517944335938 -5.27480363845825195 93 1645008832.94610119 0.991378128528594971 -0.130869925022125244 0.00548205384984612465 0.00352137815207242966
52.5818252563476562 -213.869552612304688 -5.28193950653076172 94 1645008833.64562201 0.997078537940979004 -0.0752693489193916321 0.000177775160409510136 0.0129940425977110863
57.7818489074707031 -214.44256591796875 -5.31123828887939453 95 1645008834.34760666 0.99881356954574585 -0.047158166766166687 -0.00207470986060798168 0.0119689544662833214
63.0738945007324219 -214.65704345703125 -5.32499504089355469 96 1645008835.04571104 0.999872207641601562 -0.0129806948825716972 -0.00212929933331906796 0.00908773485571146011
68.4141921997070312 -214.55694580078125 -5.33724546432495117 97 1645008835.74581242 0.999868035316467285 0.0136814992874860764 0.00156125857029110193 0.0086187487468123436
73.7636184692382812 -214.351776123046875 -5.32825279235839844 98 1645008836.44554353 0.999803900718688965 0.0179735384881496429 0.00642244797199964523 0.00527313211932778358
79.10797119140625 -214.099578857421875 -5.30958366394042969 99 1645008837.14637542 0.999742209911346436 0.0218476839363574982 -5.28672098880633712e-05 0.00617883075028657913
84.21923828125 -213.7864990234375 -5.29938268661499023 100 1645008837.84564424 0.999640882015228271 0.0245646778494119644 -0.000276795064564794302 0.0107081877067685127
89.781158447265625 -213.442337036132812 -5.30991840362548828 101 1645008838.64569402 0.999643027782440186 0.0201546438038349152 0.0025350349023938179 0.0173562765121459961
95.1019210815429688 -213.315841674804688 -5.30413675308227539 102 1645008839.44651771 0.999868631362915039 0.00292992708273231983 -0.00351939909160137177 0.0155497696250677109
100.378120422363281 -213.359634399414062 -5.30338144302368164 103 1645008840.24471045 0.999947786331176758 -0.00583430752158164978 0.000399099313654005527 0.0083811786025762558
105.995391845703125 -213.218490600585938 -5.33926153182983398 104 1645008841.04475975 0.99988323450088501 0.0143781788647174835 -0.00108772388193756342 0.00505736516788601875
111.127639770507812 -212.954696655273438 -5.35610103607177734 105 1645008841.74690485 0.999689161777496338 0.0239439010620117188 -0.00568695319816470146 0.00399523833766579628
116.362922668457031 -212.685409545898438 -5.37026119232177734 106 1645008842.4459126 0.999791264533996582 0.0194185171276330948 0.0018972085090354085 0.00605993764474987984
121.705711364746094 -212.473526000976562 -5.38862276077270508 107 1645008843.14572954 0.999860405921936035 0.015223662368953228 -0.00153407489415258169 0.00670833839103579521
127.088783264160156 -212.305572509765625 -5.39834117889404297 108 1645008843.84836102 0.999867022037506104 0.00813275855034589767 -0.00372367049567401409 0.0136336963623762131
132.432037353515625 -212.142807006835938 -5.37895727157592773 109 1645008844.54619503 0.999725222587585449 0.00854277424514293671 0.00420695217326283455 0.0214186161756515503
137.803909301757812 -212.00408935546875 -5.35130691528320312 110 1645008845.24624944 0.999833583831787109 0.0104204500094056129 0.00166929443366825581 0.014880649745464325
143.15838623046875 -211.832778930664062 -5.32433223724365234 111 1645008845.94724011 0.999808609485626221 0.0103044966235756874 0.00241019623354077339 0.0164562035351991653
148.505966186523438 -211.64727783203125 -5.30262136459350586 112 1645008846.64672041 0.999734759330749512 0.0150296082720160484 0.00243630446493625641 0.0172805134207010269
153.838088989257812 -211.424713134765625 -5.23716878890991211 113 1645008847.34744859 0.999677956104278564 0.0170005317777395248 0.0054170265793800354 0.0180440694093704224
159.168106079101562 -211.185043334960938 -5.17510318756103516 114 1645008848.04795575 0.999736368656158447 0.0170643236488103867 0.00631982320919632912 0.0140002556145191193
164.477279663085938 -210.930999755859375 -5.0879817008972168 115 1645008848.74940681 0.999625027179718018 0.0215352755039930344 0.0107711544260382652 0.0130383959040045738
169.764572143554688 -210.690093994140625 -4.96283912658691406 116 1645008849.45051432 0.999675333499908447 0.0191264133900403976 0.0140208667144179344 0.00932074990123510361
174.989212036132812 -210.444976806640625 -4.82236671447753906 117 1645008850.14876056 0.999655246734619141 0.01742539182305336 0.0153946876525878906 0.0121971415355801582
180.195343017578125 -210.180831909179688 -4.66684818267822266 118 1645008850.85051942 0.999522030353546143 0.0228358767926692963 0.0159232821315526962 0.0134411435574293137
185.388198852539062 -209.90020751953125 -4.50500869750976562 119 1645008851.55025363 0.999467909336090088 0.026391882449388504 0.0158489719033241272 0.0107760028913617134
190.56634521484375 -209.559127807617188 -4.35641145706176758 120 1645008852.25078678 0.999201178550720215 0.0359483473002910614 0.0162211358547210693 0.00645269034430384636
195.69476318359375 -208.996353149414062 -4.19370317459106445 121 1645008852.95024323 0.998375952243804932 0.0524015091359615326 0.0198459159582853317 0.0102810598909854889
200.80560302734375 -208.456787109375 -4.02321004867553711 122 1645008853.64715123 0.997710585594177246 0.064630657434463501 0.0196237005293369293 0.00337158539332449436
205.866317749023438 -207.421844482421875 -3.89236998558044434 123 1645008854.34653568 0.993208467960357666 0.11496388167142868 0.0169470179826021194 0.00574702909216284752
210.807220458984375 -205.942291259765625 -3.75846314430236816 124 1645008855.04566669 0.987866520881652832 0.154564037919044495 0.0149684976786375046 0.0023658436257392168
215.653396606445312 -204.212020874023438 -3.61800980567932129 125 1645008855.74742389 0.986014068126678467 0.165191143751144409 0.0220828019082546234 -0.000688023690599948168
220.481063842773438 -202.403289794921875 -3.48006129264831543 126 1645008856.44700646 0.986009418964385986 0.163016289472579956 0.0304769184440374374 0.0168006531894207001
225.423370361328125 -200.8155517578125 -3.34504890441894531 127 1645008857.1481328 0.990215420722961426 0.136771693825721741 0.0142326345667243004 0.0237559806555509567
230.381423950195312 -199.62689208984375 -3.18448472023010254 128 1645008857.84513736 0.994476497173309326 0.101850353181362152 0.0236939601600170135 0.00903134327381849289
235.442962646484375 -198.569015502929688 -3.00979399681091309 129 1645008858.54936647 0.995619297027587891 0.0913856253027915955 0.0162534620612859726 0.0112574538215994835
240.470748901367188 -197.663497924804688 -2.86316156387329102 130 1645008859.24468899 0.995908200740814209 0.089446432888507843 0.0108210518956184387 0.00700321793556213379
245.566436767578125 -196.661041259765625 -2.73872470855712891 131 1645008859.94559026 0.995582878589630127 0.0927886441349983215 -0.00765977939590811729 0.0120941773056983948
250.502609252929688 -195.567947387695312 -2.55935168266296387 132 1645008860.65317965 0.993639230728149414 0.109856791794300079 0.0240167174488306046 0.00598250282928347588
255.484649658203125 -194.634613037109375 -2.39093255996704102 133 1645008861.34894443 0.996345818042755127 0.0821125879883766174 0.0208619590848684311 0.0108307376503944397
260.5079345703125 -193.832077026367188 -2.19760370254516602 134 1645008862.04502559 0.996917426586151123 0.0742370262742042542 0.0231419596821069717 0.0104401074349880219
265.539764404296875 -193.031173706054688 -2.01265263557434082 135 1645008862.74634004 0.996513843536376953 0.0803168565034866333 0.0225668475031852722 0.000357229611836373806
270.531036376953125 -192.002838134765625 -1.86808335781097412 136 1645008863.44484544 0.993688762187957764 0.110482588410377502 0.0193824879825115204 -0.000759429880417883396
275.459808349609375 -190.654998779296875 -1.73262953758239746 137 1645008864.14451504 0.990579307079315186 0.134711652994155884 0.0225269515067338943 0.00989460013806819916
280.32708740234375 -189.13592529296875 -1.52194929122924805 138 1645008864.84468508 0.987046957015991211 0.158392444252967834 0.0252961684018373489 -0.00320558180101215839
285.140899658203125 -187.390609741210938 -1.3905564546585083 139 1645008865.54395962 0.984240710735321045 0.175676986575126648 0.0200268402695655823 0.00260402029380202293
289.939605712890625 -185.5556640625 -1.22489237785339355 140 1645008866.24430633 0.983005225658416748 0.18266652524471283 0.0181343033909797668 -0.00219804118387401104
294.724212646484375 -183.646087646484375 -1.08689379692077637 141 1645008866.94454813 0.981581032276153564 0.190762534737586975 0.00992274563759565353 0.00313530466519296169
299.43597412109375 -181.651580810546875 -0.917530477046966553 142 1645008867.64631462 0.981697022914886475 0.187719419598579407 0.0196840036660432816 0.0253959894180297852
304.102996826171875 -179.755691528320312 -0.692075133323669434 143 1645008868.34577632 0.981280088424682617 0.189020991325378418 0.0344878993928432465 0.0130773168057203293
308.729522705078125 -177.857086181640625 -0.427111297845840454 144 1645008869.0470407 0.981353640556335449 0.189412295818328857 0.0297117903828620911 0.0136087927967309952
313.457122802734375 -175.8538818359375 -0.124436885118484497 145 1645008869.84523821 0.978498280048370361 0.203681334853172302 0.0317707434296607971 0.00675912899896502495
317.970977783203125 -173.515792846679688 0.154860228300094604 146 1645008870.74520111 0.967234611511230469 0.2524547278881073 0.0264606419950723648 0.0048605198971927166
321.88116455078125 -170.396804809570312 0.421302884817123413 147 1645008871.74582171 0.927259147167205811 0.373039603233337402 0.031333237886428833 -0.00707871746271848679
323.756500244140625 -167.2528076171875 0.572969615459442139 148 1645008872.44550371 0.847626745700836182 0.53021538257598877 0.0166423153132200241 -0.0111172804608941078
324.28363037109375 -164.237518310546875 0.812211811542510986 149 1645008873.04669213 0.738330483436584473 0.671633720397949219 0.0404140651226043701 -0.0462921038269996643
323.53692626953125 -160.425704956054688 1.27972137928009033 150 1645008873.94770479 0.604468107223510742 0.794209778308868408 0.0406140424311161041 -0.0468999259173870087
321.093017578125 -155.861083984375 1.94920527935028076 151 1645008875.24814415 0.49614715576171875 0.86563563346862793 0.0452072694897651672 -0.0496915578842163086
318.2308349609375 -151.491928100585938 2.50935530662536621 152 1645008876.54741287 0.460787355899810791 0.885555267333984375 0.0363352596759796143 -0.0463312380015850067
314.562469482421875 -147.6513671875 3.09168863296508789 153 1645008877.84891438 0.370997458696365356 0.926227927207946777 0.0433557070791721344 -0.0508233457803726196
310.629119873046875 -144.57611083984375 3.61745786666870117 154 1645008879.04777002 0.314660966396331787 0.947586178779602051 0.0311675164848566055 -0.0457986816763877869
306.248443603515625 -141.859481811523438 4.08325767517089844 155 1645008880.2450645 0.261877000331878662 0.963829934597015381 0.027635602280497551 -0.0410926118493080139
301.420562744140625 -139.404495239257812 4.5351872444152832 156 1645008881.44791079 0.232315018773078918 0.971549093723297119 0.0275019425898790359 -0.0369565524160861969
296.806427001953125 -137.093505859375 4.95515060424804688 157 1645008882.54765344 0.249028339982032776 0.967310488224029541 0.0338506065309047699 -0.0339030064642429352
292.20172119140625 -134.369338989257812 5.3621058464050293 158 1645008883.64790177 0.260600537061691284 0.964527308940887451 0.0268181134015321732 -0.0324840135872364044
287.413299560546875 -132.0306396484375 5.59652423858642578 159 1645008884.74906945 0.211344152688980103 0.977202713489532471 0.0199039820581674576 -0.00351922516711056232
282.964691162109375 -129.318008422851562 5.81600236892700195 160 1645008886.04853249 0.292450875043869019 0.95588982105255127 0.0227426905184984207 -0.0151643631979823112
278.82916259765625 -126.297149658203125 5.97669172286987305 161 1645008887.1475575 0.306823968887329102 0.951608777046203613 0.0113054085522890091 -0.0131121007725596428
274.35968017578125 -123.416229248046875 6.06457853317260742 162 1645008888.1480372 0.266274809837341309 0.96376878023147583 -0.0114215165376663208 -0.0108191780745983124
269.8614501953125 -120.818931579589844 6.12382745742797852 163 1645008889.04948568 0.269689679145812988 0.962878167629241943 -0.00417876383289694786 -0.0107517801225185394
265.1700439453125 -117.72308349609375 6.16014575958251953 164 1645008889.95180464 0.303327351808547974 0.952869892120361328 0.00223848829045891762 -0.00515122292563319206
261.137969970703125 -114.415962219238281 6.22266530990600586 165 1645008890.74702024 0.355047643184661865 0.93480074405670166 -0.00509645929560065269 -0.00792573392391204834
257.23297119140625 -110.502159118652344 6.22379016876220703 166 1645008891.54641342 0.398113757371902466 0.917271137237548828 -0.00572841893881559372 -0.00928648747503757477
253.8624267578125 -106.742431640625 6.22017383575439453 167 1645008892.2462709 0.412203043699264526 0.911005496978759766 -0.0103903720155358315 -0.00704951165243983269
250.521530151367188 -102.796745300292969 6.2471160888671875 168 1645008892.94751406 0.430297553539276123 0.902602910995483398 -0.00885071884840726852 -0.00858120620250701904
247.256973266601562 -98.5945053100585938 6.21118736267089844 169 1645008893.65179038 0.449453026056289673 0.893228530883789062 -0.0104456199333071709 0.00506324321031570435
244.211349487304688 -94.3481674194335938 6.21681547164916992 170 1645008894.34603119 0.478622734546661377 0.877975583076477051 0.00779330916702747345 0.00428868411108851433
241.875350952148438 -89.8425216674804688 6.26277065277099609 171 1645008895.04410672 0.541129589080810547 0.840931892395019531 -0.000418802141211926937 -0.00349006988108158112
240.141738891601562 -84.661224365234375 6.29183483123779297 172 1645008895.84389162 0.598584294319152832 0.801011800765991211 -0.00696099782362580299 -0.00533678475767374039
238.865493774414062 -79.6287307739257812 6.30407094955444336 173 1645008896.65024328 0.622994720935821533 0.782170474529266357 -0.00713059073314070702 -0.00600413000211119652
237.83203125 -74.2022018432617188 6.31624603271484375 174 1645008897.54703379 0.64647376537322998 0.762883186340332031 -0.00845391117036342621 -0.00307671376504004002
237.151229858398438 -69.0387954711914062 6.32162237167358398 175 1645008898.44606638 0.665749728679656982 0.746141433715820312 -0.00662435637786984444 -0.00251600891351699829
236.65301513671875 -63.7397880554199219 6.33406925201416016 176 1645008899.44484496 0.679366886615753174 0.733650028705596924 -0.00588389066979289055 -0.0135513227432966232
236.090911865234375 -58.5270767211914062 6.36173009872436523 177 1645008900.54679155 0.655249714851379395 0.755228936672210693 -0.0125430123880505562 -0.0109441522508859634
234.6790771484375 -53.6354751586914062 6.41859006881713867 178 1645008901.94800615 0.59299004077911377 0.805135190486907959 -0.0059586833231151104 -0.00919858179986476898
232.591140747070312 -49.0894432067871094 6.45583200454711914 179 1645008903.34820461 0.501895546913146973 0.864880561828613281 0.00221570511348545551 -0.00880648102611303329
229.554489135742188 -46.4060173034667969 6.48487186431884766 180 1645008904.54304767 0.317234247922897339 0.948326408863067627 -0.00259153288789093494 -0.00571846403181552887
224.833541870117188 -44.2263603210449219 6.4840245246887207 181 1645008905.74414968 0.212475240230560303 0.976958870887756348 0.0196600630879402161 0.00437932973727583885
219.982894897460938 -41.8440513610839844 6.49267101287841797 182 1645008906.94475508 0.235398590564727783 0.971750259399414062 0.0169700328260660172 0.000999070005491375923
215.658218383789062 -39.3066024780273438 6.48424911499023438 183 1645008907.94328713 0.274217098951339722 0.961582422256469727 0.0126688005402684212 0.00193533638957887888
211.341094970703125 -36.3869094848632812 6.49497365951538086 184 1645008908.94315982 0.301255643367767334 0.953528106212615967 0.0041981828399002552 0.00339740957133471966
207.047897338867188 -33.3606338500976562 6.51013612747192383 185 1645008909.94256806 0.314427345991134644 0.94889676570892334 0.0250101853162050247 0.0102379946038126945
202.845245361328125 -30.2539176940917969 6.51766109466552734 186 1645008910.94311404 0.316902488470077515 0.948148906230926514 0.0227488912642002106 0.00830260571092367172
198.508697509765625 -26.9859561920166016 6.59125709533691406 187 1645008911.94270873 0.319645047187805176 0.947126209735870361 0.0276133846491575241 -0.00406524725258350372
194.2579345703125 -23.8897876739501953 6.68486404418945312 188 1645008912.8425107 0.319655776023864746 0.946767807006835938 0.0380110666155815125 -0.0024670679122209549
190.201736450195312 -20.6698513031005859 6.75380277633666992 189 1645008913.7436223 0.352992087602615356 0.934959650039672852 0.0350602604448795319 0.00422722985967993736
186.171768188476562 -16.9248714447021484 6.78055381774902344 190 1645008914.74295688 0.368411034345626831 0.929018974304199219 0.03198276087641716 0.0131966210901737213
182.38031005859375 -13.1750574111938477 6.80426120758056641 191 1645008915.64327168 0.385508537292480469 0.922540664672851562 0.0165384504944086075 0.00532966945320367813
178.684616088867188 -9.38876438140869141 6.95856857299804688 192 1645008916.54297042 0.388934940099716187 0.92097938060760498 0.0170471053570508957 -0.0153605071827769279
175.0286865234375 -5.78503227233886719 7.10153627395629883 193 1645008917.44350576 0.37910953164100647 0.924992620944976807 0.021223830059170723 -0.0146357323974370956
171.235076904296875 -2.20681357383728027 7.26386880874633789 194 1645008918.3425312 0.36791422963142395 0.92938232421875 0.0270009823143482208 -0.0125933494418859482
167.52313232421875 1.28176343441009521 7.44405603408813477 195 1645008919.24293303 0.37246367335319519 0.927815437316894531 0.0172443985939025879 -0.0114880651235580444
163.567916870117188 4.91773748397827148 7.67046356201171875 196 1645008920.24235439 0.371583163738250732 0.928167939186096191 0.0206997804343700409 -0.00130912766326218843
159.771255493164062 8.52185916900634766 7.85059833526611328 197 1645008921.34274912 0.378516167402267456 0.925310075283050537 0.0178302470594644547 -0.0144527796655893326
156.293670654296875 12.1436853408813477 8.04480457305908203 198 1645008922.44172597 0.403904497623443604 0.914620041847229004 0.0154591193422675133 -0.00961158517748117447
152.904571533203125 16.0706024169921875 8.25600337982177734 199 1645008923.64268708 0.418041616678237915 0.908156692981719971 0.0112250382080674171 -0.0191466789692640305
149.175033569335938 19.8776016235351562 8.44159603118896484 200 1645008924.84121943 0.37510228157043457 0.926751852035522461 0.0121616460382938385 -0.0167746171355247498
145.3187255859375 23.4456882476806641 8.51336860656738281 201 1645008926.04227495 0.371272623538970947 0.928478121757507324 -0.00919670704752206802 0.000638446654193103313
141.362655639648438 26.7694759368896484 8.391998291015625 202 1645008927.34293461 0.33303263783454895 0.942335128784179688 0.0142348501831293106 0.0298517141491174698
138.33551025390625 27.8814735412597656 8.28874683380126953 203 1645008928.24385858 0.144638165831565857 0.989006996154785156 0.0179515928030014038 0.0249532498419284821
135.861053466796875 27.6127128601074219 8.15910434722900391 204 1645008928.94406939 -0.0538093335926532745 0.998125791549682617 0.0110475784167647362 0.0269698426127433777
133.300384521484375 26.2339725494384766 7.915985107421875 205 1645008929.64295864 -0.249315828084945679 0.967502355575561523 0.00992499571293592453 0.041015230119228363
129.658462524414062 22.6039619445800781 7.5024871826171875 206 1645008930.64467454 -0.390535652637481689 0.919736981391906738 0.0216620862483978271 0.033114410936832428
125.867927551269531 18.6125736236572266 7.09341096878051758 207 1645008931.6446867 -0.378596186637878418 0.924637138843536377 0.0284361317753791809 0.0300405863672494888
122.011871337890625 15.1709890365600586 6.72609663009643555 208 1645008932.54526043 -0.35181000828742981 0.935160458087921143 0.0216977652162313461 0.0351256951689720154
118.038291931152344 11.5000953674316406 6.35444211959838867 209 1645008933.44458461 -0.365529775619506836 0.930104553699493408 0.0177836325019598007 0.0312606319785118103
114.318305969238281 7.900146484375 5.96922969818115234 210 1645008934.24563336 -0.374748021364212036 0.926237165927886963 0.0197532195597887039 0.0354751609265804291
110.545280456542969 4.03421258926391602 5.56344842910766602 211 1645008935.04687905 -0.385381191968917847 0.921870291233062744 0.0227862149477005005 0.0334261469542980194
106.736030578613281 -0.00333229661919176579 5.1478729248046875 212 1645008935.84552765 -0.392278760671615601 0.918934226036071777 0.0268612001091241837 0.0309154186397790909
102.848625183105469 -4.11786556243896484 4.75145673751831055 213 1645008936.64707589 -0.392475992441177368 0.919045686721801758 0.0242866557091474533 0.0269782207906246185
99.3570709228515625 -7.72759866714477539 4.44104433059692383 214 1645008937.34615111 -0.378618329763412476 0.924849808216094971 0.025745069608092308 0.0252617336809635162
95.26513671875 -11.592869758605957 4.12105894088745117 215 1645008938.14275908 -0.3613109290599823 0.931730270385742188 0.0208689197897911072 0.0299598537385463715
91.3614120483398438 -15.1595611572265625 3.84461116790771484 216 1645008938.94643307 -0.357972502708435059 0.933170318603515625 0.0142685677856206894 0.0290735680609941483
87.3810272216796875 -18.8184909820556641 3.54868221282958984 217 1645008939.84425354 -0.365367293357849121 0.930189549922943115 0.012001359835267067 0.0333177857100963593
84.4334793090820312 -23.1696071624755859 3.20628118515014648 218 1645008940.84434748 -0.536069154739379883 0.842505395412445068 -0.000133561683469451964 0.0530516467988491058
83.9293060302734375 -26.8339309692382812 2.96213316917419434 219 1645008941.64353681 -0.677671253681182861 0.734022021293640137 0.00413592113181948662 0.0442297421395778656
84.579925537109375 -29.2185039520263672 2.83326029777526855 220 1645008942.24430442 -0.805652976036071777 0.58917391300201416 -0.00312849343754351139 0.0615434721112251282
85.8790130615234375 -30.6070842742919922 2.72987699508666992 221 1645008942.74404407 -0.901089310646057129 0.428250521421432495 0.0141227031126618385 0.0666340887546539307
88.633056640625 -32.0966453552246094 2.58132028579711914 222 1645008943.5469594 -0.967142939567565918 0.247557371854782104 0.0148206800222396851 0.0559479221701622009
93.3344573974609375 -33.9906997680664062 2.37143826484680176 223 1645008944.54622054 -0.980526208877563477 0.193295583128929138 0.0136927813291549683 0.031901676207780838
98.230194091796875 -36.3835182189941406 2.17435336112976074 224 1645008945.44528246 -0.966257810592651367 0.256726771593093872 0.01405327208340168 0.0154827525839209557
102.588516235351562 -39.6311264038085938 1.97147023677825928 225 1645008946.24345851 -0.938415169715881348 0.344810545444488525 0.0162798259407281876 0.0147524969652295113
105.995155334472656 -43.3336830139160156 1.79431509971618652 226 1645008946.9451983 -0.904026687145233154 0.427222579717636108 0.0124279782176017761 0.00788341648876667023
109.009300231933594 -48.1571311950683594 1.57925081253051758 227 1645008947.74599004 -0.861383378505706787 0.507393181324005127 0.0135495709255337715 0.0196788366883993149
111.183692932128906 -53.2501869201660156 1.3833388090133667 228 1645008948.54395175 -0.815080106258392334 0.578955113887786865 0.0106727844104170799 0.0184795670211315155
112.219879150390625 -58.6196441650390625 1.20388782024383545 229 1645008949.34596205 -0.739094853401184082 0.673218011856079102 0.0103897424414753914 0.020206008106470108
111.808670043945312 -63.9406967163085938 0.990007877349853516 230 1645008950.14305186 -0.656202256679534912 0.75391232967376709 0.000593525590375065804 0.0318500958383083344
110.856918334960938 -69.1464920043945312 0.77785104513168335 231 1645008950.94598341 -0.62215268611907959 0.782396256923675537 0.00236025033518671989 0.0278661902993917465
108.845535278320312 -73.9227447509765625 0.542062580585479736 232 1645008951.74617577 -0.512431502342224121 0.858270823955535889 0.00971597712486982346 0.0262821633368730545
105.628684997558594 -78.3812637329101562 0.303021103143692017 233 1645008952.6467948 -0.435657650232315063 0.899644911289215088 -0.00138699589297175407 0.0289747007191181183
101.88739013671875 -82.0668792724609375 0.115056790411472321 234 1645008953.54642129 -0.352127522230148315 0.935300648212432861 -0.00105890922714024782 0.0348970778286457062
97.6851272583007812 -84.8701095581054688 -0.267358541488647461 235 1645008954.4472177 -0.253809899091720581 0.965989112854003906 0.0176241472363471985 0.0462059155106544495
92.7044906616210938 -86.4139556884765625 -0.694998979568481445 236 1645008955.3455019 -0.10497245192527771 0.993540763854980469 0.0227175727486610413 0.036625150591135025
87.4243316650390625 -86.6163177490234375 -0.860635638236999512 237 1645008956.24575686 -0.00340726785361766815 0.999985158443450928 -0.00147717841900885105 0.00398387853056192398
82.26348876953125 -86.409210205078125 -0.904515922069549561 238 1645008957.14362478 0.0331362970173358917 0.999443113803863525 0.00384507980197668076 0.00081260438309982419
76.8839035034179688 -85.91766357421875 -0.910269618034362793 239 1645008958.14770842 0.0598465390503406525 0.998180568218231201 0.00706429034471511841 0.00199982291087508202
71.4782180786132812 -85.2180938720703125 -0.892587363719940186 240 1645008959.24518681 0.0663430839776992798 0.997766375541687012 0.00779995881021022797 0.000247890158789232373
66.1584243774414062 -85.2797088623046875 -0.892137229442596436 241 1645008960.44048524 -0.0919724777340888977 0.995670735836029053 -0.0127822402864694595 0.00418263813480734825
62.79156494140625 -89.011993408203125 -0.952769696712493896 242 1645008961.74336982 -0.53782498836517334 0.842302381992340088 -0.0198477506637573242 0.029615132138133049
62.9130783081054688 -90.8180084228515625 -0.945087552070617676 243 1645008962.24084806 -0.704594969749450684 0.708959400653839111 -0.0177651531994342804 0.0246351193636655807
63.7269706726074219 -92.3339309692382812 -0.937476754188537598 244 1645008962.74588943 -0.832438051700592041 0.553482413291931152 -0.00695513328537344933 0.0256084296852350235
65.0220489501953125 -93.2896575927734375 -0.937342345714569092 245 1645008963.24077463 -0.920127928256988525 0.391229629516601562 0.00151385075878351927 0.0173699725419282913
67.8730545043945312 -94.505706787109375 -0.88321763277053833 246 1645008964.24355221 -0.977240204811096191 0.211780771613121033 -0.0117185357958078384 -0.00363304163329303265
72.2016220092773438 -95.1261062622070312 -0.897496998310089111 247 1645008965.44372225 -0.999415874481201172 0.0339163914322853088 0.00309704849496483803 -0.0028300904668867588
76.330474853515625 -94.2295989990234375 -0.946824550628662109 248 1645008966.64295983 -0.989357054233551025 -0.145267412066459656 0.00697480980306863785 -0.00462353881448507309
80.5675430297851562 -91.4858169555664062 -0.962204277515411377 249 1645008967.84444404 -0.952656745910644531 -0.304031908512115479 0.000525933923199772835 0.0030703290831297636
90.3281478881835938 -86.7560806274414062 -0.811016619205474854 250 1645008969.94086766 -0.982841372489929199 -0.183881118893623352 -0.0119473272934556007 0.00823924876749515533
100.048324584960938 -81.5931015014648438 0.0218480546027421951 251 1645008971.94447064 -0.95143735408782959 -0.30553901195526123 -0.0344667397439479828 0.0149962268769741058
106.60858154296875 -74.4903030395507812 0.437040239572525024 252 1645008973.64216256 -0.884517669677734375 -0.465888261795043945 -0.0207124166190624237 0.0121509050950407982
109.910865783691406 -66.2268524169921875 0.845592975616455078 253 1645008975.14331579 -0.7844734787940979 -0.619582653045654297 -0.021651415154337883 0.0158085431903600693
109.878379821777344 -58.2388572692871094 1.16765499114990234 254 1645008976.44521904 -0.654553771018981934 -0.755613207817077637 -0.0184491239488124847 0.0163585972040891647
106.851997375488281 -50.6779098510742188 1.44079673290252686 255 1645008977.74285531 -0.509340822696685791 -0.860463976860046387 -0.010538838803768158 0.00791565049439668655
100.123603820800781 -41.6901435852050781 1.89497780799865723 256 1645008979.74601197 -0.359725743532180786 -0.932832002639770508 -0.0101057970896363258 0.0178810283541679382
91.9055023193359375 -36.8884506225585938 2.25275444984436035 257 1645008981.84087348 -0.218156963586807251 -0.975637316703796387 -0.0106493057683110237 0.0206398963928222656
82.7054061889648438 -34.7956390380859375 2.50579476356506348 258 1645008983.84648514 -0.0447778590023517609 -0.998719394207000732 -0.0205570515245199203 0.0114877251908183098
77.3874435424804688 -35.2702140808105469 2.4741981029510498 259 1645008984.84064984 0.0785258263349533081 -0.996741175651550293 -0.0170848574489355087 -0.00698587112128734589
72.4910125732421875 -36.9126434326171875 2.3919370174407959 260 1645008985.73874736 0.193638131022453308 -0.980983853340148926 -0.0102813011035323143 -0.00832158699631690979
67.6364364624023438 -39.7082672119140625 2.28531694412231445 261 1645008986.6437571 0.273935258388519287 -0.961631298065185547 -0.0107476804405450821 0.0104494718834757805
63.2516555786132812 -42.8132858276367188 2.2312312126159668 262 1645008987.44289589 0.308902502059936523 -0.95102226734161377 -0.00981161370873451233 0.00629531731829047203
58.7791786193847656 -46.2633628845214844 2.22069668769836426 263 1645008988.24013138 0.315621346235275269 -0.948879241943359375 0.00226736161857843399 0.00248688110150396824
54.5938568115234375 -49.2001495361328125 2.25700259208679199 264 1645008988.93805337 0.294525802135467529 -0.955610990524291992 0.00493387132883071899 0.00615584384649991989
50.1631622314453125 -51.9283180236816406 2.31277227401733398 265 1645008989.63950086 0.256016373634338379 -0.966661393642425537 0.0010162771213799715 0.00450436538085341454
45.5552330017089844 -54.2684555053710938 2.42256617546081543 266 1645008990.33879495 0.215048104524612427 -0.976480185985565186 0.00455239182338118553 0.0148338153958320618
40.7747306823730469 -56.2094802856445312 2.56612920761108398 267 1645008991.03878927 0.178053990006446838 -0.983866572380065918 0.0049965553916990757 0.0166843384504318237
35.8562660217285156 -57.6885299682617188 2.76824617385864258 268 1645008991.73888779 0.128913268446922302 -0.991447389125823975 0.0049984329380095005 0.0197082255035638809
30.9001998901367188 -58.7174110412597656 2.99836468696594238 269 1645008992.43909717 0.0833421275019645691 -0.99618077278137207 0.00142413657158613205 0.0259987153112888336
25.9104957580566406 -59.310791015625 3.26324868202209473 270 1645008993.14012408 0.0474905073642730713 -0.998424708843231201 0.00541674112901091576 0.0293839201331138611
20.2523555755615234 -59.5681266784667969 3.58093786239624023 271 1645008993.94023132 0.00831508822739124298 -0.99943464994430542 0.00180517893750220537 0.0325272046029567719
14.7170829772949219 -59.5662841796875 3.95579361915588379 272 1645008994.73880076 -0.00780272949486970901 -0.999234676361083984 -0.000892845855560153723 0.0383192002773284912
9.28621959686279297 -59.4461326599121094 4.31112098693847656 273 1645008995.53934002 -0.0172639507800340652 -0.999314188957214355 -0.00359946629032492638 0.0325607657432556152
3.93486142158508301 -59.182098388671875 4.64246416091918945 274 1645008996.33946157 -0.0269787535071372986 -0.999099493026733398 0.00118630507495254278 0.0327253751456737518
-1.1022876501083374 -58.8989372253417969 4.97693347930908203 275 1645008997.13917685 -0.0307371895760297775 -0.998922288417816162 0.00323586305603384972 0.0346271730959415436
-6.16251182556152344 -58.6564750671386719 5.34010934829711914 276 1645008998.0385735 -0.0291676279157400131 -0.998867630958557129 -0.00217926781624555588 0.0375227928161621094
-11.6085748672485352 -58.3651809692382812 5.70255756378173828 277 1645008999.03804374 -0.0326354354619979858 -0.998793721199035645 -0.00431529385969042778 0.0364344045519828796
-17.0731525421142578 -58.0027999877929688 6.05741977691650391 278 1645009000.03903723 -0.0374444946646690369 -0.998828530311584473 -5.22209811606444418e-05 0.0306517574936151505
-22.1194591522216797 -56.9414939880371094 6.36687135696411133 279 1645009001.13818884 -0.142163947224617004 -0.989327967166900635 0.00227426341734826565 0.0318507812917232513
-26.637939453125 -54.668243408203125 6.63273763656616211 280 1645009002.24077773 -0.270251750946044922 -0.962303698062896729 0.00624518329277634621 0.0299424193799495697
-30.4090080261230469 -50.7574043273925781 6.91051244735717773 281 1645009003.34045076 -0.435457080602645874 -0.899290502071380615 0.00434347707778215408 0.0404327064752578735
-32.8246231079101562 -46.0844573974609375 7.11262035369873047 282 1645009004.34217763 -0.583500087261199951 -0.812080562114715576 0.00365757173858582973 0.00627449061721563339
-33.0697135925292969 -42.4421844482421875 7.32029008865356445 283 1645009005.04121089 -0.714944601058959961 -0.6987265944480896 -0.0193070471286773682 0.0162059292197227478
-30.1979618072509766 -32.6370277404785156 7.80853986740112305 284 1645009006.94212365 -0.826224923133850098 -0.563061237335205078 -0.0135248498991131783 0.0114654833450913429
-27.9144096374511719 -29.7756462097167969 7.8478550910949707 285 1645009007.74096727 -0.920889794826507568 -0.389366298913955688 0.0133744440972805023 0.0133033273741602898
-26.5808696746826172 -29.3909931182861328 7.80819129943847656 286 1645009008.14163399 -0.977270960807800293 -0.210290849208831787 0.0240986086428165436 0.0117687145248055458
-25.1927013397216797 -29.5634498596191406 7.66747093200683594 287 1645009008.5417428 -0.998338639736175537 -0.0254808738827705383 0.0453218258917331696 0.0248306877911090851
-22.6058845520019531 -30.4430828094482422 7.45809555053710938 288 1645009009.24367833 -0.985318303108215332 0.166258141398429871 0.0381153039634227753 0.00730066141113638878
-17.9537982940673828 -32.7874946594238281 7.13473272323608398 289 1645009010.24082112 -0.971995055675506592 0.233107313513755798 0.0228385161608457565 0.0191043131053447723
-13.4396228790283203 -35.0197067260742188 6.74998903274536133 290 1645009011.04223537 -0.97736513614654541 0.203298211097717285 0.0307517200708389282 0.0498154163360595703
-7.95682811737060547 -36.6309089660644531 6.24532079696655273 291 1645009011.8416276 -0.991506278514862061 0.120543994009494781 0.0351735353469848633 0.0338719747960567474
-2.61579442024230957 -37.6342048645019531 5.88295316696166992 292 1645009012.54450345 -0.99484330415725708 0.0956312417984008789 0.0300546362996101379 0.0154345249757170677
2.90285348892211914 -38.4975433349609375 5.5691986083984375 293 1645009013.24267387 -0.997006595134735107 0.0700516179203987122 0.0273240506649017334 0.0180001817643642426
8.55511665344238281 -39.0948867797851562 5.24668741226196289 294 1645009013.94231892 -0.998261809349060059 0.0473190844058990479 0.0305189136415719986 0.0174014121294021606
14.1273508071899414 -39.5931129455566406 4.93017196655273438 295 1645009014.64230967 -0.998377859592437744 0.0431476905941963196 0.0307886172086000443 0.0207834374159574509
19.5967006683349609 -39.8176689147949219 4.61259746551513672 296 1645009015.34126377 -0.998601138591766357 -0.0131105203181505203 0.0296804457902908325 0.0417488738894462585
25.0402717590332031 -38.9708976745605469 4.31964349746704102 297 1645009016.04339433 -0.995389103889465332 -0.0881087630987167358 0.0304731987416744232 0.0225554574280977249
30.1703033447265625 -37.8689346313476562 4.06344985961914062 298 1645009016.74209762 -0.991899073123931885 -0.122392751276493073 0.0255774762481451035 0.0224067941308021545
35.5359954833984375 -36.2007598876953125 3.85981535911560059 299 1645009017.54286194 -0.986125171184539795 -0.16402888298034668 0.0145908314734697342 0.0209478586912155151
40.5142250061035156 -33.7883186340332031 3.7019801139831543 300 1645009018.44451094 -0.963006436824798584 -0.266895413398742676 0.0249191764742136002 0.0276499930769205093
43.2935943603515625 -31.0294666290283203 3.68441176414489746 301 1645009019.24437809 -0.900781631469726562 -0.43204575777053833 0.0251865964382886887 0.0359793230891227722
44.0373306274414062 -28.7225437164306641 3.68402743339538574 302 1645009019.84289432 -0.80245053768157959 -0.59465104341506958 0.0364261902868747711 0.0337105654180049896
43.7872123718261719 -26.5121879577636719 3.71040797233581543 303 1645009020.44331503 -0.671262383460998535 -0.739986598491668701 0.0306117013096809387 0.0298243798315525055
42.7503929138183594 -24.3735809326171875 3.76204013824462891 304 1645009021.0406673 -0.530583500862121582 -0.84615713357925415 0.0351934507489204407 0.0355057008564472198
39.448150634765625 -20.6168460845947266 3.92191123962402344 305 1645009022.14236522 -0.383744776248931885 -0.922474265098571777 0.0277456194162368774 0.0318021699786186218
35.6211051940917969 -18.2066764831542969 4.14025306701660156 306 1645009023.04352021 -0.213684216141700745 -0.975370287895202637 0.0398957617580890656 0.0374192818999290466
32.0497245788574219 -17.7786712646484375 4.3433690071105957 307 1645009023.74537206 -0.0193537492305040359 -0.998491525650024414 0.0426998287439346313 0.0285808034241199493
27.0175933837890625 -19.0265235900878906 4.64548683166503906 308 1645009024.7448318 0.118646040558815002 -0.99243849515914917 0.0174410454928874969 0.0261677764356136322
21.7047920227050781 -20.0283527374267578 4.91140556335449219 309 1645009025.7379837 0.0727769136428833008 -0.996788203716278076 0.0100077567622065544 0.0318849645555019379
16.6289825439453125 -20.4454612731933594 5.16890668869018555 310 1645009026.63959503 0.0215936191380023956 -0.999435603618621826 0.00668506044894456863 0.0248499326407909393
11.432988166809082 -20.2693290710449219 5.43322229385375977 311 1645009027.53999782 -0.035430464893579483 -0.998882889747619629 0.00677261827513575554 0.0305256396532058716
6.1282196044921875 -19.7496700286865234 5.72541999816894531 312 1645009028.44365883 -0.0345171019434928894 -0.998666584491729736 0.0193836241960525513 0.0331344455480575562
0.87040477991104126 -19.8514900207519531 6.04879903793334961 313 1645009029.34038591 0.0279590599238872528 -0.998822689056396484 0.0151914265006780624 0.0366164594888687134
-4.30382251739501953 -20.7615795135498047 6.42690181732177734 314 1645009030.23749948 0.128159582614898682 -0.990655183792114258 0.0276408735662698746 0.0375952310860157013
-8.95229148864746094 -23.1271419525146484 6.80798816680908203 315 1645009031.14288497 0.286053925752639771 -0.957174420356750488 0.0367851555347442627 0.0252423081547021866
-12.7825393676757812 -26.6218929290771484 7.07386064529418945 316 1645009032.04077125 0.35260307788848877 -0.935524702072143555 0.0177542269229888916 0.0122243035584688187
-18.8709259033203125 -30.3022174835205078 7.24851799011230469 317 1645009033.23950982 0.172477647662162781 -0.984589099884033203 -0.0221417173743247986 0.0185873396694660187
-23.3178329467773438 -30.8075580596923828 7.47371864318847656 318 1645009034.04268694 -0.010883343406021595 -0.998901486396789551 -0.0353784114122390747 0.0287361573427915573
-25.9611835479736328 -29.8782176971435547 7.70848655700683594 319 1645009034.64168334 -0.221985608339309692 -0.973902046680450439 -0.0432937964797019958 0.0190472174435853958
-27.2466583251953125 -28.3563117980957031 7.92144584655761719 320 1645009035.14014888 -0.404967665672302246 -0.913430273532867432 -0.0239663422107696533 0.0327401719987392426
-28.0557460784912109 -26.1963062286376953 8.06492710113525391 321 1645009035.74125695 -0.564009964466094971 -0.825266182422637939 -0.019579324871301651 0.0210989620536565781
-30.0512294769287109 -17.2771663665771484 8.53134536743164062 322 1645009037.83781147 -0.572177708148956299 -0.819969296455383301 -0.0117027182132005692 0.0112307574599981308
-32.3365592956542969 -12.6270246505737305 8.62192249298095703 323 1645009038.83769059 -0.532456815242767334 -0.846284449100494385 -0.0159916169941425323 0.00605090847238898277
-34.3218803405761719 -7.51600742340087891 8.73976993560791016 324 1645009039.83904099 -0.601293802261352539 -0.798738479614257812 -0.0210159830749034882 -0.00457918364554643631
-34.3786849975585938 -4.57111883163452148 8.77115726470947266 325 1645009040.43899989 -0.735410213470458984 -0.676258265972137451 -0.0233745984733104706 -0.0360579565167427063
-33.1974411010742188 -2.18004655838012695 8.79276943206787109 326 1645009041.03668427 -0.855509400367736816 -0.517139554023742676 -0.00871515180915594101 -0.0243794098496437073
-31.3325138092041016 -0.538743317127227783 8.79480934143066406 327 1645009041.63684225 -0.93713301420211792 -0.34841802716255188 -0.000702044868376106024 -0.0196484215557575226
-28.8580837249755859 0.378014147281646729 8.79469203948974609 328 1645009042.23748708 -0.987682819366455078 -0.154941126704216003 -0.00139779853634536266 -0.0217714887112379074
-26.4813957214355469 0.264895081520080566 8.73403072357177734 329 1645009042.737993 -0.998731791973114014 0.0374066643416881561 0.0209142863750457764 -0.0264229457825422287
-24.3756370544433594 -0.743688344955444336 8.66807460784912109 330 1645009043.23620391 -0.97458493709564209 0.221596255898475647 0.0273291673511266708 -0.0182329695671796799
-20.5002098083496094 -3.94467496871948242 8.59220695495605469 331 1645009044.23448586 -0.9477652907371521 0.31893312931060791 0.00037072296254336834 0.00473581347614526749
-9.67363548278808594 -8.38056468963623047 8.43748188018798828 332 1645009046.13616371 -0.991992354393005371 0.125913336873054504 0.00625591212883591652 0.00760601367801427841
3.65947222709655762 -9.32526016235351562 7.56542253494262695 333 1645009047.93595314 -0.997500896453857422 -0.0508347228169441223 0.0489499345421791077 0.00342735229060053825
19.0665302276611328 -5.38010120391845703 6.5597081184387207 334 1645009049.93517256 -0.97080695629119873 -0.23852171003818512 0.0231295675039291382 0.0103073501959443092
