# .PCD v0.7 - Point Cloud Data file format
VERSION 0.7
FIELDS x y z intensity t qx qy qz qw
SIZE 4 4 4 4 8 4 4 4 4
TYPE F F F F F F F F F
COUNT 1 1 1 1 1 1 1 1 1
WIDTH 276
HEIGHT 1
VIEWPOINT 0 0 0 1 0 0 0
POINTS 276
DATA ascii
48.6041946411132812 22.0529365539550781 6.56610012054443359 27 1645008767.65073729 0.195471733808517456 -0.976628601551055908 -0.0017567791510373354 -0.0893548727035522461
44.869598388671875 18.2230415344238281 6.58701562881469727 28 1645008769.25810742 0.078337937593460083 -0.992892980575561523 -0.00909752864390611649 -0.0891284719109535217
41.533935546875 15.2375659942626953 6.53966045379638672 29 1645008771.25309825 0.362899094820022583 -0.931800484657287598 -0.00696754967793822289 -0.00187340832781046629
41.4721565246582031 15.1551141738891602 6.55700016021728516 30 1645008775.35111237 0.364377439022064209 -0.931176364421844482 -0.00461543072015047073 0.0108774770051240921
37.3262863159179688 11.9437217712402344 6.54112625122070312 31 1645008777.2528019 0.336093991994857788 -0.941803097724914551 -0.000931442482396960258 0.00684894761070609093
33.7218208312988281 8.28409862518310547 6.50233888626098633 32 1645008778.35142207 0.392586588859558105 -0.919709682464599609 0.00292218942195177078 0.00115081178955733776
30.1474113464355469 4.4508514404296875 6.50083208084106445 33 1645008779.3493216 0.396351516246795654 -0.918092668056488037 0.00327580934390425682 -0.000777316687162965536
26.3655757904052734 0.669928252696990967 6.49122953414916992 34 1645008780.35020518 0.371025502681732178 -0.928604602813720703 0.00571654597297310829 -0.000932806637138128281
22.2704582214355469 -2.91681051254272461 6.4915771484375 35 1645008781.35043478 0.340718090534210205 -0.940155506134033203 0.00422275485470890999 0.000979923061095178127
17.9210662841796875 -6.0606236457824707 6.62570858001708984 36 1645008782.35042882 0.28539624810218811 -0.958119332790374756 0.0151964491233229637 0.0180386584252119064
12.9990558624267578 -8.19182109832763672 6.87368011474609375 37 1645008783.35103297 0.170831829309463501 -0.984707415103912354 0.0243587717413902283 0.0239674970507621765
7.8850102424621582 -9.887664794921875 7.27177715301513672 38 1645008784.35146213 0.137637272477149963 -0.989609360694885254 0.0167351458221673965 0.0380692891776561737
2.83432984352111816 -10.405552864074707 7.68460178375244141 39 1645008785.35078192 0.0243486203253269196 -0.998418927192687988 0.023360101506114006 0.0449567586183547974
-2.18756222724914551 -10.0695266723632812 8.08854961395263672 40 1645008786.35015702 -0.043646056205034256 -0.99796062707901001 0.0221770871430635452 0.0409606657922267914
-7.59646463394165039 -9.40856742858886719 8.36174392700195312 41 1645008787.45160675 -0.0529211610555648804 -0.997898221015930176 0.0269795507192611694 0.0258962232619524002
-13.0733642578125 -9.42722988128662109 8.49684333801269531 42 1645008788.5499835 0.022665705531835556 -0.999710261821746826 0.00783518701791763306 0.00206882762722671032
-18.1323451995849609 -10.5884943008422852 8.56833076477050781 43 1645008789.55142879 0.134084418416023254 -0.990957379341125488 -0.00239244382828474045 0.00437205517664551735
-22.7186088562011719 -12.7711734771728516 8.57535266876220703 44 1645008790.4501152 0.2633323073387146 -0.964519917964935303 0.0184136908501386642 -0.00428213644772768021
-26.4239921569824219 -16.6433792114257812 8.54651927947998047 45 1645008791.35053706 0.444463402032852173 -0.895738363265991211 0.00439703604206442833 -0.00926102977246046066
-28.5115928649902344 -21.3927478790283203 8.375457763671875 46 1645008792.25128818 0.572559118270874023 -0.81952369213104248 -0.00906474422663450241 -0.0217888765037059784
-29.4404926300048828 -26.6599998474121094 8.08645248413085938 47 1645008793.1527667 0.662936508655548096 -0.748128652572631836 -0.018708275631070137 -0.0216505508869886398
-29.7177791595458984 -31.9609584808349609 7.82247352600097656 48 1645008794.05152202 0.684693098068237305 -0.728121578693389893 -0.031238628551363945 -0.00764839537441730499
-29.6642513275146484 -37.3759269714355469 7.52841997146606445 49 1645008794.95267487 0.716918110847473145 -0.696307480335235596 -0.0329855531454086304 -0.00981183350086212158
-29.4368801116943359 -42.8853645324707031 7.20622634887695312 50 1645008795.85366964 0.708876371383666992 -0.704275906085968018 -0.0379466824233531952 -0.00705678947269916534
-29.9396286010742188 -48.2917633056640625 6.98592042922973633 51 1645008796.85159278 0.653750896453857422 -0.756290853023529053 -0.0251471810042858124 0.00124948867596685886
-31.6723670959472656 -52.9889717102050781 6.91499614715576172 52 1645008798.05137777 0.501355350017547607 -0.864621579647064209 -0.027112908661365509 0.0183636751025915146
-35.7049293518066406 -56.1826515197753906 7.08978891372680664 53 1645008799.75331473 0.269332945346832275 -0.96281665563583374 -0.00522958999499678612 0.0204079095274209976
-39.5270881652832031 -57.1426849365234375 7.23621225357055664 54 1645008801.05173111 0.0728712677955627441 -0.997140169143676758 -0.008360312320291996 0.0182034354656934738
-44.7539825439453125 -56.5650405883789062 7.37101268768310547 55 1645008802.95198369 -0.0710217580199241638 -0.997255563735961914 -0.00667832186445593834 0.0198145322501659393
-49.9194869995117188 -56.6768150329589844 7.40748691558837891 56 1645008804.25243807 0.0511043369770050049 -0.998629450798034668 -0.00987354852259159088 -0.00548843061551451683
-54.4919929504394531 -58.7486724853515625 7.15672397613525391 57 1645008805.55363464 0.256739705801010132 -0.965669870376586914 -0.0342132151126861572 -0.0198962520807981491
-57.6529579162597656 -63.1566200256347656 6.82479095458984375 58 1645008806.85320377 0.521384596824645996 -0.852535247802734375 -0.0301391147077083588 -0.0208181589841842651
-58.8835411071777344 -68.0005111694335938 6.44299888610839844 59 1645008807.75464201 0.628931641578674316 -0.776753067970275879 -0.0213891267776489258 -0.0253410153090953827
-59.2491531372070312 -73.173858642578125 5.98688602447509766 60 1645008808.55207133 0.692886650562286377 -0.719429075717926025 -0.0396346785128116608 -0.0275497455149888992
-59.3326225280761719 -78.6258316040039062 5.55705404281616211 61 1645008809.35470557 0.699463546276092529 -0.713076949119567871 -0.0411515198647975922 -0.0240535270422697067
-59.5423469543457031 -83.92388916015625 5.1036219596862793 62 1645008810.15401602 0.685135543346405029 -0.726243436336517334 -0.0468245670199394226 -0.0310998223721981049
-59.8790473937988281 -89.2794876098632812 4.75167274475097656 63 1645008811.05183291 0.679727792739868164 -0.731948554515838623 -0.0449103638529777527 -0.0143015617504715919
-60.136627197265625 -94.7011489868164062 4.22119522094726562 64 1645008811.9497304 0.698789715766906738 -0.71170121431350708 -0.0572042390704154968 -0.0436112172901630402
-59.8610076904296875 -100.345863342285156 3.77019882202148438 65 1645008812.8568716 0.728371322154998779 -0.683892250061035156 -0.0363673418760299683 -0.0210719648748636246
-59.1452522277832031 -105.736846923828125 3.29292964935302734 66 1645008813.65071344 0.758289635181427002 -0.650184154510498047 -0.0422790125012397766 -0.021676141768693924
-58.0115547180175781 -110.638343811035156 2.81268692016601562 67 1645008814.3507936 0.787297964096069336 -0.614281296730041504 -0.0506918579339981079 -0.0158346109092235565
-56.33209228515625 -115.673286437988281 2.28395414352416992 68 1645008815.06001925 0.818834006786346436 -0.571459650993347168 -0.0508959665894508362 -0.0188248474150896072
-54.1548271179199219 -120.551513671875 1.79247522354125977 69 1645008815.75060964 0.84200209379196167 -0.537165641784667969 -0.0493449829518795013 -0.00711370958015322685
-51.5183219909667969 -125.437339782714844 1.3680884838104248 70 1645008816.45142436 0.862824916839599609 -0.503640890121459961 -0.0433412939310073853 -0.000685744395013898611
-48.4048614501953125 -130.13677978515625 1.00876390933990479 71 1645008817.15052366 0.888728737831115723 -0.456885367631912231 -0.0371838733553886414 -0.00586456432938575745
-44.7283248901367188 -134.498870849609375 0.601186931133270264 72 1645008817.85249043 0.91375887393951416 -0.404236644506454468 -0.0388540588319301605 -0.0113051561638712883
-40.6000480651855469 -138.515579223632812 0.135920986533164978 73 1645008818.54986 0.929437160491943359 -0.366196185350418091 -0.0422734804451465607 -0.0161211173981428146
-36.8462982177734375 -141.876708984375 -0.25668761134147644 74 1645008819.15372324 0.933284521102905273 -0.357581168413162231 -0.0304951202124357224 -0.013630252331495285
-33.0993270874023438 -145.310089111328125 -0.639624178409576416 75 1645008819.75156045 0.929426610469818115 -0.367624551057815552 -0.0296454243361949921 -0.0118110617622733116
-29.3886966705322266 -148.876632690429688 -1.04812443256378174 76 1645008820.35035872 0.925225198268890381 -0.378124624490737915 -0.0293953623622655869 -0.010772164911031723
-25.6720867156982422 -152.613616943359375 -1.49977445602416992 77 1645008820.95337129 0.921241521835327148 -0.386225730180740356 -0.0409973375499248505 -0.0215161256492137909
-21.9643974304199219 -156.352493286132812 -1.9129403829574585 78 1645008821.55542231 0.923967242240905762 -0.38060268759727478 -0.029840400442481041 -0.0231444165110588074
-18.1334209442138672 -159.940811157226562 -2.2900536060333252 79 1645008822.15145588 0.929140686988830566 -0.367735028266906738 -0.0290525630116462708 -0.024989493191242218
-14.1966428756713867 -163.555038452148438 -2.72179698944091797 80 1645008822.75447464 0.928556680679321289 -0.368884801864624023 -0.0379948616027832031 -0.0162127967923879623
-10.2939176559448242 -167.167724609375 -3.13124203681945801 81 1645008823.3537569 0.929144322872161865 -0.368144869804382324 -0.0328948535025119781 -0.00883751362562179565
-6.39325714111328125 -170.780563354492188 -3.48879384994506836 82 1645008823.94934392 0.929228007793426514 -0.367953121662139893 -0.0328937806189060211 -0.00798839610069990158
-2.46400260925292969 -174.42755126953125 -3.82839632034301758 83 1645008824.55379868 0.928931534290313721 -0.368701905012130737 -0.0313557833433151245 -0.0127264093607664108
1.38105154037475586 -178.030670166015625 -4.13363456726074219 84 1645008825.14880037 0.928358376026153564 -0.370236009359359741 -0.0305061917752027512 -0.0120582478120923042
5.23115634918212891 -181.645172119140625 -4.40632915496826172 85 1645008825.75229216 0.928904354572296143 -0.369432389736175537 -0.0239652413874864578 -0.00905915349721908569
8.97315597534179688 -185.2000732421875 -4.62425613403320312 86 1645008826.35018253 0.928548336029052734 -0.370478808879852295 -0.0195104572921991348 -0.012760525569319725
13.0416688919067383 -189.037307739257812 -4.65814685821533203 87 1645008827.05111051 0.930350124835968018 -0.365940690040588379 0.0231417752802371979 -0.000718338764272630215
17.1010379791259766 -192.789321899414062 -4.93179130554199219 88 1645008827.75384998 0.930718123912811279 -0.365530967712402344 -0.00384330376982688904 -0.0116652771830558777
21.0192604064941406 -196.4205322265625 -5.08671712875366211 89 1645008828.44740915 0.92936241626739502 -0.368943631649017334 -0.0106103969737887383 -0.00731898052617907524
24.8971710205078125 -199.974929809570312 -5.21529483795166016 90 1645008829.15150237 0.932912588119506836 -0.359809547662734985 -0.0138631490990519524 -0.00435967138037085533
28.9364891052246094 -203.02911376953125 -5.30861330032348633 91 1645008829.85088849 0.949581623077392578 -0.313476026058197021 -0.0049876323901116848 0.00162760040257126093
33.5847091674804688 -206.210235595703125 -5.33985662460327148 92 1645008830.64795899 0.955332279205322266 -0.29531446099281311 -0.00121094775386154652 0.0113184163346886635
38.2241554260253906 -209.112930297851562 -5.32206869125366211 93 1645008831.44741225 0.963608324527740479 -0.267160505056381226 -0.00429352838546037674 0.0081110633909702301
42.9508857727050781 -211.591064453125 -5.28696680068969727 94 1645008832.24631786 0.976273417472839355 -0.216520324349403381 0.00286650937050580978 -0.000946243584621697664
48.2914390563964844 -213.225387573242188 -5.27595949172973633 95 1645008833.04591513 0.992869853973388672 -0.119188405573368073 0.00107929296791553497 0.00154819048475474119
53.3365249633789062 -213.970489501953125 -5.28886842727661133 96 1645008833.74848223 0.997121334075927734 -0.0741856247186660767 -0.00563826318830251694 0.0146203869953751564
58.5209465026855469 -214.487991333007812 -5.31589984893798828 97 1645008834.44648361 0.999126136302947998 -0.0394661501049995422 0.000770308019127696753 0.0137416301295161247
63.8365135192871094 -214.660629272460938 -5.32935810089111328 98 1645008835.14535427 0.999937534332275391 -0.00721040274947881699 -0.00142226309981197119 0.00842023640871047974
69.1926651000976562 -214.52813720703125 -5.34238910675048828 99 1645008835.84675002 0.999863386154174805 0.0134060150012373924 -0.00242025125771760941 0.00935974903404712677
74.5388259887695312 -214.323516845703125 -5.33115148544311523 100 1645008836.54580712 0.99983292818069458 0.0177480410784482956 0.000361823942512273788 0.00435344269499182701
79.8425064086914062 -214.057022094726562 -5.30986595153808594 101 1645008837.24605823 0.999792337417602539 0.0192193612456321716 0.00167703197803348303 0.00656294357031583786
84.9435272216796875 -213.732635498046875 -5.30047893524169922 102 1645008837.94638586 0.999446392059326172 0.0303788855671882629 -0.00195755902677774429 0.0134247094392776489
90.4563140869140625 -213.4171142578125 -5.30190277099609375 103 1645008838.74622297 0.99967658519744873 0.0198544226586818695 0.00171653751749545336 0.0157994087785482407
95.7497177124023438 -213.315261840820312 -5.30674600601196289 104 1645008839.54755783 0.99989020824432373 0.00248306314460933208 -0.00408301129937171936 0.0140269240364432335
101.073577880859375 -213.360855102539062 -5.31145715713500977 105 1645008840.34542704 0.999984323978424072 -0.00239394721575081348 -0.000323609740007668734 0.00504872063174843788
106.718429565429688 -213.185348510742188 -5.33985757827758789 106 1645008841.14508033 0.999807476997375488 0.0192747954279184341 0.000197279645362868905 0.00366007373668253422
111.864921569824219 -212.9039306640625 -5.36297941207885742 107 1645008841.84585667 0.999640524387359619 0.0252833310514688492 -0.00411143805831670761 0.00791865494102239609
117.125465393066406 -212.650924682617188 -5.37523794174194336 108 1645008842.54512286 0.999796926975250244 0.0189055688679218292 -0.00318043469451367855 0.00620968127623200417
122.472824096679688 -212.447418212890625 -5.3903965950012207 109 1645008843.24569821 0.999903619289398193 0.011460467241704464 -0.0020884957630187273 0.00755529711022973061
127.830024719238281 -212.289398193359375 -5.39207649230957031 110 1645008843.94651818 0.999888062477111816 0.00855373125523328781 0.00254114624112844467 0.0120093589648604393
133.200210571289062 -212.133697509765625 -5.3837122917175293 111 1645008844.64585853 0.999797999858856201 0.0124415578320622444 0.000967536645475775003 0.0157562047243118286
138.538742065429688 -211.984420776367188 -5.32748317718505859 112 1645008845.34625506 0.999701797962188721 0.0130230896174907684 0.0158058870583772659 0.013301067054271698
143.917282104492188 -211.80560302734375 -5.32103252410888672 113 1645008846.0474689 0.999733865261077881 0.01342757698148489 0.00713778659701347351 0.0173485428094863892
149.254196166992188 -211.617523193359375 -5.29091119766235352 114 1645008846.74648857 0.999746918678283691 0.0116399507969617844 0.00742646027356386185 0.0177595056593418121
154.608596801757812 -211.389739990234375 -5.22793102264404297 115 1645008847.44861913 0.999640703201293945 0.0198863018304109573 0.00669096130877733231 0.0166795030236244202
159.919082641601562 -211.141815185546875 -5.16678953170776367 116 1645008848.14843249 0.999596297740936279 0.0227712616324424744 0.00695368647575378418 0.0155044011771678925
165.2264404296875 -210.89892578125 -5.07294750213623047 117 1645008848.84934068 0.999707639217376709 0.0176773481070995331 0.0109995622187852859 0.0122936852276325226
170.500747680664062 -210.65753173828125 -4.94675588607788086 118 1645008849.54773331 0.999699413776397705 0.0190892741084098816 0.0123936189338564873 0.00911705289036035538
175.72161865234375 -210.4144287109375 -4.79766511917114258 119 1645008850.24828529 0.999595224857330322 0.0186762157827615738 0.0192753560841083527 0.00943857338279485703
180.944427490234375 -210.141006469726562 -4.64463186264038086 120 1645008850.95101118 0.99950796365737915 0.0232327934354543686 0.0167720578610897064 0.0127571811899542809
186.130722045898438 -209.863052368164062 -4.48405790328979492 121 1645008851.65042639 0.999560117721557617 0.023724900558590889 0.0150307714939117432 0.00952899083495140076
191.285263061523438 -209.498703002929688 -4.33760690689086914 122 1645008852.34746623 0.999074220657348633 0.0395989231765270233 0.0164813641458749771 0.00330979307182133198
196.45001220703125 -208.933547973632812 -4.16399908065795898 123 1645008853.0518415 0.998798012733459473 0.0452843792736530304 0.0178622826933860779 0.00572203611955046654
201.5419921875 -208.3531494140625 -4.01024436950683594 124 1645008853.74626493 0.997470438480377197 0.0697150528430938721 0.013682778924703598 -0.00231698364950716496
206.578781127929688 -207.241195678710938 -3.87196612358093262 125 1645008854.44671202 0.992797911167144775 0.118574619293212891 0.0168920308351516724 0.00266100163571536541
211.506393432617188 -205.700241088867188 -3.74176764488220215 126 1645008855.14688754 0.987170577049255371 0.158939570188522339 0.0152437491342425346 0.000364707200787961483
216.346160888671875 -203.947372436523438 -3.59853100776672363 127 1645008855.84750104 0.983650565147399902 0.178989499807357788 0.019369468092918396 0.00437653670087456703
221.16412353515625 -202.175567626953125 -3.44372367858886719 128 1645008856.54667473 0.985363960266113281 0.167204052209854126 0.0308354143053293228 0.0122434487566351891
226.107025146484375 -200.625274658203125 -3.32126641273498535 129 1645008857.24806857 0.990557610988616943 0.132673516869544983 0.0237939096987247467 0.025043141096830368
231.089752197265625 -199.451431274414062 -3.15816903114318848 130 1645008857.94491148 0.993101119995117188 0.113689906895160675 0.0234749652445316315 0.0165444351732730865
236.119674682617188 -198.436798095703125 -2.99105119705200195 131 1645008858.64519954 0.995434880256652832 0.0924245640635490417 0.0205671265721321106 0.0120023740455508232
241.189376831054688 -197.524581909179688 -2.8492424488067627 132 1645008859.34472108 0.995886683464050293 0.0890720486640930176 0.0140622267499566078 0.00883841421455144882
246.186370849609375 -196.507095336914062 -2.69371461868286133 133 1645008860.04584527 0.994424283504486084 0.0965376943349838257 0.04035220667719841 0.0131327789276838303
251.192703247070312 -195.434036254882812 -2.53322672843933105 134 1645008860.75105977 0.994955360889434814 0.0975133925676345825 0.023212730884552002 0.00401211902499198914
256.18792724609375 -194.534286499023438 -2.36871480941772461 135 1645008861.44502187 0.996855199337005615 0.0771623775362968445 0.0164103750139474869 0.00750970374792814255
261.239837646484375 -193.7125244140625 -2.17799162864685059 136 1645008862.1452899 0.99702763557434082 0.0742708444595336914 0.0160609371960163116 0.0127172768115997314
266.261627197265625 -192.881881713867188 -1.99585938453674316 137 1645008862.84606552 0.996171295642852783 0.0842989608645439148 0.0218315646052360535 0.00773464702069759369
271.266693115234375 -191.829559326171875 -1.85123848915100098 138 1645008863.54545498 0.993844389915466309 0.110150702297687531 0.0118245575577020645 -0.000527631724253296852
276.168243408203125 -190.452590942382812 -1.70708930492401123 139 1645008864.24453688 0.989901602268218994 0.140296563506126404 0.019407615065574646 0.00591885810717940331
281.051544189453125 -188.904678344726562 -1.50535500049591064 140 1645008864.94537568 0.987057387828826904 0.159464597702026367 0.0155903557315468788 -0.00676150759682059288
285.83349609375 -187.137359619140625 -1.36805450916290283 141 1645008865.64442992 0.984218060970306396 0.176027894020080566 0.0179503653198480606 0.00260238535702228546
290.607696533203125 -185.28729248046875 -1.20366084575653076 142 1645008866.34440207 0.982751190662384033 0.183658182621002197 0.0214803013950586319 -0.00289971870370209217
295.378753662109375 -183.362167358398438 -1.06378448009490967 143 1645008867.04472899 0.982885956764221191 0.1829405277967453 0.0189472287893295288 0.0104400943964719772
300.077911376953125 -181.381988525390625 -0.880023062229156494 144 1645008867.74709535 0.980646729469299316 0.192124277353286743 0.0304430015385150909 0.0222134906798601151
304.791290283203125 -179.484771728515625 -0.662700951099395752 145 1645008868.44533992 0.981048464775085449 0.191685602068901062 0.0263993516564369202 0.0101796891540288925
309.95574951171875 -177.349380493164062 -0.345223486423492432 146 1645008869.24509645 0.980908751487731934 0.191732823848724365 0.0301932916045188904 0.0120366141200065613
314.541259765625 -175.342269897460938 -0.0574288144707679749 147 1645008870.04597592 0.976877450942993164 0.211319148540496826 0.0315201133489608765 0.00782131217420101166
319.2353515625 -172.692947387695312 0.237292587757110596 148 1645008871.04571795 0.960636258125305176 0.276232659816741943 0.0294790863990783691 0.00212580105289816856
322.82275390625 -169.140045166015625 0.496099978685379028 149 1645008872.04714799 0.899583876132965088 0.436017066240310669 0.0248431563377380371 -0.00456460146233439445
324.1455078125 -165.689315795898438 0.639816224575042725 150 1645008872.74905252 0.795210540294647217 0.605712711811065674 0.0223551001399755478 -0.0158933978527784348
324.10076904296875 -162.390167236328125 1.01975250244140625 151 1645008873.44879365 0.665882110595703125 0.744233191013336182 0.0309065226465463638 -0.041985049843788147
322.128570556640625 -157.555496215820312 1.702178955078125 152 1645008874.7459662 0.517150282859802246 0.853246152400970459 0.0434216968715190887 -0.0513926893472671509
319.408966064453125 -153.142318725585938 2.28774046897888184 153 1645008876.0454669 0.484033375978469849 0.873297333717346191 0.0344814956188201904 -0.0432951338589191437
316.071746826171875 -149.03253173828125 2.85803341865539551 154 1645008877.34756231 0.405867487192153931 0.912012457847595215 0.0384839139878749847 -0.0449867546558380127
311.975830078125 -145.569366455078125 3.44513320922851562 155 1645008878.6473527 0.329240918159484863 0.942308008670806885 0.0400087125599384308 -0.0453354120254516602
307.770233154296875 -142.72930908203125 3.9340212345123291 156 1645008879.84689426 0.279855608940124512 0.958629369735717773 0.0288327224552631378 -0.0433504059910774231
303.064239501953125 -140.2061767578125 4.38836574554443359 157 1645008881.04772949 0.238236978650093079 0.970128774642944336 0.0254096295684576035 -0.0380473025143146515
298.49560546875 -137.996063232421875 4.8091578483581543 158 1645008882.14703298 0.23139306902885437 0.971441924571990967 0.0339979007840156555 -0.040024392306804657
293.91497802734375 -135.358154296875 5.22795009613037109 159 1645008883.24829817 0.268901646137237549 0.961913168430328369 0.0325094424188137054 -0.0368520468473434448
289.51507568359375 -132.952850341796875 5.5261077880859375 160 1645008884.24888587 0.240434557199478149 0.97028052806854248 0.0201150309294462204 -0.0185000691562891006
284.99053955078125 -130.719146728515625 5.71608877182006836 161 1645008885.44953394 0.267459571361541748 0.963118910789489746 0.0229938067495822906 -0.0184025373309850693
280.814453125 -127.706436157226562 5.92126035690307617 162 1645008886.65022612 0.310744792222976685 0.95006716251373291 0.00853522587567567825 -0.0271515883505344391
276.69793701171875 -124.845428466796875 6.02826881408691406 163 1645008887.64885497 0.288840353488922119 0.957231223583221436 -0.00126559729687869549 -0.0166736803948879242
271.876861572265625 -122.019645690917969 6.09888029098510742 164 1645008888.65044165 0.260307818651199341 0.965421319007873535 -0.00831730477511882782 -0.0115046035498380661
267.293365478515625 -119.177207946777344 6.12878608703613281 165 1645008889.54913282 0.2863006591796875 0.95803368091583252 -0.000211335122003220022 -0.0142603078857064247
263.13543701171875 -116.150337219238281 6.20125818252563477 166 1645008890.34870672 0.326674610376358032 0.94503408670425415 0.00235129892826080322 -0.013738805428147316
259.135040283203125 -112.510673522949219 6.22211170196533203 167 1645008891.14996338 0.374588340520858765 0.927164196968078613 -0.00448033539578318596 -0.00547668151557445526
255.313735961914062 -108.381919860839844 6.21867895126342773 168 1645008891.94507837 0.403054565191268921 0.915046751499176025 -0.0144807128235697746 -0.00517543917521834373
251.9256591796875 -104.498039245605469 6.2297368049621582 169 1645008892.64950681 0.421808838844299316 0.906642735004425049 -0.00636403821408748627 -0.00597774237394332886
248.663223266601562 -100.437095642089844 6.23891592025756836 170 1645008893.34789777 0.43968510627746582 0.898038506507873535 -0.0113659091293811798 -0.00864058174192905426
245.486419677734375 -96.2283554077148438 6.2221989631652832 171 1645008894.04474902 0.463075995445251465 0.886286497116088867 0.00752935372292995453 -0.000359659228706732392
242.74847412109375 -91.770782470703125 6.23170614242553711 172 1645008894.74427247 0.511527597904205322 0.859228909015655518 0.0019911548588424921 0.00782448332756757736
240.686080932617188 -86.543548583984375 6.28130674362182617 173 1645008895.55000114 0.583644211292266846 0.811993002891540527 -0.00517417676746845245 -0.000196575405425392091
239.31378173828125 -81.5098037719726562 6.29834938049316406 174 1645008896.343822 0.614778876304626465 0.788637995719909668 -0.00924394000321626663 -0.00340875471010804176
238.1314697265625 -75.9973831176757812 6.31580400466918945 175 1645008897.24594355 0.638574779033660889 0.769522726535797119 -0.00539673818275332451 -0.00527956523001194
237.347732543945312 -70.7373428344726562 6.32002449035644531 176 1645008898.14341617 0.660454332828521729 0.750822663307189941 -0.00689573399722576141 -0.00421849917620420456
236.784683227539062 -65.299896240234375 6.33778905868530273 177 1645008899.14272809 0.673204481601715088 0.739411771297454834 -0.00395401241257786751 -0.00709403678774833679
236.337432861328125 -60.2799797058105469 6.35684680938720703 178 1645008900.14366388 0.672990977764129639 0.739542901515960693 -0.00977258477360010147 -0.00799537822604179382
235.20489501953125 -55.260955810546875 6.39974260330200195 179 1645008901.4441874 0.606200933456420898 0.795269787311553955 -0.00438737822696566582 -0.00686472002416849136
233.345123291015625 -50.2370719909667969 6.42429733276367188 180 1645008902.94483733 0.557739138603210449 0.829915404319763184 -0.0122536905109882355 0.00416113017126917839
229.879989624023438 -46.5965843200683594 6.48510980606079102 181 1645008904.44681311 0.340309977531433105 0.940252900123596191 -0.00710983714088797569 -0.00793776847422122955
225.240615844726562 -44.3994178771972656 6.47849798202514648 182 1645008905.64585924 0.211175486445426941 0.977239608764648438 0.0199376065284013748 0.00319528416730463505
220.419387817382812 -42.0515251159667969 6.48549842834472656 183 1645008906.84440517 0.240676507353782654 0.970563173294067383 0.00836343225091695786 -0.00347245973534882069
215.657470703125 -39.3059005737304688 6.48805093765258789 184 1645008907.94328713 0.273722320795059204 0.961723268032073975 0.0126793039962649345 0.00191180233377963305
211.335250854492188 -36.3816452026367188 6.49457025527954102 185 1645008908.94315982 0.301211565732955933 0.953540623188018799 0.00421058526262640953 0.00376348476856946945
207.05279541015625 -33.3619461059570312 6.51163482666015625 186 1645008909.94256806 0.314521521329879761 0.948869466781616211 0.024942861869931221 0.0100403856486082077
202.839584350585938 -30.2477779388427734 6.51834726333618164 187 1645008910.94311404 0.316991090774536133 0.948122620582580566 0.0226511619985103607 0.00818967074155807495
198.509689331054688 -26.9883937835693359 6.59190750122070312 188 1645008911.94270873 0.319630712270736694 0.947129487991333008 0.0276762787252664566 -0.00399734824895858765
194.251785278320312 -23.8886814117431641 6.68337488174438477 189 1645008912.8425107 0.319790184497833252 0.946720242500305176 0.0380481183528900146 -0.00271929660812020302
190.200057983398438 -20.6700992584228516 6.75135993957519531 190 1645008913.7436223 0.35311087965965271 0.934915482997894287 0.035006057471036911 0.00451226485893130302
186.171127319335938 -16.926116943359375 6.77997589111328125 191 1645008914.74295688 0.368267029523849487 0.929073452949523926 0.0320011377334594727 0.0133349951356649399
182.384017944335938 -13.1782131195068359 6.80504560470581055 192 1645008915.64327168 0.385792642831802368 0.922418117523193359 0.0166486036032438278 0.00563032831996679306
178.686019897460938 -9.39360904693603516 6.95958566665649414 193 1645008916.54297042 0.388906419277191162 0.92099231481552124 0.0169639810919761658 -0.0154006117954850197
175.028854370117188 -5.78459310531616211 7.10127639770507812 194 1645008917.44350576 0.379346698522567749 0.92489999532699585 0.0210888087749481201 -0.0145388096570968628
171.23992919921875 -2.21209597587585449 7.26507043838500977 195 1645008918.3425312 0.367831707000732422 0.929412722587585449 0.0271690189838409424 -0.0123948529362678528
167.526107788085938 1.27911770343780518 7.44382810592651367 196 1645008919.24293303 0.372360706329345703 0.927852749824523926 0.0173803362995386124 -0.0116083649918437004
163.566299438476562 4.91868829727172852 7.67381572723388672 197 1645008920.24235439 0.371734946966171265 0.928108036518096924 0.0206564515829086304 -0.00136413925793021917
159.773605346679688 8.51776885986328125 7.85116672515869141 198 1645008921.34274912 0.378482609987258911 0.925328969955444336 0.017560664564371109 -0.0144497575238347054
156.300094604492188 12.1392860412597656 8.03992080688476562 199 1645008922.44172597 0.403897374868392944 0.914626061916351318 0.0153805110603570938 -0.00945943873375654221
152.906570434570312 16.0697364807128906 8.2562255859375 200 1645008923.64268708 0.418311774730682373 0.908035457134246826 0.0114967282861471176 -0.0188340526074171066
149.170547485351562 19.8775005340576172 8.45292758941650391 201 1645008924.84121943 0.37510150671005249 0.926741063594818115 0.012456526979804039 -0.017168041318655014
145.315902709960938 23.4440078735351562 8.51844120025634766 202 1645008926.04227495 0.371404647827148438 0.928425192832946777 -0.00917776394635438919 0.00100008281879127026
141.361114501953125 26.7671089172363281 8.3945159912109375 203 1645008927.34293461 0.33301195502281189 0.942342698574066162 0.0141122713685035706 0.0299022160470485687
138.336212158203125 27.8847637176513672 8.29127025604248047 204 1645008928.24385858 0.144609510898590088 0.989010512828826904 0.0176535192877054214 0.0251913666725158691
135.85992431640625 27.6106853485107422 8.16060447692871094 205 1645008928.94406939 -0.0537678785622119904 0.99811941385269165 0.0112874619662761688 0.0271887537091970444
133.304641723632812 26.2352638244628906 7.91875505447387695 206 1645008929.64295864 -0.24927288293838501 0.967522621154785156 0.0101305842399597168 0.0407479032874107361
129.657379150390625 22.6055202484130859 7.5031123161315918 207 1645008930.64467454 -0.390522181987762451 0.919731497764587402 0.0216138344258069992 0.0334548205137252808
125.874946594238281 18.6154804229736328 7.09522628784179688 208 1645008931.6446867 -0.378625214099884033 0.924624383449554443 0.028303319588303566 0.0301930923014879227
122.013038635253906 15.1720819473266602 6.72639179229736328 209 1645008932.54526043 -0.351828902959823608 0.935158967971801758 0.02170538529753685 0.0349714867770671844
118.036857604980469 11.5027322769165039 6.35406351089477539 210 1645008933.44458461 -0.365629792213439941 0.93005216121673584 0.0179748274385929108 0.0315399803221225739
114.310302734375 7.89276599884033203 5.96829795837402344 211 1645008934.24563336 -0.374875694513320923 0.926176905632019043 0.0199264604598283768 0.0356017798185348511
110.542572021484375 4.03447246551513672 5.56155729293823242 212 1645008935.04687905 -0.385523825883865356 0.921797454357147217 0.0229434482753276825 0.0336816124618053436
106.733879089355469 -0.00503617897629737854 5.14924049377441406 213 1645008935.84552765 -0.392193824052810669 0.918982863426208496 0.0266875233501195908 0.0306957047432661057
102.842918395996094 -4.12377023696899414 4.75012493133544922 214 1645008936.64707589 -0.392628192901611328 0.918980121612548828 0.0243190322071313858 0.0269674547016620636
99.3469161987304688 -7.73697519302368164 4.44116878509521484 215 1645008937.34615111 -0.378745436668395996 0.924803733825683594 0.0256238915026187897 0.0251667890697717667
95.2702865600585938 -11.5884971618652344 4.12114953994750977 216 1645008938.14275908 -0.361426085233688354 0.931697964668273926 0.0207123942673206329 0.0296825487166643143
91.35894775390625 -15.1616306304931641 3.84438109397888184 217 1645008938.94643307 -0.35809287428855896 0.933123767375946045 0.0143179465085268021 0.0290600433945655823
87.3814010620117188 -18.8204860687255859 3.54909348487854004 218 1645008939.84425354 -0.365344882011413574 0.930194079875946045 0.0121276266872882843 0.0333927273750305176
84.4340896606445312 -23.1717872619628906 3.20609498023986816 219 1645008940.84434748 -0.535897195339202881 0.842601358890533447 -0.000213143022847361863 0.0532639063894748688
83.9263839721679688 -26.8381710052490234 2.96260309219360352 220 1645008941.64353681 -0.677796244621276855 0.733908951282501221 0.00406583398580551147 0.0441967472434043884
84.5797271728515625 -29.2155895233154297 2.83419489860534668 221 1645008942.24430442 -0.805756509304046631 0.589057266712188721 -0.00308327237144112587 0.061306927353143692
85.87408447265625 -30.6064033508300781 2.73114800453186035 222 1645008942.74404407 -0.901047170162200928 0.428297072649002075 0.0138751612976193428 0.0669559463858604431
88.632598876953125 -32.0962104797363281 2.58006501197814941 223 1645008943.5469594 -0.967141091823577881 0.24753020703792572 0.0147825609892606735 0.0561102889478206635
93.3353729248046875 -33.989471435546875 2.3713066577911377 224 1645008944.54622054 -0.980516016483306885 0.19334787130355835 0.0137688890099525452 0.0318644680082798004
98.2292633056640625 -36.3818702697753906 2.17418241500854492 225 1645008945.44528246 -0.966288566589355469 0.256606072187423706 0.013390309177339077 0.016138274222612381
102.586906433105469 -39.6331253051757812 1.97028911113739014 226 1645008946.24345851 -0.938373804092407227 0.344926327466964722 0.0162784047424793243 0.0146773755550384521
105.993858337402344 -43.3358078002929688 1.79418063163757324 227 1645008946.9451983 -0.904088735580444336 0.427091747522354126 0.0124081671237945557 0.00788779370486736298
109.007286071777344 -48.1602935791015625 1.57556521892547607 228 1645008947.74599004 -0.861477017402648926 0.507238864898681641 0.0137520162388682365 0.0194143224507570267
111.172065734863281 -53.2610435485839844 1.38047337532043457 229 1645008948.54395175 -0.815009236335754395 0.579050719738006592 0.0105577381327748299 0.0186760835349559784
112.222267150878906 -58.6202583312988281 1.20585572719573975 230 1645008949.34596205 -0.739021956920623779 0.673298358917236328 0.0103530837222933769 0.0202170088887214661
111.810935974121094 -63.9376716613769531 0.991628885269165039 231 1645008950.14305186 -0.65583115816116333 0.75423198938369751 0.000452898559160530567 0.0319277495145797729
110.83758544921875 -69.1582565307617188 0.773010611534118652 232 1645008950.94598341 -0.621926963329315186 0.782587647438049316 0.0028506286907941103 0.0274824518710374832
108.850212097167969 -73.9089889526367188 0.542782723903656006 233 1645008951.74617577 -0.512771785259246826 0.858072161674499512 0.0096419239416718483 0.0261597149074077606
105.621963500976562 -78.3833541870117188 0.299355834722518921 234 1645008952.6467948 -0.435101538896560669 0.899908483028411865 -0.00123592745512723923 0.0291521679610013962
101.876365661621094 -82.069366455078125 0.108335293829441071 235 1645008953.54642129 -0.351637810468673706 0.935517609119415283 -0.000266873190412297845 0.0340228565037250519
97.6753463745117188 -84.8680419921875 -0.264212578535079956 236 1645008954.4472177 -0.253607988357543945 0.966042399406433105 0.0172339417040348053 0.0463475063443183899
92.693328857421875 -86.4205398559570312 -0.695828080177307129 237 1645008955.3455019 -0.104097932577133179 0.993635296821594238 0.022658124566078186 0.0365940406918525696
87.4030227661132812 -86.615264892578125 -0.865951776504516602 238 1645008956.24575686 -0.0030329518485814333 0.999986708164215088 -0.00117274792864918709 0.00400603422895073891
82.2818603515625 -86.4107894897460938 -0.900262117385864258 239 1645008957.14362478 0.032232385128736496 0.999472975730895996 0.00366921443492174149 0.00116639549378305674
76.8822097778320312 -85.9112396240234375 -0.914126396179199219 240 1645008958.14770842 0.0597277022898197174 0.998187363147735596 0.0071101863868534565 0.00201202859170734882
71.4784317016601562 -85.2218551635742188 -0.895369768142700195 241 1645008959.24518681 0.066417396068572998 0.997760891914367676 0.00786569714546203613 -6.87682622810825706e-05
66.1588897705078125 -85.2846755981445312 -0.891649425029754639 242 1645008960.44048524 -0.0913350358605384827 0.99572986364364624 -0.0126837436109781265 0.00437155086547136307
62.7820816040039062 -89.004241943359375 -0.957539975643157959 243 1645008961.74336982 -0.537663459777832031 0.842421054840087891 -0.0193278882652521133 0.0295159332454204559
62.9156036376953125 -90.812255859375 -0.946397960186004639 244 1645008962.24084806 -0.70450669527053833 0.709039866924285889 -0.0179479420185089111 0.0247116684913635254
63.7187728881835938 -92.3280487060546875 -0.942147970199584961 245 1645008962.74588943 -0.832722604274749756 0.553043067455291748 -0.0069708176888525486 0.0258426442742347717
65.0145721435546875 -93.2909011840820312 -0.938832879066467285 246 1645008963.24077463 -0.920040130615234375 0.391435205936431885 0.00158124312292784452 0.0173814259469509125
67.878662109375 -94.5004043579101562 -0.886823415756225586 247 1645008964.24355221 -0.977195560932159424 0.211974248290061951 -0.0120170963928103447 -0.00337045872583985329
72.2032470703125 -95.13262939453125 -0.900359630584716797 248 1645008965.44372225 -0.999403595924377441 0.0342368297278881073 0.0034408539067953825 -0.00290877930819988251
76.3470230102539062 -94.2313995361328125 -0.949769377708435059 249 1645008966.64295983 -0.989329397678375244 -0.145463556051254272 0.00674430513754487038 -0.00471220817416906357
80.5665740966796875 -91.4919662475585938 -0.963204801082611084 250 1645008967.84444404 -0.952566921710968018 -0.304316699504852295 0.000501413829624652863 0.00270270579494535923
90.3257904052734375 -86.759521484375 -0.810837686061859131 251 1645008969.94086766 -0.982876956462860107 -0.183701857924461365 -0.0120506612583994865 0.00782791431993246078
100.044609069824219 -81.5920639038085938 0.0217340867966413498 252 1645008971.94447064 -0.951561093330383301 -0.305166155099868774 -0.0344592481851577759 0.0147542115300893784
106.609405517578125 -74.5055999755859375 0.440948992967605591 253 1645008973.64216256 -0.884480774402618408 -0.465954989194869995 -0.0208798851817846298 0.0119900954887270927
109.923492431640625 -66.2247314453125 0.851724565029144287 254 1645008975.14331579 -0.78452003002166748 -0.61952519416809082 -0.0219695288687944412 0.0153031861409544945
109.995445251464844 -58.8548202514648438 1.14402008056640625 255 1645008976.34428048 -0.664754629135131836 -0.746762335300445557 -0.0154790207743644714 0.0144120883196592331
107.470413208007812 -51.7413177490234375 1.40108180046081543 256 1645008977.54364514 -0.524993479251861572 -0.850954651832580566 -0.0106513192877173424 0.0120221180841326714
100.897331237792969 -42.3331298828125 1.85455715656280518 257 1645008979.54395604 -0.383203983306884766 -0.923451542854309082 -0.010005515068769455 0.0170833133161067963
92.7707672119140625 -37.2660980224609375 2.2165839672088623 258 1645008981.64526343 -0.233153283596038818 -0.972201764583587646 -0.00925279594957828522 0.0194349102675914764
83.1973953247070312 -34.8067626953125 2.50003695487976074 259 1645008983.74494076 -0.0607689395546913147 -0.998070001602172852 -0.011491057462990284 0.00559791503474116325
77.904571533203125 -35.1559104919433594 2.47729134559631348 260 1645008984.74319243 0.0648418888449668884 -0.99765932559967041 -0.0181213207542896271 -0.0119571499526500702
73.0351409912109375 -36.6821250915527344 2.40803384780883789 261 1645008985.63981366 0.177872523665428162 -0.983954429626464844 -0.0133053511381149292 -0.00424973014742136002
68.1794586181640625 -39.3553619384765625 2.2805933952331543 262 1645008986.54147458 0.269334316253662109 -0.962956368923187256 -0.0131592359393835068 0.000938267621677368879
63.7950706481933594 -42.3972053527832031 2.23280453681945801 263 1645008987.34231496 0.3076610267162323 -0.951424658298492432 -0.0115789985284209251 -0.00133460038341581821
59.3679237365722656 -45.8317947387695312 2.21717476844787598 264 1645008988.13912249 0.325026988983154297 -0.945686638355255127 -0.000829195952974259853 0.00579072674736380577
55.213134765625 -48.7977409362792969 2.25036382675170898 265 1645008988.83838725 0.291920721530914307 -0.956424474716186523 0.00390506465919315815 0.0043863002210855484
50.8067054748535156 -51.5553169250488281 2.30570840835571289 266 1645008989.54064131 0.262762755155563354 -0.964792966842651367 0.00305017130449414253 0.0110000912100076675
46.224853515625 -53.9591827392578125 2.40366315841674805 267 1645008990.23846412 0.225317806005477905 -0.974183320999145508 0.00331003405153751373 0.0137034934014081955
41.456512451171875 -55.9536361694335938 2.54494714736938477 268 1645008990.93852735 0.178019389510154724 -0.983902990818023682 0.00580477016046643257 0.0145035628229379654
36.5771560668945312 -57.5101814270019531 2.73904943466186523 269 1645008991.63968468 0.134509861469268799 -0.990508675575256348 0.00492182699963450432 0.0278464742004871368
31.6138324737548828 -58.5942420959472656 2.96297216415405273 270 1645008992.33926153 0.0913933292031288147 -0.995388209819793701 0.00393272517248988152 0.0288807712495326996
26.6257038116455078 -59.2456245422363281 3.22344851493835449 271 1645008993.03945947 0.0508189983665943146 -0.998298704624176025 0.00636502262204885483 0.027866750955581665
20.9589481353759766 -59.5565643310546875 3.53827524185180664 272 1645008993.84054446 0.0112301791086792946 -0.999386072158813477 0.00135275651700794697 0.0331596247851848602
15.3985443115234375 -59.5739212036132812 3.90759897232055664 273 1645008994.63996243 -0.00707773817703127861 -0.999202489852905273 -0.000447067228378728032 0.0392943993210792542
9.96353816986083984 -59.4656791687011719 4.2695002555847168 274 1645008995.43935108 -0.0181144624948501587 -0.999209582805633545 -0.00251898332498967648 0.0352952517569065094
4.60477161407470703 -59.220794677734375 4.60155487060546875 275 1645008996.23894596 -0.0282657705247402191 -0.998991549015045166 -0.00065968494163826108 0.0348786301910877228
-0.5087546706199646 -58.9353828430175781 4.93699169158935547 276 1645008997.03880954 -0.0286350417882204056 -0.99907451868057251 0.0013955053873360157 0.0320663116872310638
-5.61888456344604492 -58.6848907470703125 5.2997136116027832 277 1645008997.93881249 -0.0296886321157217026 -0.998924851417541504 -0.00227700476534664631 0.0355315431952476501
-11.066157341003418 -58.3915023803710938 5.66393899917602539 278 1645008998.93914819 -0.0333322957158088684 -0.998831450939178467 -0.00345186679624021053 0.0348257049918174744
-16.5640850067138672 -58.0397262573242188 6.02633762359619141 279 1645008999.93983603 -0.0366874262690544128 -0.998930752277374268 -0.00105093978345394135 0.0281114149838685989
-21.7052879333496094 -57.0793266296386719 6.33542108535766602 280 1645009001.03807473 -0.133413940668106079 -0.990632295608520508 0.0047497311607003212 0.0287372246384620667
-26.2282009124755859 -54.9305152893066406 6.60759449005126953 281 1645009002.14051509 -0.25546497106552124 -0.966302692890167236 0.00752550782635807991 0.0306606143712997437
-30.0855865478515625 -51.1635704040527344 6.87419939041137695 282 1645009003.23864508 -0.425130963325500488 -0.904270946979522705 0.0112068243324756622 0.0378440432250499725
-32.8405113220214844 -46.082122802734375 7.11137294769287109 283 1645009004.34217763 -0.583650350570678711 -0.811975300312042236 0.00366927660070359707 0.00591101869940757751
-33.06536865234375 -42.4470977783203125 7.3159937858581543 284 1645009005.04121089 -0.714862167835235596 -0.698805809020996094 -0.0194639246910810471 0.0162397697567939758
-30.2010307312011719 -32.637054443359375 7.80886077880859375 285 1645009006.94212365 -0.826166272163391113 -0.5631522536277771 -0.0132037084549665451 0.0115984370931982994
-27.9220676422119141 -29.7786350250244141 7.85010766983032227 286 1645009007.74096727 -0.920983970165252686 -0.389144927263259888 0.0130230775102972984 0.0136071974411606789
-26.5766201019287109 -29.3885593414306641 7.80382204055786133 287 1645009008.14163399 -0.977250218391418457 -0.210362493991851807 0.0241522081196308136 0.0120977284386754036
-25.1863384246826172 -29.5556182861328125 7.66329813003540039 288 1645009008.5417428 -0.998341500759124756 -0.0251969527453184128 0.0453421212732791901 0.0249695088714361191
-22.6115455627441406 -30.4493846893310547 7.45677375793457031 289 1645009009.24367833 -0.985271632671356201 0.166525349020957947 0.0381509140133857727 0.0073223416693508625
-17.9553279876708984 -32.7800979614257812 7.1340947151184082 290 1645009010.24082112 -0.971915543079376221 0.233442515134811401 0.0227795075625181198 0.019128844141960144
-13.4336357116699219 -35.0146102905273438 6.75191402435302734 291 1645009011.04223537 -0.97730940580368042 0.203504562377929688 0.0308053866028785706 0.0500330515205860138
-7.96241998672485352 -36.632720947265625 6.24954414367675781 292 1645009011.8416276 -0.991467714309692383 0.120843410491943359 0.035215381532907486 0.0338903628289699554
-2.60893535614013672 -37.63470458984375 5.88051891326904297 293 1645009012.54450345 -0.994862616062164307 0.0953803882002830505 0.0301644615828990936 0.0155275799334049225
2.90299463272094727 -38.4985313415527344 5.56651163101196289 294 1645009013.24267387 -0.99700462818145752 0.0701906010508537292 0.0271510165184736252 0.0178305692970752716
8.55551719665527344 -39.096466064453125 5.25026512145996094 295 1645009013.94231892 -0.99825894832611084 0.0472362004220485687 0.0306379161775112152 0.0175819471478462219
14.1273202896118164 -39.5976753234863281 4.93033504486083984 296 1645009014.64230967 -0.998360097408294678 0.0432548336684703827 0.0312930084764957428 0.0206603296101093292
19.5980968475341797 -39.82000732421875 4.61232328414916992 297 1645009015.34126377 -0.998564183712005615 -0.0127817196771502495 0.030801776796579361 0.0419215857982635498
25.0406551361083984 -38.9795265197753906 4.32086706161499023 298 1645009016.04339433 -0.995413422584533691 -0.0878826901316642761 0.0304030049592256546 0.022459300234913826
30.1720085144042969 -37.8679161071777344 4.06444931030273438 299 1645009016.74209762 -0.99187856912612915 -0.122597657144069672 0.0252329651266336441 0.0225829090923070908
35.5447502136230469 -36.1990127563476562 3.8588099479675293 300 1645009017.54286194 -0.986106991767883301 -0.164101600646972656 0.014817502349615097 0.0210729893296957016
40.5205612182617188 -33.7930793762207031 3.70231938362121582 301 1645009018.44451094 -0.962918639183044434 -0.267183095216751099 0.0250976327806711197 0.0277670063078403473
43.2948837280273438 -31.0298118591308594 3.68661332130432129 302 1645009019.24437809 -0.900395095348358154 -0.432812511920928955 0.025233021005988121 0.0364043042063713074
