# .PCD v0.7 - Point Cloud Data file format
VERSION 0.7
FIELDS x y z intensity t qx qy qz qw
SIZE 4 4 4 4 8 4 4 4 4
TYPE F F F F F F F F F
COUNT 1 1 1 1 1 1 1 1 1
WIDTH 275
HEIGHT 1
VIEWPOINT 0 0 0 1 0 0 0
POINTS 275
DATA ascii
127.683090209960938 42.5268478393554688 7.99421310424804688 24 1644828666.41749263 0.889797747135162354 -0.45452842116355896 0.0299039967358112335 0.0277417749166488647
130.479934692382812 38.2199211120605469 8.38105678558349609 25 1644828667.11530399 0.897369563579559326 -0.43650481104850769 0.0460673794150352478 -0.0454884953796863556
134.487152099609375 34.6706733703613281 8.45001029968261719 26 1644828668.01916003 0.94221121072769165 -0.330662578344345093 0.0288349445909261703 -0.0454847067594528198
139.082199096679688 31.5312557220458984 8.49836826324462891 27 1644828668.92129707 0.953590214252471924 -0.298605948686599731 0.0118121597915887833 -0.0368877574801445007
143.641845703125 28.2936801910400391 8.59295272827148438 28 1644828669.82100058 0.952148139476776123 -0.302227914333343506 0.026923036202788353 -0.0367068909108638763
147.777801513671875 25.4015979766845703 8.626312255859375 29 1644828670.62174225 0.949931859970092773 -0.311934888362884521 0.00791935902088880539 -0.0162300299853086472
151.849090576171875 22.2408256530761719 8.53775405883789062 30 1644828671.4235816 0.942182302474975586 -0.333932071924209595 -0.00874998234212398529 -0.0265569854527711868
155.76397705078125 18.8346576690673828 8.34656047821044922 31 1644828672.22237062 0.9322701096534729 -0.361149638891220093 -0.00869128573685884476 -0.0191798042505979538
159.508651733398438 15.0471038818359375 8.13189029693603516 32 1644828673.02375484 0.919374227523803711 -0.392813444137573242 -0.0132964793592691422 -0.0164855103939771652
163.014266967773438 11.0056676864624023 7.92174196243286133 33 1644828673.82291555 0.905566394329071045 -0.423528730869293213 -0.012486104853451252 -0.0204216595739126205
166.4307861328125 6.83307075500488281 7.74562692642211914 34 1644828674.62476826 0.899075031280517578 -0.437363803386688232 -0.0104167275130748749 -0.0163847878575325012
169.752960205078125 2.61636686325073242 7.52091741561889648 35 1644828675.42218041 0.904955089092254639 -0.423956543207168579 -0.000583365443162620068 -0.0362883545458316803
173.643157958984375 -1.09836792945861816 7.33826684951782227 36 1644828676.22364497 0.929641902446746826 -0.367425322532653809 -0.00771805969998240471 -0.0265523958951234818
177.580032348632812 -4.6785426139831543 7.16160678863525391 37 1644828677.021873 0.933945953845977783 -0.356408923864364624 0.00463609118014574051 -0.026383575052022934
181.605392456054688 -8.21314620971679688 7.01037168502807617 38 1644828677.82409406 0.932459115982055664 -0.360496431589126587 -0.00311381719075143337 -0.0235081519931554794
185.545455932617188 -11.6921682357788086 6.90313816070556641 39 1644828678.62155223 0.93540191650390625 -0.352633416652679443 0.00905625242739915848 -0.0243081357330083847
189.50262451171875 -15.113835334777832 6.87777090072631836 40 1644828679.42162585 0.938168585300445557 -0.345265775918960571 0.00930363032966852188 -0.0233388859778642654
193.42498779296875 -18.4805679321289062 6.86599969863891602 41 1644828680.22181678 0.937637269496917725 -0.346999377012252808 0.00321989227086305618 -0.0204302277415990829
197.371795654296875 -21.8803958892822266 6.73769283294677734 42 1644828681.02225924 0.935926258563995361 -0.351797342300415039 -0.00579634588211774826 -0.0157197285443544388
201.288467407226562 -25.3672752380371094 6.6323394775390625 43 1644828681.82228327 0.933067500591278076 -0.358505427837371826 -0.00127463822718709707 -0.0292797759175300598
205.124649047851562 -28.8628768920898438 6.57184028625488281 44 1644828682.62140942 0.929661154747009277 -0.367392450571060181 0.00108829268720000982 -0.0274183694273233414
208.884933471679688 -32.4048614501953125 6.56168794631958008 45 1644828683.42169476 0.929490745067596436 -0.367857307195663452 0.00914001185446977615 -0.0253853239119052887
213.069427490234375 -35.3800125122070312 6.54567956924438477 46 1644828684.22218657 0.96164703369140625 -0.272390455007553101 0.0104385633021593094 -0.0304878260940313339
217.568954467773438 -37.7876625061035156 6.55308151245117188 47 1644828685.02192378 0.971464812755584717 -0.23586273193359375 0.00924478378146886826 -0.0232253987342119217
222.177902221679688 -40.0521392822265625 6.55560827255249023 48 1644828685.82435465 0.972889900207519531 -0.230064511299133301 0.0059783589094877243 -0.0228005088865756989
226.787033081054688 -42.2470512390136719 6.56413507461547852 49 1644828686.62362337 0.974247872829437256 -0.224540084600448608 0.00763357523828744888 -0.0190923679620027542
231.387802124023438 -44.4810752868652344 6.55543422698974609 50 1644828687.42533302 0.97219926118850708 -0.234028667211532593 0.0043845614418387413 -0.00632435781881213188
235.565338134765625 -47.379302978515625 6.53942584991455078 51 1644828688.22244167 0.935538709163665771 -0.353116780519485474 -0.00352576631121337414 0.00796465016901493073
238.419097900390625 -51.6093597412109375 6.45633077621459961 52 1644828689.02534866 0.851635098457336426 -0.523966670036315918 -0.0121442414820194244 0.00539926812052726746
239.504913330078125 -56.5747642517089844 6.38611793518066406 53 1644828689.82330728 0.753065228462219238 -0.657886743545532227 -0.00881059002131223679 -0.000393467344110831618
239.750503540039062 -61.72576904296875 6.29757833480834961 54 1644828690.62092209 0.708030998706817627 -0.706038355827331543 -0.013742402195930481 0.0036082821898162365
239.517745971679688 -66.8603515625 6.297943115234375 55 1644828691.42036486 0.688287138938903809 -0.725394785404205322 -0.000282021879684180021 0.00794767681509256363
239.96722412109375 -71.976318359375 6.28507184982299805 56 1644828692.22335768 0.756384015083312988 -0.654123663902282715 -0.00180291500873863697 0.00150636478792876005
241.380706787109375 -76.8835220336914062 6.25013971328735352 57 1644828693.02083707 0.81132817268371582 -0.584524571895599365 -0.00721399625763297081 0.00506101781502366066
243.341293334960938 -81.6173324584960938 6.20802021026611328 58 1644828693.81892943 0.835426628589630127 -0.549492478370666504 -0.00671646744012832642 0.00867681670933961868
245.507965087890625 -86.321197509765625 6.17192316055297852 59 1644828694.61888242 0.842536330223083496 -0.53850477933883667 -0.00977908726781606674 0.00703543471172451973
247.768768310546875 -90.950042724609375 6.15096044540405273 60 1644828695.41831017 0.851318776607513428 -0.524467945098876953 -0.00759295234456658363 0.0114927701652050018
250.184951782226562 -95.50543212890625 6.13844633102416992 61 1644828696.21904969 0.857680141925811768 -0.513827860355377197 -0.00902187544852495193 0.016859542578458786
252.833602905273438 -99.9226760864257812 6.12178230285644531 62 1644828697.01803541 0.876749515533447266 -0.480818599462509155 -0.00603943224996328354 0.00934052374213933945
256.036468505859375 -103.918914794921875 6.13024330139160156 63 1644828697.81888938 0.9082183837890625 -0.4179973304271698 -0.0026644545141607523 0.0202612299472093582
259.748504638671875 -107.454490661621094 6.12113618850708008 64 1644828698.61943102 0.932381510734558105 -0.361340045928955078 -0.00511577585712075233 0.00848077982664108276
263.720947265625 -110.726081848144531 6.10633563995361328 65 1644828699.42075682 0.940362751483917236 -0.340052366256713867 -0.00231985701248049736 0.00876697152853012085
267.833892822265625 -113.718528747558594 6.06244039535522461 66 1644828700.21933436 0.952574968338012695 -0.303976595401763916 -0.00680144829675555229 0.0123645495623350143
272.49835205078125 -116.547920227050781 5.99818229675292969 67 1644828701.11889935 0.962617456912994385 -0.270109593868255615 -0.0108733261004090309 0.0170351807028055191
277.049102783203125 -119.289520263671875 5.9761962890625 68 1644828702.1212337 0.962768673896789551 -0.269726663827896118 -0.00859573017805814743 0.0158138293772935867
281.578369140625 -121.832984924316406 5.96509504318237305 69 1644828703.5209558 0.967190563678741455 -0.253165245056152344 -0.00667059933766722679 0.0201299916952848434
286.16845703125 -124.168746948242188 5.93245840072631836 70 1644828705.12494588 0.976171612739562988 -0.216913729906082153 0.00505417538806796074 -0.00344617757946252823
290.582305908203125 -126.622856140136719 5.88382720947265625 71 1644828706.42078638 0.966111183166503906 -0.257808655500411987 -0.00344533915631473064 -0.0123306950554251671
294.996673583984375 -129.441177368164062 5.6374516487121582 72 1644828707.42020321 0.957421839237213135 -0.286474287509918213 -0.0246304906904697418 -0.0258699003607034683
299.456024169921875 -132.46759033203125 5.19022989273071289 73 1644828708.31986451 0.952252626419067383 -0.302462607622146606 -0.0384316481649875641 -0.0159476399421691895
304.09295654296875 -135.419631958007812 4.70350027084350586 74 1644828709.21955037 0.963287770748138428 -0.26361459493637085 -0.0424074679613113403 -0.0280296802520751953
308.4647216796875 -137.862930297851562 4.27504205703735352 75 1644828710.01951146 0.966008663177490234 -0.254995018243789673 -0.0353433452546596527 -0.0235727559775114059
312.945037841796875 -140.54150390625 3.83717846870422363 76 1644828710.81989646 0.959457874298095703 -0.277963608503341675 -0.0395296774804592133 -0.0247841961681842804
317.2344970703125 -143.660614013671875 3.35996246337890625 77 1644828711.62023497 0.942894101142883301 -0.32901531457901001 -0.0406265519559383392 -0.0323908701539039612
321.20989990234375 -147.488693237304688 2.80315446853637695 78 1644828712.52432251 0.918502271175384521 -0.389776110649108887 -0.0513911023736000061 -0.0422742068767547607
324.425323486328125 -151.465545654296875 2.29105019569396973 79 1644828713.52264667 0.896127164363861084 -0.439598262310028076 -0.0378349423408508301 -0.0477279536426067352
327.509918212890625 -155.674179077148438 1.80799031257629395 80 1644828714.7205894 0.88956528902053833 -0.453616112470626831 -0.030974196270108223 -0.0441203191876411438
330.57830810546875 -159.746109008789062 1.3371269702911377 81 1644828716.22234464 0.893042325973510742 -0.444832980632781982 -0.0363102778792381287 -0.0572765134274959564
333.39495849609375 -164.109375 1.14448297023773193 82 1644828718.1224277 0.869963884353637695 -0.49223056435585022 0.0211252272129058838 -0.0206305813044309616
334.523162841796875 -168.0001220703125 1.13691568374633789 83 1644828719.62171268 0.75129997730255127 -0.659505546092987061 0.0062017231248319149 -0.0237133093178272247
333.955810546875 -169.867599487304688 1.07633697986602783 84 1644828720.21884847 0.612324357032775879 -0.79034721851348877 -0.00353278010152280331 -0.0199413709342479706
332.71087646484375 -171.448440551757812 0.977830111980438232 85 1644828720.72327876 0.457114666700363159 -0.889165103435516357 -0.00785079505294561386 -0.0192361678928136826
329.00921630859375 -174.325027465820312 0.752318501472473145 86 1644828721.72434425 0.294233500957489014 -0.95550161600112915 -0.00732640782371163368 -0.0197390783578157425
324.379547119140625 -176.678512573242188 0.513453066349029541 87 1644828722.61935186 0.209343701601028442 -0.977526009082794189 -0.00532817887142300606 -0.0242842286825180054
319.629852294921875 -178.672515869140625 0.25785711407661438 88 1644828723.42140627 0.206516355276107788 -0.978027164936065674 0.008470902219414711 -0.0272407233715057373
314.803131103515625 -180.906173706054688 -0.0236107166856527328 89 1644828724.22289348 0.213413581252098083 -0.976491749286651611 0.00941601395606994629 -0.0288072377443313599
309.88763427734375 -183.11932373046875 -0.291508316993713379 90 1644828725.02224731 0.207304030656814575 -0.977708041667938232 0.0149322608485817909 -0.029816141352057457
304.911163330078125 -185.29193115234375 -0.551106035709381104 91 1644828725.8172617 0.200986757874488831 -0.979065954685211182 0.0166167225688695908 -0.0275328494608402252
299.8724365234375 -187.401260375976562 -0.782907962799072266 92 1644828726.61767745 0.195351541042327881 -0.98021996021270752 0.0201956089586019516 -0.0244688913226127625
294.8092041015625 -189.455841064453125 -1.01430964469909668 93 1644828727.42197704 0.188091039657592773 -0.981717348098754883 0.0147602371871471405 -0.0251984875649213791
289.75775146484375 -191.384918212890625 -1.26107072830200195 94 1644828728.21884274 0.17608940601348877 -0.983818173408508301 0.0224597305059432983 -0.0242883022874593735
284.61151123046875 -193.217987060546875 -1.43003749847412109 95 1644828729.02298284 0.167348310351371765 -0.985417723655700684 0.0236157849431037903 -0.0197172462940216064
279.555267333984375 -194.97601318359375 -1.49127709865570068 96 1644828729.81943846 0.160269066691398621 -0.986701130867004395 0.0174885615706443787 -0.0207080282270908356
274.530731201171875 -196.712234497070312 -1.64516127109527588 97 1644828730.61714792 0.15604892373085022 -0.987661659717559814 0.00985989347100257874 -0.00871627498418092728
269.435272216796875 -198.42059326171875 -1.80524671077728271 98 1644828731.42138529 0.163165554404258728 -0.986547529697418213 0.0100471451878547668 -4.33403001807164401e-05
264.340850830078125 -200.062713623046875 -1.97445058822631836 99 1644828732.21883464 0.152650386095046997 -0.988122820854187012 0.00808049645274877548 -0.0156813748180866241
259.18084716796875 -201.510482788085938 -2.14830136299133301 100 1644828733.02116179 0.134458169341087341 -0.990694880485534668 0.0133830243721604347 -0.0162951983511447906
254.021636962890625 -202.828598022460938 -2.33748316764831543 101 1644828733.81624055 0.121042110025882721 -0.992429494857788086 0.010082063265144825 -0.018190477043390274
248.773696899414062 -204.06573486328125 -2.5122227668762207 102 1644828734.61803865 0.115019112825393677 -0.993166565895080566 0.0107318805530667305 -0.0166015364229679108
243.538894653320312 -205.28948974609375 -2.69669532775878906 103 1644828735.41624832 0.112985000014305115 -0.993295013904571533 0.0112279467284679413 -0.0217561889439821243
238.314987182617188 -206.585311889648438 -2.86508965492248535 104 1644828736.21628666 0.118177980184555054 -0.992879986763000488 0.00672979606315493584 -0.0133416326716542244
233.11077880859375 -207.894485473632812 -2.99821639060974121 105 1644828737.01565647 0.124320521950721741 -0.991987645626068115 0.0128935342654585838 -0.0184028670191764832
227.921829223632812 -209.229949951171875 -3.14083337783813477 106 1644828737.81507778 0.12549138069152832 -0.991832077503204346 0.0142485164105892181 -0.0178328156471252441
222.701614379882812 -210.458343505859375 -3.31300973892211914 107 1644828738.61482215 0.10567040741443634 -0.994195520877838135 0.00956076569855213165 -0.0178227294236421585
217.433929443359375 -211.510665893554688 -3.49587202072143555 108 1644828739.41549325 0.0860246568918228149 -0.996093392372131348 0.00658150343224406242 -0.0188268627971410751
212.154220581054688 -212.439254760742188 -3.65561103820800781 109 1644828740.21573615 0.0837343260645866394 -0.996384024620056152 -0.00133054447360336781 -0.0143391797319054604
206.838958740234375 -213.1361083984375 -3.81675267219543457 110 1644828741.01584005 0.0590251274406909943 -0.998096108436584473 -0.00220590131357312202 -0.0177562963217496872
201.536529541015625 -213.577117919921875 -3.97316861152648926 111 1644828741.81417322 0.0479693226516246796 -0.998785197734832764 0.00782762188464403152 -0.00811344943940639496
196.175491333007812 -214.04541015625 -4.13396120071411133 112 1644828742.61530232 0.0432876944541931152 -0.998776793479919434 0.0124934567138552666 -0.0203718002885580063
190.853668212890625 -214.533889770507812 -4.28734970092773438 113 1644828743.41455054 0.0426636636257171631 -0.998889923095703125 0.0123704569414258003 -0.0156739801168441772
185.522964477539062 -215.03118896484375 -4.44794845581054688 114 1644828744.21468425 0.0442884601652622223 -0.998945176601409912 0.00664274441078305244 -0.0101460069417953491
180.16839599609375 -215.497940063476562 -4.62557601928710938 115 1644828745.01415658 0.0416893996298313141 -0.998945713043212891 0.0017534762155264616 -0.0191411711275577545
174.799591064453125 -215.882888793945312 -4.80702304840087891 116 1644828745.81390691 0.0266642645001411438 -0.999431729316711426 0.00316987535916268826 -0.0203763283789157867
169.427139282226562 -216.178558349609375 -5.01791524887084961 117 1644828746.61572838 0.0159594081342220306 -0.999801814556121826 -0.00443559139966964722 -0.0110434731468558311
164.087051391601562 -216.319900512695312 -5.22647428512573242 118 1644828747.41512275 0.00109829113353043795 -0.999976098537445068 0.00414162548258900642 -0.00542694423347711563
158.809066772460938 -216.285858154296875 -5.10594511032104492 119 1644828748.21524215 0.000339216639986261725 -0.999961197376251221 0.00440276693552732468 -0.00762048223987221718
153.569381713867188 -216.339065551757812 -5.1697540283203125 120 1644828749.01467872 0.00377596542239189148 -0.999979734420776367 -0.000657144468277692795 -0.00508281122893095016
148.306900024414062 -216.439102172851562 -5.24916601181030273 121 1644828749.81648993 0.00967584550380706787 -0.999927818775177002 -0.00415606284514069557 -0.00578734744340181351
143.104995727539062 -216.590362548828125 -5.26473379135131836 122 1644828750.61513019 0.015721568837761879 -0.999859511852264404 -0.00512390490621328354 -0.00275354203768074512
137.932968139648438 -216.752334594726562 -5.28941869735717773 123 1644828751.41485953 0.0121950432658195496 -0.999917089939117432 0.00136498489882797003 -0.00390851870179176331
132.749557495117188 -216.99444580078125 -5.32924079895019531 124 1644828752.21475244 0.0169478189200162888 -0.999844849109649658 -0.000471286068204790354 -0.00477301795035600662
127.607826232910156 -217.284591674804688 -5.33317470550537109 125 1644828753.01734734 0.0265582054853439331 -0.999622881412506104 -0.00697222165763378143 -0.000342522835126146674
122.498237609863281 -217.548446655273438 -5.33782720565795898 126 1644828753.81479478 0.0205666273832321167 -0.999769330024719238 -0.00616539223119616508 0.000495555519592016935
117.361053466796875 -217.788192749023438 -5.34058570861816406 127 1644828754.61505651 0.0194736756384372711 -0.999792814254760742 -0.00588909955695271492 0.000642873113974928856
112.253646850585938 -217.997482299804688 -5.32611227035522461 128 1644828755.41560006 0.0135293183848261833 -0.999893248081207275 -0.00334764504805207253 0.0043916609138250351
107.121162414550781 -218.236343383789062 -5.34101629257202148 129 1644828756.21632934 0.022037111222743988 -0.999716103076934814 -0.0089725768193602562 -0.00126197421923279762
102.005966186523438 -218.564407348632812 -5.34020662307739258 130 1644828757.01626921 0.0295643601566553116 -0.999414026737213135 -0.0166141781955957413 -0.00463700853288173676
96.905120849609375 -218.96160888671875 -5.33272314071655273 131 1644828757.81692815 0.0357016697525978088 -0.999143660068511963 -0.019769689068198204 0.00682247523218393326
91.8088531494140625 -219.306472778320312 -5.30868101119995117 132 1644828758.61555743 0.0194821618497371674 -0.999551713466644287 -0.0226696133613586426 0.00170946470461785793
86.7232131958007812 -219.448272705078125 -5.29088258743286133 133 1644828759.41584229 0.00831203814595937729 -0.999754369258880615 -0.0203762296587228775 0.00264141429215669632
81.5857009887695312 -219.554306030273438 -5.31702709197998047 134 1644828760.21766829 0.00695971166715025902 -0.999789714813232422 -0.0189105384051799774 -0.00379912694916129112
76.4861373901367188 -219.619735717773438 -5.30945348739624023 135 1644828761.0175221 -0.000176228451891802251 -0.999828934669494629 -0.0164639260619878769 0.0084264436736702919
71.3716049194335938 -219.587432861328125 -5.27868032455444336 136 1644828761.81700063 -0.00563924945890903473 -0.999962151050567627 -0.00598744256421923637 0.00283792195841670036
66.285736083984375 -219.498855590820312 -5.2306370735168457 137 1644828762.61942506 -0.0100610656663775444 -0.999924063682556152 0.000929209054447710514 0.0070553729310631752
61.2272186279296875 -219.299026489257812 -5.1831059455871582 138 1644828763.41756845 -0.0229953490197658539 -0.999664783477783203 0.00979756098240613937 0.00674804719164967537
56.1429977416992188 -218.973541259765625 -5.15788841247558594 139 1644828764.21872759 -0.0380894169211387634 -0.999245166778564453 0.00763761065900325775 7.56721419747918844e-06
51.0798416137695312 -218.493438720703125 -5.1567988395690918 140 1644828765.01616216 -0.056985165923833847 -0.998341619968414307 0.00806631706655025482 0.00127019803039729595
46.0256805419921875 -217.648910522460938 -5.14984035491943359 141 1644828765.81796384 -0.104080960154533386 -0.994542062282562256 0.00675500137731432915 0.00274899066425859928
41.1356697082519531 -216.111679077148438 -5.17055130004882812 142 1644828766.6189189 -0.171727314591407776 -0.985070943832397461 0.0119768651202321053 0.0012444410240277648
36.4455604553222656 -214.020660400390625 -5.19092750549316406 143 1644828767.41761899 -0.222749665379524231 -0.97481834888458252 0.0105698136612772942 -0.000231392026762478054
31.9585914611816406 -211.49761962890625 -5.20468330383300781 144 1644828768.21865773 -0.265011340379714966 -0.964185655117034912 0.0103999990969896317 0.00261481013149023056
27.6892929077148438 -208.631011962890625 -5.23082733154296875 145 1644828769.02011633 -0.306765824556350708 -0.951750516891479492 0.00800690893083810806 0.0012344729620963335
23.6681156158447266 -205.510025024414062 -5.19958305358886719 146 1644828769.82149673 -0.335036605596542358 -0.942004501819610596 -0.000217295615584589541 0.0194420833140611649
19.8221397399902344 -202.207260131835938 -5.23673200607299805 147 1644828770.62113333 -0.362187415361404419 -0.932007372379302979 0.000998122850432991982 0.0134719526395201683
16.0846347808837891 -198.776138305664062 -5.23227739334106445 148 1644828771.41792083 -0.362698525190353394 -0.931806683540344238 0.00108548847492784262 0.0135990772396326065
12.3663063049316406 -195.411148071289062 -4.99377536773681641 149 1644828772.21973133 -0.359160453081130981 -0.932932436466217041 -0.0172249116003513336 0.0185497421771287918
8.26527023315429688 -191.606689453125 -4.73778295516967773 150 1644828773.12083578 -0.368995755910873413 -0.92939072847366333 -0.00212646997533738613 -0.00839545857161283493
4.33466720581054688 -187.81878662109375 -4.58218288421630859 151 1644828774.01801133 -0.376445114612579346 -0.925948262214660645 -0.0167136751115322113 0.0250897593796253204
0.493808358907699585 -183.958908081054688 -4.28856420516967773 152 1644828774.91865659 -0.383167564868927002 -0.923131883144378662 -0.00766661250963807106 0.0308443307876586914
-3.495361328125 -180.269989013671875 -4.03750085830688477 153 1644828775.81965351 -0.357264190912246704 -0.933579504489898682 -0.0113871954381465912 0.0257282853126525879
-7.55904960632324219 -176.7935791015625 -3.70703125 154 1644828776.7194562 -0.354271024465560913 -0.934259533882141113 -0.022627316415309906 0.0337518267333507538
-11.5521326065063477 -173.200515747070312 -3.41148018836975098 155 1644828777.61980677 -0.366686433553695679 -0.929655373096466064 -0.0238174814730882645 0.0267330184578895569
-15.4197120666503906 -169.53765869140625 -3.05968594551086426 156 1644828778.52001047 -0.378767192363739014 -0.924704313278198242 -0.0246829856187105179 0.0291215367615222931
-19.2013950347900391 -165.876846313476562 -2.63509559631347656 157 1644828779.41997457 -0.376106053590774536 -0.925625026226043701 -0.026865985244512558 0.0322610549628734589
-22.9881706237792969 -162.278533935546875 -2.2628016471862793 158 1644828780.31817365 -0.375110507011413574 -0.926070928573608398 -0.0302457623183727264 0.0277477782219648361
-26.8027667999267578 -158.713699340820312 -1.9250938892364502 159 1644828781.21948767 -0.370539933443069458 -0.927616655826568604 -0.0377088971436023712 0.0283827595412731171
-30.5464649200439453 -155.225936889648438 -1.43427801132202148 160 1644828782.11880326 -0.365869194269180298 -0.928850412368774414 -0.0344532318413257599 0.0467929281294345856
-34.2951393127441406 -151.829025268554688 -0.98165583610534668 161 1644828783.01997018 -0.36233896017074585 -0.93059074878692627 -0.0299180131405591965 0.0426173582673072815
-38.2861289978027344 -148.078521728515625 -0.503235280513763428 162 1644828784.01866508 -0.374557167291641235 -0.926146805286407471 -0.019914332777261734 0.039527256041765213
-42.0464973449707031 -144.270706176757812 -0.0333618372678756714 163 1644828785.01975799 -0.392296403646469116 -0.918627560138702393 -0.0153747517615556717 0.0446151085197925568
-45.57000732421875 -140.363525390625 0.376149535179138184 164 1644828786.01726556 -0.411185562610626221 -0.910349845886230469 -0.0139241665601730347 0.0446735098958015442
-48.9756355285644531 -136.348129272460938 0.8064919114112854 165 1644828787.01884818 -0.425886213779449463 -0.903720498085021973 -0.0129132382571697235 0.041755039244890213
-52.3491668701171875 -132.247573852539062 1.20008993148803711 166 1644828788.01447535 -0.433908671140670776 -0.899930059909820557 -0.0194837693125009537 0.0383338145911693573
-55.6423187255859375 -127.948295593261719 1.57678365707397461 167 1644828789.01395559 -0.444786727428436279 -0.894719600677490234 -0.00497171143069863319 0.0402098596096038818
-58.7808494567871094 -123.474281311035156 2.01584410667419434 168 1644828790.01617193 -0.477624475955963135 -0.877377569675445557 -0.00512660667300224304 0.0453563891351222992
-61.150390625 -118.583358764648438 2.46938610076904297 169 1644828791.01325083 -0.551847159862518311 -0.83239293098449707 -0.0101405428722500801 0.0498388670384883881
-62.8373031616210938 -113.396194458007812 2.93145871162414551 170 1644828792.01618409 -0.599935948848724365 -0.798337697982788086 -0.0103338863700628281 0.0512539185583591461
-64.1252212524414062 -108.058883666992188 3.35329365730285645 171 1644828793.01766491 -0.628542602062225342 -0.776594817638397217 -0.0135113494470715523 0.0406470783054828644
-65.1611709594726562 -102.63507080078125 3.72291374206542969 172 1644828794.01339555 -0.646904885768890381 -0.76149982213973999 -0.0215065833181142807 0.0341986343264579773
-65.7157745361328125 -97.63385009765625 4.07378005981445312 173 1644828794.91343975 -0.681162893772125244 -0.730918288230895996 -0.0252035800367593765 0.0337695106863975525
-65.824310302734375 -92.547027587890625 4.39124917984008789 174 1644828795.81809664 -0.709688901901245117 -0.70336538553237915 -0.018908107653260231 0.0355135612189769745
-65.5720901489257812 -87.0183792114257812 5.0135655403137207 175 1644828796.81630015 -0.728446722030639648 -0.684236824512481689 -0.0168814696371555328 0.0300063639879226685
-65.1655426025390625 -81.8430633544921875 5.37681484222412109 176 1644828797.91753602 -0.731243371963500977 -0.680791258811950684 -0.0225986912846565247 0.0359959639608860016
-64.7281341552734375 -76.6302871704101562 5.80233478546142578 177 1644828799.21471477 -0.735949814319610596 -0.675965428352355957 -0.0203260667622089386 0.0321790836751461029
-64.3082809448242188 -71.3693771362304688 6.20076322555541992 178 1644828800.91531634 -0.734838545322418213 -0.677065610885620117 -0.0270158201456069946 0.0294036902487277985
-63.8858909606933594 -66.6789474487304688 6.55705976486206055 179 1644828802.91584778 -0.745029628276824951 -0.665871977806091309 -0.0245666112750768661 0.0306898467242717743
-62.518585205078125 -63.7978439331054688 6.80379581451416016 180 1644828804.31534934 -0.85281062126159668 -0.520135343074798584 -0.0211694911122322083 0.041533883661031723
-59.6614532470703125 -60.8617210388183594 7.0437626838684082 181 1644828805.51588893 -0.93181312084197998 -0.360348343849182129 -0.00912056863307952881 0.0423105880618095398
-54.9387626647949219 -58.3233871459960938 7.1727442741394043 182 1644828806.81663728 -0.974328815937042236 -0.218579113483428955 -0.00819298718124628067 0.0532858818769454956
-49.8442726135253906 -56.7750091552734375 7.36670827865600586 183 1644828807.9171083 -0.993625104427337646 -0.107462801039218903 -0.0190082341432571411 0.0282761901617050171
-44.5462684631347656 -56.3739547729492188 7.30804920196533203 184 1644828809.01656866 -0.999757945537567139 -0.00630677212029695511 0.0141082508489489555 0.0156613700091838837
-39.5181922912597656 -56.8152923583984375 7.10943698883056641 185 1644828810.2186327 -0.996207654476165771 0.064510837197303772 0.0572806820273399353 0.0112963346764445305
-34.3488235473632812 -57.0879592895507812 7.01037025451660156 186 1644828811.81924391 -0.999901354312896729 0.00936666876077651978 0.00873684417456388474 0.00576571933925151825
-30.4863128662109375 -53.8345756530761719 6.80774831771850586 187 1644828813.2213366 -0.860443830490112305 -0.507555067539215088 0.0253201406449079514 0.0371911637485027313
-29.4939689636230469 -48.7747993469238281 6.89088153839111328 188 1644828814.31891656 -0.751081168651580811 -0.658141374588012695 0.0158219411969184875 0.0497657023370265961
-29.5341339111328125 -43.5736656188964844 7.13977384567260742 189 1644828815.3169353 -0.700916290283203125 -0.712457716464996338 -0.0057222144678235054 0.032978694885969162
-29.7140407562255859 -38.1408462524414062 7.4551854133605957 190 1644828816.31486392 -0.695003807544708252 -0.717587172985076904 -0.00543648004531860352 0.044819224625825882
-29.8294200897216797 -33.0296096801757812 7.72975444793701172 191 1644828817.2178638 -0.701444745063781738 -0.711667358875274658 0.00113683391828089952 0.0387763716280460358
-29.8562088012695312 -27.79754638671875 8.03135204315185547 192 1644828818.11479282 -0.695189237594604492 -0.717441320419311523 -0.00174516381230205297 0.0445739142596721649
-30.6644001007080078 -22.4822216033935547 8.29521751403808594 193 1644828819.01568913 -0.647019565105438232 -0.762111425399780273 -0.0177709423005580902 0.015363229438662529
-31.9404621124267578 -17.2157840728759766 8.47198963165283203 194 1644828819.91556048 -0.613974928855895996 -0.7891349196434021 -0.0172841083258390427 0.00146312534343451262
-33.4361076354980469 -12.2274246215820312 8.60791301727294922 195 1644828820.81453204 -0.586488723754882812 -0.809832453727722168 -0.0134159699082374573 0.00472986837849020958
-34.9739913940429688 -7.04152393341064453 8.73732376098632812 196 1644828821.81530023 -0.634084343910217285 -0.772674202919006348 -0.0291509628295898438 -0.00786355976015329361
-33.666351318359375 -1.97089624404907227 8.78214359283447266 197 1644828822.81694889 -0.856681168079376221 -0.514299929141998291 -0.0114822462201118469 -0.0382240228354930878
-31.8179740905761719 -0.236348181962966919 8.7892608642578125 198 1644828823.31319189 -0.935265302658081055 -0.35249638557434082 -0.00575141282752156258 -0.0314961709082126617
-29.4476470947265625 0.734649837017059326 8.77034950256347656 199 1644828823.81362939 -0.985652685165405273 -0.160161256790161133 0.0114215826615691185 -0.0520258136093616486
-27.0203514099121094 0.588631153106689453 8.75470447540283203 200 1644828824.31438565 -0.99920356273651123 0.0269276779145002365 0.0155608896166086197 -0.024999057874083519
-24.7517375946044922 -0.390410155057907104 8.68042373657226562 201 1644828824.81438398 -0.977772891521453857 0.207575291395187378 0.025788675993680954 -0.0144091155380010605
-22.8639316558837891 -2.0982670783996582 8.60739517211914062 202 1644828825.31432629 -0.916117191314697266 0.396310746669769287 0.0457372181117534637 -0.0396880060434341431
-21.7662906646728516 -4.78206443786621094 8.61672687530517578 203 1644828825.91399431 -0.823100030422210693 0.567186892032623291 0.0179966725409030914 -0.0219425112009048462
-21.5410289764404297 -7.83347368240356445 8.62759971618652344 204 1644828826.51367211 -0.71096193790435791 0.702653348445892334 0.0228856652975082397 -0.0169587954878807068
-22.4905433654785156 -10.846531867980957 8.58817768096923828 205 1644828827.11519146 -0.552349746227264404 0.832466483116149902 0.0433951802551746368 -0.00511255534365773201
-24.5111885070800781 -13.0546045303344727 8.59206485748291016 206 1644828827.7142086 -0.371573776006698608 0.92746812105178833 0.0402608141303062439 -0.0107206897810101509
-26.7316188812255859 -14.0653343200683594 8.59481525421142578 207 1644828828.21388054 -0.198982462286949158 0.979216277599334717 0.0390753746032714844 0.00381394429132342339
-29.0493507385253906 -14.1864719390869141 8.61736869812011719 208 1644828828.71309781 -0.0198815278708934784 0.999222815036773682 0.0335818678140640259 0.00554305082187056541
-31.2893466949462891 -13.5020465850830078 8.59181404113769531 209 1644828829.21509504 0.163923487067222595 0.98536151647567749 0.0414371192455291748 0.0217886008322238922
-33.0112380981445312 -12.102752685546875 8.6188507080078125 210 1644828829.71324992 0.337944656610488892 0.940226912498474121 0.0381402373313903809 0.0176653061062097549
-33.3518180847167969 -3.15258145332336426 8.80310726165771484 211 1644828831.81250525 0.853281557559967041 0.520609140396118164 0.013807736337184906 0.026193663477897644
-24.5520763397216797 -0.691233634948730469 8.67903709411621094 212 1644828833.8154366 0.990934133529663086 -0.131697580218315125 -0.0206256508827209473 0.0167311821132898331
-16.6493473052978516 -6.2288060188293457 8.52612018585205078 213 1644828835.51483083 0.963725388050079346 -0.266786515712738037 -0.00067006843164563179 -0.00760561134666204453
-11.9102563858032227 -7.86312007904052734 8.47442817687988281 214 1644828836.31396031 0.990897476673126221 -0.133872091770172119 -0.00358271901495754719 -0.0136959748342633247
-6.84701204299926758 -8.82801342010498047 8.31258678436279297 215 1644828837.11456561 0.996375977993011475 -0.0838202685117721558 -0.0144369360059499741 -0.000768873549532145262
-1.54387009143829346 -9.35861682891845703 8.00124740600585938 216 1644828837.91365933 0.998530745506286621 -0.0397428832948207855 -0.0360109098255634308 0.00774792162701487541
3.95547652244567871 -9.25830936431884766 7.52659320831298828 217 1644828838.71595526 0.998516619205474854 0.0330689325928688049 -0.0432554744184017181 -1.75042132468661293e-05
9.51088523864746094 -8.10933876037597656 7.0537571907043457 218 1644828839.51508832 0.993242740631103516 0.108376368880271912 -0.0373279005289077759 0.0181662794202566147
14.42437744140625 -6.81126928329467773 6.74463844299316406 219 1644828840.21520042 0.990131020545959473 0.13832169771194458 -0.0209725107997655869 0.00823681522160768509
19.1281242370605469 -4.94995546340942383 6.54448986053466797 220 1644828840.91491079 0.974533319473266602 0.223246857523918152 -0.0190979652106761932 -0.00899751577526330948
23.735748291015625 -1.71411514282226562 6.48340368270874023 221 1644828841.7139225 0.94237053394317627 0.334231019020080566 -0.00827535614371299744 -0.0126047506928443909
27.6899452209472656 1.99633526802062988 6.48112201690673828 222 1644828842.51550341 0.927219510078430176 0.374497443437576294 -0.00277617620304226875 -0.00281877024099230766
31.3615627288818359 5.7462153434753418 6.49701833724975586 223 1644828843.31528115 0.920656323432922363 0.390337646007537842 -0.00127421098295599222 -0.00518070999532938004
34.9618453979492188 9.47735595703125 6.49872636795043945 224 1644828844.11704993 0.921628475189208984 0.387951254844665527 -0.00479130819439888 -0.00847577862441539764
38.5275650024414062 13.152618408203125 6.54198598861694336 225 1644828844.91559935 0.921573162078857422 0.387904584407806396 -0.0030425582081079483 -0.0149566922336816788
42.0539283752441406 16.8699798583984375 6.56524658203125 226 1644828845.71673226 0.915567219257354736 0.401784330606460571 -0.00418596109375357628 -0.0169856511056423187
45.4174766540527344 20.7408657073974609 6.62159204483032227 227 1644828846.51817799 0.9130973219871521 0.407655775547027588 -0.00782977696508169174 -0.00295094843022525311
49.1733474731445312 24.2018985748291016 6.58590602874755859 228 1644828847.31954241 0.936464846134185791 0.350478887557983398 -0.00570579292252659798 -0.0128692463040351868
52.9423370361328125 27.6268081665039062 6.60946035385131836 229 1644828848.1182735 0.934969604015350342 0.354585826396942139 0.00816227681934833527 -0.00583686353638768196
56.6212043762207031 31.1298141479492188 6.71243047714233398 230 1644828848.91844583 0.927992880344390869 0.372272282838821411 0.0148888565599918365 -0.0045668301172554493
60.5558013916015625 35.1069602966308594 6.90921258926391602 231 1644828849.81832647 0.920630037784576416 0.390025228261947632 0.0160293802618980408 -0.00798432528972625732
64.321319580078125 39.1616744995117188 7.09714365005493164 232 1644828850.71644521 0.916381478309631348 0.399828791618347168 0.0171904265880584717 -0.00929747708141803741
68.05908203125 43.2870864868164062 7.26424789428710938 233 1644828851.61770892 0.908237636089324951 0.418131917715072632 0.00514826783910393715 -0.0156064759939908981
70.50506591796875 48.1782798767089844 7.44013118743896484 234 1644828852.51929688 0.813971877098083496 0.580379307270050049 0.00610953802242875099 -0.0239236019551753998
70.8972625732421875 53.6306114196777344 7.56376838684082031 235 1644828853.41657495 0.711452245712280273 0.702635824680328369 0.00432723946869373322 -0.0109503855928778648
71.6052017211914062 59.07861328125 7.67764568328857422 236 1644828854.31309819 0.79632866382598877 0.604580163955688477 0.0167743675410747528 0.00787711050361394882
74.5934219360351562 63.7467422485351562 7.72999191284179688 237 1644828855.21536279 0.899556100368499756 0.43667978048324585 0.00527692493051290512 -0.00903905555605888367
78.1319580078125 67.3199844360351562 7.71510219573974609 238 1644828856.01452708 0.931614160537719727 0.3634185791015625 -0.00184923294000327587 -0.00431295158341526985
82.0223617553710938 70.5853729248046875 7.73774194717407227 239 1644828856.81724215 0.940704524517059326 0.339113563299179077 0.00212051789276301861 -0.00851444154977798462
86.3591079711914062 73.8752365112304688 7.74157524108886719 240 1644828857.71968007 0.960714399814605713 0.276512444019317627 -0.0106955030933022499 0.0213155914098024368
91.2353363037109375 75.1461029052734375 7.76676368713378906 241 1644828858.61613894 0.999162673950195312 0.0216882470995187759 -0.0108540588989853859 0.0329516902565956116
94.3636245727539062 74.156585693359375 7.75048589706420898 242 1644828859.21869326 0.981779992580413818 -0.188624113798141479 -0.0166661422699689865 0.0158506762236356735
97.3521957397460938 71.76043701171875 7.71555280685424805 243 1644828859.91414785 0.932059884071350098 -0.362004131078720093 -0.00553613528609275818 0.0136663094162940979
99.4583511352539062 68.19659423828125 7.68943357467651367 244 1644828860.61980391 0.849028944969177246 -0.528211534023284912 -0.00168329791631549597 -0.0118175214156508446
101.125114440917969 62.8952598571777344 7.60940074920654297 245 1644828861.51322651 0.800349593162536621 -0.599172472953796387 0.00885087158530950546 -0.018827361986041069
102.986175537109375 58.222259521484375 7.64244508743286133 246 1644828862.31667662 0.84775233268737793 -0.529194414615631104 0.0218097176402807236 -0.0281706862151622772
106.180564880371094 54.3132247924804688 7.6268310546875 247 1644828863.11297345 0.916198015213012695 -0.399660557508468628 0.00712350150570273399 -0.0283167194575071335
109.839118957519531 50.8350410461425781 7.63353252410888672 248 1644828863.91305852 0.925413608551025391 -0.378718942403793335 0.00528268469497561455 -0.0123961577191948891
113.413986206054688 47.2579002380371094 7.62815237045288086 249 1644828864.71076894 0.926704704761505127 -0.37498137354850769 0.011493070051074028 -0.0218008160591125488
117.709136962890625 44.6042938232421875 7.64987421035766602 250 1644828865.51176882 0.974696993827819824 -0.22066904604434967 0.00929539650678634644 -0.0344179533421993256
128.91290283203125 38.88238525390625 8.25970745086669922 251 1644828867.61065984 0.932517528533935547 -0.356090188026428223 0.0599515549838542938 0.00408234447240829468
132.067825317382812 33.0795326232910156 8.21944618225097656 252 1644828868.71135759 0.79565960168838501 -0.604949533939361572 0.00982385408133268356 -0.0294161662459373474
132.071304321289062 29.3352088928222656 8.05942440032958984 253 1644828869.31134224 0.66470789909362793 -0.746360123157501221 -0.0155365914106369019 -0.029471931979060173
130.683013916015625 25.8192672729492188 7.7775721549987793 254 1644828869.91043472 0.523246586322784424 -0.850479364395141602 -0.0410608649253845215 -0.0348115898668766022
127.752479553222656 21.5086002349853516 7.38706398010253906 255 1644828870.71384025 0.451348155736923218 -0.891432285308837891 -0.0305307246744632721 -0.0264808479696512222
124.094314575195312 17.4261512756347656 6.95349502563476562 256 1644828871.51248956 0.38933563232421875 -0.920189738273620605 -0.0294006075710058212 -0.0283592063933610916
120.216697692871094 13.3725557327270508 6.54971981048583984 257 1644828872.31138706 0.396136939525604248 -0.917326807975769043 -0.0199834797531366348 -0.0344635695219039917
116.793380737304688 9.70172595977783203 6.1950678825378418 258 1644828873.01191497 0.395170539617538452 -0.917661666870117188 -0.0191281326115131378 -0.0370323508977890015
113.264823913574219 6.01831579208374023 5.80239629745483398 259 1644828873.71089959 0.381885170936584473 -0.9230995774269104 -0.0255042314529418945 -0.0374215170741081238
109.554420471191406 2.36635327339172363 5.41109561920166016 260 1644828874.41483068 0.370905697345733643 -0.927600443363189697 -0.0321650095283985138 -0.0308515559881925583
105.734039306640625 -1.19533658027648926 5.04336309432983398 261 1644828875.11093879 0.360952019691467285 -0.931683123111724854 -0.0296894721686840057 -0.028261406347155571
101.800331115722656 -4.78528308868408203 4.69104766845703125 262 1644828875.81083584 0.358128786087036133 -0.932910621166229248 -0.0260627735406160355 -0.02724471315741539
97.85498046875 -8.40803432464599609 4.38138246536254883 263 1644828876.51244426 0.360443532466888428 -0.932176947593688965 -0.0223341099917888641 -0.0250547919422388077
93.9492111206054688 -12.0854148864746094 4.07981443405151367 264 1644828877.21192551 0.369880825281143188 -0.928607583045959473 -0.0192028582096099854 -0.0225248709321022034
90.0818557739257812 -15.8006715774536133 3.78565049171447754 265 1644828877.9117434 0.374537438154220581 -0.926773369312286377 -0.0158687140792608261 -0.0236846655607223511
86.236419677734375 -19.5217914581298828 3.48211431503295898 266 1644828878.61231804 0.376197099685668945 -0.926005125045776367 -0.0129478713497519493 -0.028681538999080658
82.3714523315429688 -23.2836551666259766 3.12828564643859863 267 1644828879.31177354 0.375080972909927368 -0.926167726516723633 -0.0143311833962798119 -0.0363619513809680939
78.5735931396484375 -27.0739212036132812 2.84856605529785156 268 1644828880.0118978 0.377055138349533081 -0.925885260105133057 -0.0141295874491333961 -0.0191374942660331726
74.8340988159179688 -30.8933563232421875 2.6672971248626709 269 1644828880.71066737 0.383303344249725342 -0.923303544521331787 -0.0191370490938425064 -0.01493026502430439
71.1941986083984375 -34.6970291137695312 2.4926607608795166 270 1644828881.41088963 0.387241482734680176 -0.921362578868865967 -0.0300976336002349854 -0.0151376612484455109
67.6104049682617188 -38.3900642395019531 2.32951068878173828 271 1644828882.11099863 0.379825085401535034 -0.924448251724243164 -0.0317836292088031769 -0.010867806151509285
63.9368515014648438 -41.8369827270507812 2.23569273948669434 272 1644828882.8116374 0.361730456352233887 -0.932080507278442383 -0.019327554851770401 -0.0018492183880880475
59.6298065185546875 -45.3964271545410156 2.20762467384338379 273 1644828883.61141992 0.327259153127670288 -0.944893479347229004 -0.0086023770272731781 -0.00193986413069069386
55.2215805053710938 -48.4395332336425781 2.23753261566162109 274 1644828884.41163993 0.284683257341384888 -0.958617269992828369 0.00260308431461453438 0.0012428725603967905
50.72625732421875 -51.0463485717773438 2.29092741012573242 275 1644828885.21324968 0.248474568128585815 -0.968597948551177979 0.00333903008140623569 0.00820311065763235092
46.172149658203125 -53.3338699340820312 2.38397622108459473 276 1644828886.01104116 0.219317108392715454 -0.97556835412979126 0.00856474693864583969 0.00964356400072574615
41.519561767578125 -55.2960281372070312 2.53074884414672852 277 1644828886.81222296 0.183631524443626404 -0.982884585857391357 0.00662709865719079971 0.0131706548854708672
36.2007522583007812 -56.9547767639160156 2.7444612979888916 278 1644828887.71265769 0.134160026907920837 -0.99077451229095459 0.00486172037199139595 0.0185277443379163742
30.8286304473876953 -58.1251373291015625 2.99460697174072266 279 1644828888.61164141 0.0944467112421989441 -0.995234489440917969 0.00290386262349784374 0.0240767095237970352
25.4216861724853516 -58.8350296020507812 3.27702760696411133 280 1644828889.51246405 0.0511247217655181885 -0.998321712017059326 0.00500711565837264061 0.0267387833446264267
20.0238685607910156 -59.0983352661132812 3.59678459167480469 281 1644828890.4127357 0.00859462562948465347 -0.999523282051086426 1.86014694918412715e-05 0.0296535361558198929
14.6855936050415039 -59.0627403259277344 3.96374058723449707 282 1644828891.31303787 -0.0018293868051841855 -0.999398529529571533 0.00280241086147725582 0.0345164090394973755
9.36431884765625 -59.2087631225585938 4.30176115036010742 283 1644828892.21498799 0.0114019205793738365 -0.999489426612854004 -4.75501328764948994e-05 0.0298481173813343048
4.06018686294555664 -59.3892250061035156 4.62684106826782227 284 1644828893.1142683 0.0134591152891516685 -0.999375820159912109 0.00100289017427712679 0.0326466895639896393
-1.16073369979858398 -59.4712257385253906 4.96773242950439453 285 1644828894.01552176 0.000886544701643288136 -0.999447464942932129 0.00229745102114975452 0.0331458039581775665
-6.67639875411987305 -59.2417945861816406 5.35203266143798828 286 1644828895.01377487 -0.0330728217959403992 -0.998756051063537598 0.00381852756254374981 0.0371212325990200043
-11.7283086776733398 -58.6838722229003906 5.67466497421264648 287 1644828895.91633677 -0.0676140263676643372 -0.997007846832275391 0.00487747788429260254 0.037146691232919693
-16.8187465667724609 -57.7532806396484375 6.0069122314453125 288 1644828896.81717467 -0.112966626882553101 -0.99315941333770752 -0.00261259987019002438 0.0294289570301771164
-21.7591419219970703 -55.9121055603027344 6.30615520477294922 289 1644828897.71767664 -0.205802485346794128 -0.978137433528900146 0.00873583089560270309 0.0285687148571014404
-27.5311393737792969 -51.8021812438964844 6.65294122695922852 290 1644828898.9143815 -0.380974382162094116 -0.924027621746063232 0.0069208415225148201 0.0313613079488277435
-29.6779232025146484 -48.288177490234375 6.93195390701293945 291 1644828899.61660242 -0.542371988296508789 -0.839433252811431885 -0.0158720724284648895 0.0305375698953866959
-29.7127246856689453 -36.0642547607421875 7.57503461837768555 292 1644828901.71341038 -0.749107062816619873 -0.661285638809204102 0.000485632132040336728 0.0392387807369232178
-27.5825786590576172 -24.2130832672119141 8.16656208038330078 293 1644828903.71472073 -0.783673942089080811 -0.619012534618377686 -0.00723213423043489456 0.0512475073337554932
-26.0381507873535156 -19.0254039764404297 8.46794986724853516 294 1644828904.61434913 -0.828982770442962646 -0.558892011642456055 -0.0174145027995109558 0.0111391609534621239
-21.9785308837890625 -12.9440402984619141 8.55644702911376953 295 1644828905.81437898 -0.917335689067840576 -0.397836625576019287 -0.00454843044281005859 -0.0141622396185994148
-17.7873363494873047 -10.2686386108398438 8.55563163757324219 296 1644828906.61491346 -0.977043688297271729 -0.212935552000999451 -0.00371393864043056965 -0.00550835160538554192
-4.48867082595825195 -9.74962902069091797 8.20563507080078125 297 1644828908.71338224 -0.999518096446990967 0.0163162369281053543 0.0239782966673374176 -0.0110620670020580292
9.23852157592773438 -8.67768287658691406 7.12158393859863281 298 1644828910.71353149 -0.993374228477478027 -0.110180959105491638 0.0316523127257823944 -0.00812327675521373749
