# .PCD v0.7 - Point Cloud Data file format
VERSION 0.7
FIELDS x y z intensity t qx qy qz qw
SIZE 4 4 4 4 8 4 4 4 4
TYPE F F F F F F F F F
COUNT 1 1 1 1 1 1 1 1 1
WIDTH 276
HEIGHT 1
VIEWPOINT 0 0 0 1 0 0 0
POINTS 276
DATA ascii
96.641510009765625 74.9521255493164062 7.68992948532104492 21 1644828659.01969552 0.999438047409057617 -0.0170975532382726669 0.0132911084219813347 0.025584319606423378
100.398567199707031 71.4542694091796875 7.69652652740478516 22 1644828659.81700134 0.999577522277832031 -0.0113422218710184097 0.0206813476979732513 0.0169832687824964523
104.03936767578125 67.8785247802734375 7.69817161560058594 23 1644828660.61514688 0.999314486980438232 -0.0300180986523628235 0.0184000581502914429 0.0114421220496296883
107.649246215820312 64.1797332763671875 7.69080448150634766 24 1644828661.4161005 0.99838942289352417 -0.0488682426512241364 0.0219923350960016251 0.018622279167175293
111.203361511230469 60.4547119140625 7.71379280090332031 25 1644828662.21649909 0.998237669467926025 -0.0497329272329807281 0.0191698819398880005 0.0260908231139183044
114.503471374511719 56.6836700439453125 7.85333347320556641 26 1644828663.01568437 0.913000106811523438 -0.402913063764572144 0.0580034814774990082 0.0269706808030605316
117.961868286132812 52.7096023559570312 7.69579076766967773 27 1644828663.82066464 0.915484607219696045 -0.402294427156448364 -0.00140264921355992556 0.00671739876270294189
121.8101806640625 48.8049087524414062 7.74074506759643555 28 1644828664.81639004 0.920025885105133057 -0.391754895448684692 -0.00111512397415935993 0.00890063773840665817
125.628059387207031 45.0165863037109375 7.78261423110961914 29 1644828665.71695423 0.924996256828308105 -0.379830121994018555 0.00422811880707740784 0.00964818801730871201
128.83740234375 40.7802238464355469 8.18313503265380859 30 1644828666.61726284 0.878927409648895264 -0.474154472351074219 0.0507244430482387543 0.00955041218549013138
132.154190063476562 36.5351066589355469 8.37946987152099609 31 1644828667.5185163 0.924747645854949951 -0.374478936195373535 0.0274627413600683212 -0.0620732009410858154
136.496170043945312 33.2667198181152344 8.49557209014892578 32 1644828668.41766262 0.953281164169311523 -0.298186689615249634 0.0214951392263174057 -0.0433325767517089844
141.11029052734375 30.1271495819091797 8.52235603332519531 33 1644828669.32220054 0.952875852584838867 -0.300979524850845337 0.0254876874387264252 -0.0280946437269449234
145.233306884765625 27.2508087158203125 8.60468864440917969 34 1644828670.1220572 0.951050877571105957 -0.308245658874511719 0.0140861030668020248 -0.0169823486357927322
149.312118530273438 24.2693977355957031 8.62086296081542969 35 1644828670.92235851 0.948059558868408203 -0.317766100168228149 0.00672087958082556725 -0.0127502577379345894
153.327194213867188 21.0092296600341797 8.46843910217285156 36 1644828671.72183156 0.93919682502746582 -0.342250078916549683 -0.0130665004253387451 -0.0245645586401224136
157.197540283203125 17.4564094543457031 8.27367973327636719 37 1644828672.5218308 0.926648557186126709 -0.37539517879486084 -0.0128987319767475128 -0.0153140323236584663
160.826583862304688 13.5684709548950195 8.06119918823242188 38 1644828673.32161593 0.910231471061706543 -0.413879603147506714 -0.00483103469014167786 -0.0126098860055208206
164.302886962890625 9.45398139953613281 7.85047054290771484 39 1644828674.12289762 0.901723861694335938 -0.431666582822799683 -0.0115507906302809715 -0.0206068512052297592
167.662643432617188 5.28936052322387695 7.66649723052978516 40 1644828674.92214966 0.898304104804992676 -0.439278185367584229 0.00194421666674315929 -0.00898243207484483719
171.20098876953125 1.17857027053833008 7.44896316528320312 41 1644828675.72261524 0.923109531402587891 -0.38290521502494812 -0.00769154587760567665 -0.0345429480075836182
175.112518310546875 -2.44575119018554688 7.27971839904785156 42 1644828676.5227263 0.930681347846984863 -0.36513933539390564 -0.0028254000935703516 -0.0223042313009500504
179.074661254882812 -6.0200657844543457 7.09888601303100586 43 1644828677.32250071 0.932523727416992188 -0.360039025545120239 0.00433166464790701866 -0.0274338480085134506
183.08221435546875 -9.53371143341064453 6.96310138702392578 44 1644828678.12209439 0.934668540954589844 -0.354465991258621216 0.000716332579031586647 -0.027350742369890213
187.0479736328125 -12.984827995300293 6.88832569122314453 45 1644828678.92143965 0.937471687793731689 -0.347268134355545044 0.00588942039757966995 -0.0227377358824014664
190.97723388671875 -16.3842964172363281 6.87866783142089844 46 1644828679.72152972 0.93688499927520752 -0.348885893821716309 0.000546451716218143702 -0.0229091942310333252
194.899551391601562 -19.7644519805908203 6.82244348526000977 47 1644828680.52421927 0.934096992015838623 -0.356230854988098145 -0.00305607751943171024 -0.0235165376216173172
198.847702026367188 -23.1633834838867188 6.69091796875 48 1644828681.32162523 0.934760510921478271 -0.3549957275390625 -0.0043387184850871563 -0.0134910615161061287
202.725570678710938 -26.6545162200927734 6.61400604248046875 49 1644828682.1222446 0.932867050170898438 -0.359269618988037109 0.00885403901338577271 -0.0246170070022344589
206.544876098632812 -30.1686363220214844 6.57294511795043945 50 1644828682.92185068 0.929437398910522461 -0.368338167667388916 0.00877126120030879974 -0.0199043825268745422
210.351959228515625 -33.6673393249511719 6.55295181274414062 51 1644828683.72232127 0.940454661846160889 -0.337655901908874512 0.012752617709338665 -0.0370252393186092377
214.741607666015625 -36.30328369140625 6.54791879653930664 52 1644828684.52293324 0.966611206531524658 -0.25471070408821106 0.0120982863008975983 -0.02527637779712677
219.299835205078125 -38.6423835754394531 6.55693769454956055 53 1644828685.32336545 0.972396790981292725 -0.232286408543586731 0.00564194284379482269 -0.0213463641703128815
223.887725830078125 -40.8722457885742188 6.56424856185913086 54 1644828686.12238383 0.973257482051849365 -0.228555619716644287 0.00773223396390676498 -0.0217341966927051544
228.52227783203125 -43.0670852661132812 6.56399965286254883 55 1644828686.9227941 0.97539818286895752 -0.219600483775138855 0.00534217897802591324 -0.0185855422168970108
233.02984619140625 -45.4552993774414062 6.54555082321166992 56 1644828687.72228479 0.963602960109710693 -0.267278552055358887 0.0025796922855079174 -0.00498319137841463089
236.81640625 -48.85009765625 6.52153491973876953 57 1644828688.52535057 0.911225378513336182 -0.411772638559341431 -0.00324044330045580864 -0.0100568793714046478
238.852981567382812 -52.7999763488769531 6.4396514892578125 58 1644828689.22396827 0.819526791572570801 -0.572879791259765625 -0.012141149491071701 0.00609661731868982315
239.61468505859375 -57.84979248046875 6.35796356201171875 59 1644828690.02029943 0.738408505916595459 -0.674248218536376953 -0.0118066864088177681 -0.00167280680034309626
239.751007080078125 -63.0375022888183594 6.28300189971923828 60 1644828690.82492208 0.697731077671051025 -0.716055810451507568 -0.0161654297262430191 0.0131950154900550842
239.516647338867188 -68.1382522583007812 6.30583953857421875 61 1644828691.61985755 0.703108787536621094 -0.711026251316070557 0.00507433712482452393 0.00734626175835728645
240.221115112304688 -73.2065200805664062 6.28071260452270508 62 1644828692.42007637 0.771514832973480225 -0.636210978031158447 0.000297101243631914258 0.000590889132581651211
241.83880615234375 -78.0838775634765625 6.24012374877929688 63 1644828693.22117114 0.817704200744628906 -0.575556695461273193 -0.00737576233223080635 0.00631943903863430023
243.874038696289062 -82.7973480224609375 6.20176362991333008 64 1644828694.0194428 0.839589774608612061 -0.543092668056488037 -0.00668414216488599777 0.00973085034638643265
246.053054809570312 -87.48565673828125 6.16280317306518555 65 1644828694.81911302 0.843128442764282227 -0.537658572196960449 -0.00497164949774742126 0.00573794404044747353
248.35870361328125 -92.1055221557617188 6.14497995376586914 66 1644828695.61919928 0.853522658348083496 -0.520890712738037109 -0.00968227069824934006 0.00884370412677526474
250.798065185546875 -96.6385574340820312 6.13739490509033203 67 1644828696.41915917 0.86223292350769043 -0.506331324577331543 -0.00544505147263407707 0.0123801799491047859
253.566604614257812 -100.96429443359375 6.13123369216918945 68 1644828697.21807456 0.883829474449157715 -0.467606812715530396 -0.00276195001788437366 0.0134800458326935768
256.9359130859375 -104.848930358886719 6.13103103637695312 69 1644828698.01982832 0.917884767055511475 -0.396376341581344604 -0.00283377710729837418 0.0191133655607700348
260.72314453125 -108.296646118164062 6.11461114883422852 70 1644828698.81961322 0.93705296516418457 -0.349124938249588013 -0.00307464879006147385 0.00583975203335285187
264.722625732421875 -111.515434265136719 6.09709692001342773 71 1644828699.61919165 0.94415593147277832 -0.329463332891464233 -0.00348428403958678246 0.00336458534002304077
268.89605712890625 -114.385139465332031 6.04887056350708008 72 1644828700.4194839 0.955240964889526367 -0.295145899057388306 -0.0100075798109173775 0.0174200683832168579
273.48284912109375 -117.1346435546875 5.99551105499267578 73 1644828701.31882811 0.962271273136138916 -0.271335005760192871 -0.00876061245799064636 0.0182899292558431625
277.825225830078125 -119.737205505371094 5.97941446304321289 74 1644828702.31884623 0.963187277317047119 -0.268011897802352905 -0.0114532085135579109 0.0175718404352664948
282.36865234375 -122.301101684570312 5.99032783508300781 75 1644828703.8210597 0.969590604305267334 -0.244425803422927856 0.0119488527998328209 0.00270623154938220978
287.060577392578125 -124.625259399414062 5.92646598815917969 76 1644828705.42268229 0.971574544906616211 -0.236712187528610229 0.00320807890966534615 -9.28747067518997937e-06
291.400543212890625 -127.131843566894531 5.85056495666503906 77 1644828706.62103033 0.964457392692565918 -0.263415306806564331 -0.00736304046586155891 -0.0194963105022907257
295.962310791015625 -130.095245361328125 5.54206466674804688 78 1644828707.61988616 0.955783247947692871 -0.291268587112426758 -0.0295023620128631592 -0.0277598034590482712
300.46026611328125 -133.181503295898438 5.07700824737548828 79 1644828708.51965809 0.953249633312225342 -0.298638433218002319 -0.0401070341467857361 -0.0228389110416173935
305.17803955078125 -136.025222778320312 4.60445070266723633 80 1644828709.42172885 0.965041637420654297 -0.258218765258789062 -0.0365773700177669525 -0.0260737761855125427
309.578704833984375 -138.499191284179688 4.16825342178344727 81 1644828710.21931195 0.9663810133934021 -0.254059016704559326 -0.0317920446395874023 -0.0234748683869838715
314.053466796875 -141.29827880859375 3.72343802452087402 82 1644828711.02181792 0.958016574382781982 -0.28276360034942627 -0.0370194986462593079 -0.0296405181288719177
318.2008056640625 -144.483367919921875 3.23625659942626953 83 1644828711.8190589 0.937805056571960449 -0.342703342437744141 -0.0460070408880710602 -0.03097490593791008
321.940826416015625 -148.307540893554688 2.6853642463684082 84 1644828712.72036839 0.912690877914428711 -0.403765946626663208 -0.0479433834552764893 -0.0408636033535003662
325.251220703125 -152.552398681640625 2.16131162643432617 85 1644828713.82089543 0.894179999828338623 -0.443732947111129761 -0.0364033319056034088 -0.047095760703086853
328.22119140625 -156.620452880859375 1.70251715183258057 86 1644828715.02269173 0.892476975917816162 -0.447672426700592041 -0.0300452765077352524 -0.04660019651055336
331.21002197265625 -160.650711059570312 1.22381067276000977 87 1644828716.61989856 0.889243781566619873 -0.452682018280029297 -0.0326292999088764191 -0.0570944249629974365
333.82672119140625 -164.988235473632812 1.15981662273406982 88 1644828718.51801896 0.858902692794799805 -0.5112038254737854 0.0225692614912986755 -0.0211520977318286896
334.5230712890625 -168.00164794921875 1.13595008850097656 89 1644828719.62171268 0.751399755477905273 -0.65938037633895874 0.00619177008047699928 -0.0240325517952442169
333.951019287109375 -169.874542236328125 1.06934154033660889 90 1644828720.21884847 0.612259507179260254 -0.790398597717285156 -0.00370947364717721939 -0.0198625735938549042
332.712249755859375 -171.452743530273438 0.976595103740692139 91 1644828720.72327876 0.457173734903335571 -0.889136552810668945 -0.00772400805726647377 -0.0192008446902036667
329.0064697265625 -174.328399658203125 0.752211272716522217 92 1644828721.72434425 0.293855488300323486 -0.955612421035766602 -0.00747938826680183411 -0.0199479348957538605
324.37445068359375 -176.682327270507812 0.512330889701843262 93 1644828722.61935186 0.209171101450920105 -0.97755742073059082 -0.00541192060336470604 -0.0244865994900465012
319.63043212890625 -178.6715087890625 0.255901545286178589 94 1644828723.42140627 0.206745877861976624 -0.977985858917236328 0.00840952619910240173 -0.0270022507756948471
314.801239013671875 -180.910797119140625 -0.0257294345647096634 95 1644828724.22289348 0.213714241981506348 -0.976422607898712158 0.0092836553230881691 -0.0289637446403503418
309.886749267578125 -183.12152099609375 -0.292082101106643677 96 1644828725.02224731 0.20706532895565033 -0.977751314640045166 0.0149132013320922852 -0.0300641767680644989
304.91387939453125 -185.293548583984375 -0.552394449710845947 97 1644828725.8172617 0.201041504740715027 -0.979074060916900635 0.0162191912531852722 -0.027077939361333847
299.8759765625 -187.40081787109375 -0.783013343811035156 98 1644828726.61767745 0.195303887128829956 -0.980224251747131348 0.0200751945376396179 -0.0247752442955970764
294.804718017578125 -189.457077026367188 -1.01022589206695557 99 1644828727.42197704 0.187951058149337769 -0.981752872467041016 0.0145437140017747879 -0.0249838512390851974
289.7593994140625 -191.381362915039062 -1.26220953464508057 100 1644828728.21884274 0.176221504807472229 -0.983769059181213379 0.0233683828264474869 -0.024461088702082634
284.61273193359375 -193.215560913085938 -1.42033851146697998 101 1644828729.02298284 0.167468935251235962 -0.985397875308990479 0.0240741316229104996 -0.0191215295344591141
279.54833984375 -194.9774169921875 -1.49991142749786377 102 1644828729.81943846 0.160282090306282043 -0.986710846424102783 0.0173907335847616196 -0.0202229991555213928
274.53057861328125 -196.715438842773438 -1.64441490173339844 103 1644828730.61714792 0.156102091073989868 -0.987659573554992676 0.0094356238842010498 -0.00846878346055746078
269.42938232421875 -198.4232177734375 -1.80776834487915039 104 1644828731.42138529 0.163147822022438049 -0.986551940441131592 0.00990471243858337402 7.82776842243038118e-05
264.3446044921875 -200.058929443359375 -1.9718470573425293 105 1644828732.21883464 0.152459248900413513 -0.988147318363189697 0.00812546722590923309 -0.0159703567624092102
259.185272216796875 -201.507675170898438 -2.1485440731048584 106 1644828733.02116179 0.134579867124557495 -0.99068373441696167 0.0133035974577069283 -0.0160333756357431412
254.0223388671875 -202.827529907226562 -2.33678460121154785 107 1644828733.81624055 0.120919831097126007 -0.992442071437835693 0.0100000733509659767 -0.0183607060462236404
248.78082275390625 -204.061767578125 -2.51157045364379883 108 1644828734.61803865 0.114946678280830383 -0.993174135684967041 0.0103301983326673508 -0.0169027354568243027
243.537643432617188 -205.28607177734375 -2.69615030288696289 109 1644828735.41624832 0.113144837319850922 -0.993282437324523926 0.011151517741382122 -0.0215387046337127686
238.309616088867188 -206.587631225585938 -2.8646550178527832 110 1644828736.21628666 0.118088982999324799 -0.992893397808074951 0.00728510413318872452 -0.0128324972465634346
233.106521606445312 -207.8966064453125 -2.99596190452575684 111 1644828737.01565647 0.124339468777179718 -0.99197918176651001 0.013196106068789959 -0.0185165628790855408
227.91998291015625 -209.23211669921875 -3.14400339126586914 112 1644828737.81507778 0.125466868281364441 -0.991831660270690918 0.0145629281178116798 -0.017774529755115509
222.705703735351562 -210.459121704101562 -3.31374406814575195 113 1644828738.61482215 0.10566210001707077 -0.994191348552703857 0.00943536404520273209 -0.0181678310036659241
217.432479858398438 -211.51220703125 -3.49533843994140625 114 1644828739.41549325 0.0860833898186683655 -0.996087908744812012 0.006111175287514925 -0.0190050844103097916
212.152542114257812 -212.442001342773438 -3.65446281433105469 115 1644828740.21573615 0.0837693214416503906 -0.996381282806396484 -0.00117396307177841663 -0.0143406391143798828
206.841278076171875 -213.131668090820312 -3.8233788013458252 116 1644828741.01584005 0.0591506622731685638 -0.998090088367462158 -0.00256502279080450535 -0.0176278054714202881
201.538970947265625 -213.57855224609375 -3.96950268745422363 117 1644828741.81417322 0.0477189347147941589 -0.998799741268157959 0.0079514356330037117 -0.00766550377011299133
196.177215576171875 -214.04150390625 -4.13561296463012695 118 1644828742.61530232 0.0432888902723789215 -0.998767256736755371 0.0121343573555350304 -0.0210438370704650879
190.848434448242188 -214.539306640625 -4.28693819046020508 119 1644828743.41455054 0.0423579402267932892 -0.998901546001434326 0.0124498531222343445 -0.0157014708966016769
185.51165771484375 -215.032333374023438 -4.45263195037841797 120 1644828744.21468425 0.04418206587433815 -0.998954176902770996 0.0064097382128238678 -0.00986925326287746429
180.171173095703125 -215.497634887695312 -4.62601280212402344 121 1644828745.01415658 0.041597314178943634 -0.998952507972717285 0.00180424493737518787 -0.0189814567565917969
174.802963256835938 -215.878005981445312 -4.81217765808105469 122 1644828745.81390691 0.0264556556940078735 -0.999435245990753174 0.00318043865263462067 -0.0204726420342922211
169.440689086914062 -216.173660278320312 -5.01655340194702148 123 1644828746.61572838 0.0167468897998332977 -0.999787032604217529 -0.00390715198591351509 -0.0114064905792474747
164.085968017578125 -216.320541381835938 -5.24156999588012695 124 1644828747.41512275 0.00148217310197651386 -0.999974429607391357 0.00525907007977366447 -0.00461677368730306625
158.807113647460938 -216.286575317382812 -5.10528469085693359 125 1644828748.21524215 0.000222720089368522167 -0.99996107816696167 0.00425657909363508224 -0.00772156519815325737
153.57110595703125 -216.339691162109375 -5.16955375671386719 126 1644828749.01467872 0.00336857675574719906 -0.999985158443450928 -0.000623180181719362736 -0.00423102080821990967
148.312881469726562 -216.438262939453125 -5.24908113479614258 127 1644828749.81648993 0.00976761337369680405 -0.999923884868621826 -0.00426048645749688148 -0.00622242642566561699
143.10247802734375 -216.59100341796875 -5.26456403732299805 128 1644828750.61513019 0.015725601464509964 -0.999858438968658447 -0.0052613760344684124 -0.00284083373844623566
137.927597045898438 -216.752288818359375 -5.28986215591430664 129 1644828751.41485953 0.0120389517396688461 -0.999914407730102539 0.00135636189952492714 -0.00493380194529891014
132.75140380859375 -216.99249267578125 -5.3300623893737793 130 1644828752.21475244 0.0170105695724487305 -0.999844133853912354 -0.000523868657182902098 -0.00470453407615423203
127.602249145507812 -217.283737182617188 -5.33355617523193359 131 1644828753.01734734 0.026674097403883934 -0.999618291854858398 -0.00718409661203622818 -0.000417949864640831947
122.493614196777344 -217.548721313476562 -5.33947467803955078 132 1644828753.81479478 0.020535765215754509 -0.999769747257232666 -0.00621877191588282585 0.000232885198784060776
117.364540100097656 -217.789138793945312 -5.34120750427246094 133 1644828754.61505651 0.0195117108523845673 -0.99979245662689209 -0.00585487019270658493 6.84365586494095623e-05
112.249618530273438 -217.996688842773438 -5.32850503921508789 134 1644828755.41560006 0.0136618660762906075 -0.9998931884765625 -0.00328886741772294044 0.00401598634198307991
107.126808166503906 -218.237289428710938 -5.34155607223510742 135 1644828756.21632934 0.0221296511590480804 -0.999711811542510986 -0.00885749608278274536 -0.00285371299833059311
102.004302978515625 -218.565673828125 -5.33861494064331055 136 1644828757.01626921 0.029544709250330925 -0.999417662620544434 -0.0164138246327638626 -0.00468854838982224464
96.9103240966796875 -218.961257934570312 -5.33239173889160156 137 1644828757.81692815 0.035688493400812149 -0.999149322509765625 -0.019619133323431015 0.00648251455277204514
91.8116683959960938 -219.305633544921875 -5.30977630615234375 138 1644828758.61555743 0.0195082481950521469 -0.999548435211181641 -0.0227929912507534027 0.00168979284353554249
86.7247848510742188 -219.446441650390625 -5.29193019866943359 139 1644828759.41584229 0.00845407694578170776 -0.999746322631835938 -0.0207180380821228027 0.00257086846977472305
81.5891647338867188 -219.553985595703125 -5.31833600997924805 140 1644828760.21766829 0.00674821343272924423 -0.999789297580718994 -0.0190644729882478714 -0.00351551664061844349
76.488677978515625 -219.620376586914062 -5.3091435432434082 141 1644828761.0175221 -0.000197126733837649226 -0.999829888343811035 -0.0163910165429115295 0.00845606811344623566
71.3680877685546875 -219.588088989257812 -5.28201580047607422 142 1644828761.81700063 -0.00563998287543654442 -0.999962985515594482 -0.00581401912495493889 0.00290124979801476002
66.2850570678710938 -219.497817993164062 -5.23054265975952148 143 1644828762.61942506 -0.0098994402214884758 -0.999926865100860596 0.000673699541948735714 0.00691771367564797401
61.2312774658203125 -219.299102783203125 -5.18435001373291016 144 1644828763.41756845 -0.0230602920055389404 -0.999663829803466797 0.00996973086148500443 0.00640381081029772758
56.147186279296875 -218.974533081054688 -5.1567988395690918 145 1644828764.21872759 -0.0381435304880142212 -0.999240994453430176 0.00790869537740945816 -0.000114081907668150961
51.0774345397949219 -218.49114990234375 -5.1589808464050293 146 1644828765.01616216 -0.0570123381912708282 -0.998338699340820312 0.00820956006646156311 0.00143625063356012106
46.0274772644042969 -217.650436401367188 -5.15004968643188477 147 1644828765.81796384 -0.104099728167057037 -0.994540393352508545 0.00681242765858769417 0.00250319368205964565
41.1388893127441406 -216.112579345703125 -5.16799545288085938 148 1644828766.6189189 -0.17149721086025238 -0.985109627246856689 0.0121086053550243378 0.00102599908132106066
36.445770263671875 -214.017990112304688 -5.19112396240234375 149 1644828767.41761899 -0.222998693585395813 -0.974761843681335449 0.0105248559266328812 -0.000338001380441710353
31.9624462127685547 -211.501632690429688 -5.20130157470703125 150 1644828768.21865773 -0.264887213706970215 -0.964218556880950928 0.0104428790509700775 0.00287122861482203007
27.6833839416503906 -208.622695922851562 -5.23335361480712891 151 1644828769.02011633 -0.306677728891372681 -0.951782047748565674 0.00756321614608168602 0.00156402902211993933
23.6672649383544922 -205.504287719726562 -5.20735979080200195 152 1644828769.82149673 -0.334995776414871216 -0.942025959491729736 -0.000443780299974605441 0.0190965887159109116
19.82318115234375 -202.20367431640625 -5.23310995101928711 153 1644828770.62113333 -0.362490713596343994 -0.931891858577728271 0.00104892533272504807 0.0133033730089664459
16.0833969116210938 -198.774383544921875 -5.22919321060180664 154 1644828771.41792083 -0.362576603889465332 -0.931845128536224365 0.000706182618159800768 0.0142245907336473465
12.3680830001831055 -195.413909912109375 -4.98993062973022461 155 1644828772.21973133 -0.359086781740188599 -0.932990372180938721 -0.0168488249182701111 0.0173705536872148514
8.26653289794921875 -191.60284423828125 -4.738739013671875 156 1644828773.12083578 -0.369077056646347046 -0.929352879524230957 -0.00259385164827108383 -0.00886974669992923737
4.33547210693359375 -187.817337036132812 -4.58443641662597656 157 1644828774.01801133 -0.376451492309570312 -0.92594754695892334 -0.0167832467705011368 0.0249748639762401581
0.496425926685333252 -183.960357666015625 -4.28639364242553711 158 1644828774.91865659 -0.383147388696670532 -0.923141300678253174 -0.00758239300921559334 0.0308330506086349487
-3.49182462692260742 -180.27313232421875 -4.03754138946533203 159 1644828775.81965351 -0.357358247041702271 -0.933553814888000488 -0.0105878729373216629 0.0256959199905395508
-7.55527830123901367 -176.793853759765625 -3.71132540702819824 160 1644828776.7194562 -0.3543509840965271 -0.934265255928039551 -0.0225119590759277344 0.0328184999525547028
-11.555694580078125 -173.198638916015625 -3.40553784370422363 161 1644828777.61980677 -0.366617500782012939 -0.929688692092895508 -0.023470195010304451 0.0268271118402481079
-15.4173507690429688 -169.542892456054688 -3.05285453796386719 162 1644828778.52001047 -0.378663688898086548 -0.924741387367248535 -0.0245512053370475769 0.0294008124619722366
-19.2009353637695312 -165.876434326171875 -2.63205456733703613 163 1644828779.41997457 -0.376222282648086548 -0.925599217414855957 -0.0266668293625116348 0.0318089500069618225
-22.9881172180175781 -162.280654907226562 -2.2630915641784668 164 1644828780.31817365 -0.375131070613861084 -0.926067113876342773 -0.0301777832210063934 0.0276705324649810791
-26.7994041442871094 -158.717605590820312 -1.92292392253875732 165 1644828781.21948767 -0.370526820421218872 -0.927628099918365479 -0.037446390837430954 0.0285267680883407593
-30.5436973571777344 -155.226760864257812 -1.42971718311309814 166 1644828782.11880326 -0.365926295518875122 -0.92884063720703125 -0.0342381000518798828 0.0466985777020454407
-34.2997627258300781 -151.826324462890625 -0.986635863780975342 167 1644828783.01997018 -0.362289547920227051 -0.930613517761230469 -0.0300476290285587311 0.0424487031996250153
-38.2875709533691406 -148.078781127929688 -0.500780940055847168 168 1644828784.01866508 -0.374957680702209473 -0.926000356674194336 -0.0196921583265066147 0.039272163063287735
-42.0479621887207031 -144.270050048828125 -0.0280910506844520569 169 1644828785.01975799 -0.392339617013931274 -0.918607771396636963 -0.0153014315292239189 0.0446675382554531097
-45.5667304992675781 -140.36444091796875 0.378524988889694214 170 1644828786.01726556 -0.411101698875427246 -0.91038888692855835 -0.0137892048805952072 0.0446918196976184845
-48.9807472229003906 -136.344314575195312 0.807818591594696045 171 1644828787.01884818 -0.426307231187820435 -0.903529107570648193 -0.0127565888687968254 0.041647784411907196
-52.3468208312988281 -132.247604370117188 1.19934391975402832 172 1644828788.01447535 -0.433866798877716064 -0.899960815906524658 -0.0192633271217346191 0.0381977520883083344
-55.6406707763671875 -127.949317932128906 1.57658720016479492 173 1644828789.01395559 -0.444930493831634521 -0.894656956195831299 -0.0049876081757247448 0.0400108881294727325
-58.7808685302734375 -123.475578308105469 2.02027058601379395 174 1644828790.01617193 -0.477633684873580933 -0.877361476421356201 -0.00509284436702728271 0.0455730818212032318
-61.1475868225097656 -118.584754943847656 2.46948671340942383 175 1644828791.01325083 -0.552062630653381348 -0.832261383533477783 -0.00999942515045404434 0.0496777147054672241
-62.8341217041015625 -113.396186828613281 2.93354225158691406 176 1644828792.01618409 -0.599907755851745605 -0.798339128494262695 -0.0104545140638947487 0.0515370219945907593
-64.1231307983398438 -108.058433532714844 3.35077404975891113 177 1644828793.01766491 -0.628464758396148682 -0.776671767234802246 -0.0134365921840071678 0.040404152125120163
-65.1653594970703125 -102.636192321777344 3.72557759284973145 178 1644828794.01339555 -0.646678328514099121 -0.761684298515319824 -0.0216051973402500153 0.034313887357711792
-65.70843505859375 -97.63348388671875 4.08421945571899414 179 1644828794.91343975 -0.681159794330596924 -0.730907618999481201 -0.0252622850239276886 0.0340179875493049622
-65.8192138671875 -92.543060302734375 4.38815498352050781 180 1644828795.81809664 -0.709733247756958008 -0.70332413911819458 -0.0191106069833040237 0.0353361442685127258
-65.56787109375 -87.013702392578125 5.01328134536743164 181 1644828796.81630015 -0.728470146656036377 -0.684210479259490967 -0.0170529056340456009 0.0299422461539506912
-65.1712417602539062 -81.8359146118164062 5.37929534912109375 182 1644828797.91753602 -0.731154739856719971 -0.680891752243041992 -0.0223349668085575104 0.0360592305660247803
-64.72821044921875 -76.6275863647460938 5.79650735855102539 183 1644828799.21471477 -0.736115872859954834 -0.675764262676239014 -0.0207224823534488678 0.0323518365621566772
-64.3134536743164062 -71.37548828125 6.19644498825073242 184 1644828800.91531634 -0.734936654567718506 -0.677008926868438721 -0.0259538833051919937 0.0292136464267969131
-63.8830184936523438 -66.6790084838867188 6.56100273132324219 185 1644828802.91584778 -0.745231449604034424 -0.665638267993927002 -0.0248522106558084488 0.0306294839829206467
-62.5161056518554688 -63.791595458984375 6.80679750442504883 186 1644828804.31534934 -0.852847814559936523 -0.520070374011993408 -0.0213650241494178772 0.0414839945733547211
-59.6576690673828125 -60.8641853332519531 7.04739904403686523 187 1644828805.51588893 -0.931730031967163086 -0.360552281141281128 -0.00931118521839380264 0.0423614904284477234
-54.9330101013183594 -58.3134727478027344 7.18061113357543945 188 1644828806.81663728 -0.974382936954498291 -0.21832236647605896 -0.00816336460411548615 0.0533532984554767609
-49.8439140319824219 -56.77728271484375 7.36698102951049805 189 1644828807.9171083 -0.993623852729797363 -0.107485361397266388 -0.0188539549708366394 0.0283386614173650742
-44.5486717224121094 -56.37384033203125 7.30701446533203125 190 1644828809.01656866 -0.999759018421173096 -0.00659001665189862251 0.0140534434467554092 0.0155235594138503075
-39.5091285705566406 -56.8168754577636719 7.11565303802490234 191 1644828810.2186327 -0.996171176433563232 0.0646131560206413269 0.0577483028173446655 0.011542036198079586
-34.34417724609375 -57.091278076171875 7.01126384735107422 192 1644828811.81924391 -0.999897897243499756 0.00948670040816068649 0.00912591628730297089 0.00556092988699674606
-30.4853038787841797 -53.8267402648925781 6.80698776245117188 193 1644828813.2213366 -0.86037290096282959 -0.507686257362365723 0.0252769999206066132 0.0370700806379318237
-29.4932003021240234 -48.7794570922851562 6.8898768424987793 194 1644828814.31891656 -0.751079738140106201 -0.658133864402770996 0.0156764257699251175 0.0499332062900066376
-29.5424995422363281 -43.5622596740722656 7.13725852966308594 195 1644828815.3169353 -0.701001167297363281 -0.712369620800018311 -0.00606362428516149521 0.0330168306827545166
-29.7148876190185547 -38.1395263671875 7.46111392974853516 196 1644828816.31486392 -0.694915473461151123 -0.71766817569732666 -0.00562819698825478554 0.0448686331510543823
-29.8285408020019531 -33.0224075317382812 7.72541427612304688 197 1644828817.2178638 -0.701658666133880615 -0.711496949195861816 0.000254952465184032917 0.0380417071282863617
-29.8629894256591797 -27.7994365692138672 8.03114700317382812 198 1644828818.11479282 -0.695076644420623779 -0.717516660690307617 -0.00117277645040303469 0.0451324470341205597
-30.6574211120605469 -22.4780025482177734 8.29474830627441406 199 1644828819.01568913 -0.646880745887756348 -0.762209296226501465 -0.0187838543206453323 0.0151478992775082588
-31.9423751831054688 -17.2124805450439453 8.47368907928466797 200 1644828819.91556048 -0.613781273365020752 -0.789285898208618164 -0.0172783117741346359 0.00131538545247167349
-33.4352684020996094 -12.2282800674438477 8.60700798034667969 201 1644828820.81453204 -0.586623966693878174 -0.809744298458099365 -0.0128179779276251793 0.00471243634819984436
-34.9665451049804688 -7.04449272155761719 8.73730373382568359 202 1644828821.81530023 -0.634247303009033203 -0.772516429424285889 -0.0296313054859638214 -0.00841324590146541595
-33.6644859313964844 -1.97178840637207031 8.78166770935058594 203 1644828822.81694889 -0.856632709503173828 -0.514363706111907959 -0.0116928331553936005 -0.0383880287408828735
-31.8209514617919922 -0.238527238368988037 8.79036617279052734 204 1644828823.31319189 -0.935213267803192139 -0.352614402770996094 -0.00597425922751426697 -0.0316777005791664124
-29.4490108489990234 0.735258102416992188 8.76881885528564453 205 1644828823.81362939 -0.985726714134216309 -0.15969356894493103 0.0116196312010288239 -0.0520174801349639893
-27.0184268951416016 0.584779858589172363 8.75503635406494141 206 1644828824.31438565 -0.999201595783233643 0.0269214771687984467 0.0154232056811451912 -0.0251697171479463577
-24.7527446746826172 -0.38932839035987854 8.68151569366455078 207 1644828824.81438398 -0.977733194828033447 0.207761198282241821 0.02592514269053936 -0.0141765531152486801
-22.8638191223144531 -2.09429097175598145 8.60945320129394531 208 1644828825.31432629 -0.916062057018280029 0.396444797515869141 0.0458214692771434784 -0.0395250171422958374
-21.7574291229248047 -4.78592061996459961 8.61665058135986328 209 1644828825.91399431 -0.823051393032073975 0.567272305488586426 0.0175059139728546143 -0.0219574030488729477
-21.5406818389892578 -7.83162355422973633 8.62662506103515625 210 1644828826.51367211 -0.711003363132476807 0.702611446380615234 0.0229173041880130768 -0.0169163662940263748
-22.4925518035888672 -10.8446044921875 8.58808422088623047 211 1644828827.11519146 -0.552494525909423828 0.832375407218933105 0.0432980768382549286 -0.00512365996837615967
-24.5036277770996094 -13.0545835494995117 8.59164905548095703 212 1644828827.7142086 -0.371497780084609985 0.927514374256134033 0.0398753024637699127 -0.0107927015051245689
-26.7271366119384766 -14.0658292770385742 8.59158802032470703 213 1644828828.21388054 -0.1986532062292099 0.97931063175201416 0.0383924394845962524 0.00369040388613939285
-29.0478763580322266 -14.1865987777709961 8.61224937438964844 214 1644828828.71309781 -0.0195143688470125198 0.999257564544677734 0.0327409207820892334 0.00562113011255860329
-31.2902355194091797 -13.4923114776611328 8.58732223510742188 215 1644828829.21509504 0.164035499095916748 0.98535311222076416 0.0413581505417823792 0.021472834050655365
-33.0156707763671875 -12.1009855270385742 8.61660289764404297 216 1644828829.71324992 0.337964117527008057 0.940251052379608154 0.0374897941946983337 0.017400696873664856
-33.3523902893066406 -3.15292072296142578 8.80370044708251953 217 1644828831.81250525 0.853167355060577393 0.520791411399841309 0.0139362681657075882 0.0262201931327581406
-24.5517024993896484 -0.690784633159637451 8.67517471313476562 218 1644828833.8154366 0.99088364839553833 -0.132035389542579651 -0.0208997186273336411 0.0167163163423538208
-16.6446456909179688 -6.22309303283691406 8.52676963806152344 219 1644828835.51483083 0.963715195655822754 -0.266801506280899048 -0.000293366785626858473 -0.00836124923080205917
-11.9062948226928711 -7.86726474761962891 8.47362327575683594 220 1644828836.31396031 0.990924954414367676 -0.133707240223884583 -0.00337177864275872707 -0.0133672803640365601
-6.84627056121826172 -8.82347679138183594 8.30681514739990234 221 1644828837.11456561 0.996388673782348633 -0.0836187601089477539 -0.0147213106974959373 -0.000889952876605093479
-1.54143130779266357 -9.36114215850830078 8.00139045715332031 222 1644828837.91365933 0.998535454273223877 -0.03977985680103302 -0.0358051508665084839 0.0079082101583480835
3.95317745208740234 -9.26123619079589844 7.52214908599853516 223 1644828838.71595526 0.998499810695648193 0.033504188060760498 -0.0433080941438674927 0.000108509069832507521
9.51347255706787109 -8.10843944549560547 7.05222225189208984 224 1644828839.51508832 0.993212759494781494 0.108556658029556274 -0.037312731146812439 0.0187530722469091415
14.4210824966430664 -6.80975103378295898 6.74560689926147461 225 1644828840.21520042 0.990103602409362793 0.138432532548904419 -0.0214356817305088043 0.00847458746284246445
19.1313991546630859 -4.94759321212768555 6.54546165466308594 226 1644828840.91491079 0.974566400051116943 0.223151072859764099 -0.0185777153819799423 -0.00887646805495023727
23.7341327667236328 -1.71040177345275879 6.48556756973266602 227 1644828841.7139225 0.942340552806854248 0.334323763847351074 -0.00808336026966571808 -0.0125141981989145279
27.6916675567626953 1.99575579166412354 6.48298168182373047 228 1644828842.51550341 0.927309811115264893 0.374273121356964111 -0.00271019828505814075 -0.00296373176388442516
31.3655052185058594 5.75006914138793945 6.4949488639831543 229 1644828843.31528115 0.920683622360229492 0.390274137258529663 -0.00132561195641756058 -0.00510400207713246346
34.9627494812011719 9.47782516479492188 6.50084018707275391 230 1644828844.11704993 0.921525776386260986 0.388181954622268677 -0.00628597242757678032 -0.00809631310403347015
38.5266342163085938 13.1502866744995117 6.54286432266235352 231 1644828844.91559935 0.921626687049865723 0.387779027223587036 -0.0030971101950854063 -0.0149016622453927994
42.0541343688964844 16.8719882965087891 6.56918001174926758 232 1644828845.71673226 0.915556550025939941 0.401813387870788574 -0.0040190601721405983 -0.0169118121266365051
45.4181289672851562 20.7383575439453125 6.62091207504272461 233 1644828846.51817799 0.913060963153839111 0.40773734450340271 -0.00782370381057262421 -0.00295540341176092625
49.1715431213378906 24.2021045684814453 6.58534574508666992 234 1644828847.31954241 0.936448812484741211 0.3505210280418396 -0.00604597292840480804 -0.0127309905365109444
52.9451179504394531 27.6303691864013672 6.61252307891845703 235 1644828848.1182735 0.934928238391876221 0.35469469428062439 0.00812880136072635651 -0.00589972315356135368
56.6208038330078125 31.1318988800048828 6.71288824081420898 236 1644828848.91844583 0.927945137023925781 0.37238803505897522 0.0149935735389590263 -0.00449528591707348824
60.5532302856445312 35.1059951782226562 6.90937709808349609 237 1644828849.81832647 0.920740783214569092 0.389761507511138916 0.0160809960216283798 -0.00798476673662662506
64.3260421752929688 39.1633186340332031 7.0981907844543457 238 1644828850.71644521 0.916362524032592773 0.399868398904800415 0.0173478089272975922 -0.00916522275656461716
68.0599746704101562 43.2820930480957031 7.26204347610473633 239 1644828851.61770892 0.90825355052947998 0.418095290660858154 0.00543767306953668594 -0.0155640551820397377
70.5016403198242188 48.1774787902832031 7.43967580795288086 240 1644828852.51929688 0.814056277275085449 0.580264508724212646 0.00590806035324931145 -0.0238873381167650223
70.8942489624023438 53.6305313110351562 7.57122516632080078 241 1644828853.41657495 0.711515545845031738 0.702565968036651611 0.0045101395808160305 -0.0112425927072763443
71.6044692993164062 59.0780830383300781 7.67873668670654297 242 1644828854.31309819 0.796297371387481689 0.604631960391998291 0.0164198540151119232 0.00781569443643093109
74.593963623046875 63.7480278015136719 7.72400379180908203 243 1644828855.21536279 0.899559378623962402 0.436674416065216064 0.00530520547181367874 -0.00895674526691436768
78.1320343017578125 67.3172836303710938 7.7190852165222168 244 1644828856.01452708 0.93158721923828125 0.363487958908081055 -0.00193687737919390202 -0.00424672197550535202
82.0227432250976562 70.5815811157226562 7.73355293273925781 245 1644828856.81724215 0.940754532814025879 0.338978409767150879 0.00194481061771512032 -0.00841348990797996521
86.36053466796875 73.876800537109375 7.74059295654296875 246 1644828857.71968007 0.960691988468170166 0.27660369873046875 -0.0105807026848196983 0.0211974531412124634
94.3636550903320312 74.156585693359375 7.75421380996704102 247 1644828859.21869326 0.981785237789154053 -0.188594162464141846 -0.0167025942355394363 0.0158446766436100006
97.3525009155273438 71.7612991333007812 7.71380472183227539 248 1644828859.91414785 0.931991219520568848 -0.362178653478622437 -0.00545234140008687973 0.0137571115046739578
99.4589614868164062 68.1952285766601562 7.69193887710571289 249 1644828860.61980391 0.848980605602264404 -0.528284132480621338 -0.00167161563877016306 -0.0120437359437346458
101.129287719726562 62.891845703125 7.60708427429199219 250 1644828861.51322651 0.800298333168029785 -0.599237799644470215 0.00903985835611820221 -0.0188386049121618271
102.984580993652344 58.2221031188964844 7.64371824264526367 251 1644828862.31667662 0.847800314426422119 -0.529121100902557373 0.0216280501335859299 -0.0282439142465591431
106.184761047363281 54.3103408813476562 7.62888288497924805 252 1644828863.11297345 0.916256427764892578 -0.39952656626701355 0.007332642562687397 -0.0282645244151353836
109.838241577148438 50.8359909057617188 7.6347804069519043 253 1644828863.91305852 0.925441324710845947 -0.378650963306427002 0.0052920621819794178 -0.0124028632417321205
113.414260864257812 47.2587471008300781 7.62819719314575195 254 1644828864.71076894 0.926691055297851562 -0.375007688999176025 0.0117334024980664253 -0.0218009147793054581
117.710121154785156 44.6042976379394531 7.64940214157104492 255 1644828865.51176882 0.974717915058135986 -0.220584288239479065 0.00932498741894960403 -0.0343607328832149506
128.912139892578125 38.8790016174316406 8.25749588012695312 256 1644828867.61065984 0.932487010955810547 -0.356139481067657471 0.060139678418636322 0.00397487543523311615
132.155166625976562 32.4641838073730469 8.19965457916259766 257 1644828868.81197977 0.781819701194763184 -0.622606992721557617 0.0125712752342224121 -0.0309909842908382416
131.937301635742188 28.7408733367919922 8.03391265869140625 258 1644828869.41093779 0.639135479927062988 -0.768539965152740479 -0.0170414969325065613 -0.0237014759331941605
129.987701416015625 24.7643661499023438 7.68656539916992188 259 1644828870.11076736 0.494195342063903809 -0.868294775485992432 -0.0242783688008785248 -0.0352946892380714417
126.89666748046875 20.4431209564208984 7.2755279541015625 260 1644828870.91343808 0.436200708150863647 -0.8986549973487854 -0.0333563797175884247 -0.0321781784296035767
123.134063720703125 16.4543724060058594 6.86603450775146484 261 1644828871.71046352 0.390619218349456787 -0.91997683048248291 -0.0206018257886171341 -0.0251964814960956573
119.250457763671875 12.3352127075195312 6.45731258392333984 262 1644828872.51306486 0.399380922317504883 -0.916181802749633789 -0.0174621045589447021 -0.0282989926636219025
115.812782287597656 8.6476593017578125 6.08149337768554688 263 1644828873.21068168 0.389295071363449097 -0.920047581195831299 -0.0249743741005659103 -0.0365792512893676758
112.228218078613281 4.97107267379760742 5.68213653564453125 264 1644828873.91079521 0.380982577800750732 -0.923566579818725586 -0.0278304647654294968 -0.0332035459578037262
108.484596252441406 1.36219346523284912 5.31081533432006836 265 1644828874.61196613 0.366833627223968506 -0.929511845111846924 -0.026355380192399025 -0.0273174382746219635
104.596115112304688 -2.22653341293334961 4.92893695831298828 266 1644828875.31188965 0.358138322830200195 -0.932763755321502686 -0.0286069735884666443 -0.0295027587562799454
100.680351257324219 -5.81029748916625977 4.60355329513549805 267 1644828876.01106191 0.359262377023696899 -0.932654738426208496 -0.0253494810312986374 -0.0210492983460426331
96.7342147827148438 -9.45533943176269531 4.2921452522277832 268 1644828876.71230578 0.364670813083648682 -0.930533230304718018 -0.0229989737272262573 -0.02437564916908741
92.829254150390625 -13.1428546905517578 4.00005197525024414 269 1644828877.4115932 0.368917405605316162 -0.928928852081298828 -0.0160006340593099594 -0.0271124895662069321
88.9815292358398438 -16.8502044677734375 3.7029118537902832 270 1644828878.11170936 0.373934954404830933 -0.927000820636749268 -0.0114946868270635605 -0.0266452319920063019
85.122100830078125 -20.5802936553955078 3.38629865646362305 271 1644828878.81198597 0.376772612333297729 -0.925700545310974121 -0.00864266697317361832 -0.0323456637561321259
81.2900848388671875 -24.3718547821044922 3.02733659744262695 272 1644828879.5115819 0.378336101770401001 -0.924995720386505127 -0.0155064072459936142 -0.0316901989281177521
77.5186767578125 -28.1428699493408203 2.80547380447387695 273 1644828880.21187496 0.380987614393234253 -0.924472928047180176 -0.0111977718770503998 -0.00853618234395980835
73.7947311401367188 -31.9639377593994141 2.62772440910339355 274 1644828880.91075301 0.385395228862762451 -0.922495782375335693 -0.019223969429731369 -0.0101228142157196999
70.18280029296875 -35.7436180114746094 2.45273685455322266 275 1644828881.61073232 0.390971720218658447 -0.92013019323348999 -0.0217061210423707962 -0.0055135972797870636
66.5692138671875 -39.3963165283203125 2.30383634567260742 276 1644828882.31139994 0.375493168830871582 -0.92644190788269043 -0.0258438941091299057 -0.00651263631880283356
62.8753395080566406 -42.7743568420410156 2.22640156745910645 277 1644828883.01144862 0.352334856986999512 -0.935724973678588867 -0.0167001895606517792 -3.4420532756485045e-05
58.5308570861816406 -46.1978492736816406 2.21166300773620605 278 1644828883.81196713 0.314820587635040283 -0.949141085147857666 -0.00405927002429962158 -0.001654629479162395
54.1190338134765625 -49.1265182495117188 2.24807882308959961 279 1644828884.61125779 0.275416672229766846 -0.961321711540222168 0.00136189570184797049 0.00209761830046772957
49.5993690490722656 -51.648162841796875 2.3040778636932373 280 1644828885.41114068 0.2450743168592453 -0.969478130340576172 0.00345960352569818497 0.00622303178533911705
45.011199951171875 -53.8643379211425781 2.41978955268859863 281 1644828886.21221852 0.212043926119804382 -0.977127313613891602 0.00917929597198963165 0.0132403792813420296
40.3516960144042969 -55.7218017578125 2.57030224800109863 282 1644828887.01139235 0.172278374433517456 -0.984938383102416992 0.00215412350371479988 0.0145575031638145447
35.0200920104980469 -57.2540283203125 2.80173468589782715 283 1644828887.91252351 0.125718727707862854 -0.991716861724853516 0.00360421766526997089 0.0260673500597476959
29.6320934295654297 -58.3348236083984375 3.05408573150634766 284 1644828888.81312776 0.0845527946949005127 -0.996113419532775879 0.00190940150059759617 0.0246005784720182419
24.229644775390625 -58.9301948547363281 3.34491491317749023 285 1644828889.71304607 0.0403172224760055542 -0.9987679123878479 0.00278986385092139244 0.0288001690059900284
18.8368701934814453 -59.1041603088378906 3.67021918296813965 286 1644828890.61285853 0.00230899709276854992 -0.999455571174621582 0.000524884671904146671 0.0329080075025558472
13.5041379928588867 -59.0851974487304688 4.04581975936889648 287 1644828891.51459312 0.00230105710215866566 -0.999206900596618652 0.00232663215138018131 0.0396846234798431396
8.19592571258544922 -59.2419357299804688 4.37494850158691406 288 1644828892.41355562 0.0115322666242718697 -0.999513506889343262 0.00120348646305501461 0.0289544407278299332
2.87634062767028809 -59.4319114685058594 4.7016453742980957 289 1644828893.31481981 0.0130299190059304237 -0.999404668807983398 0.00202477350831031799 0.0318809039890766144
-2.25322699546813965 -59.4521522521972656 5.04195308685302734 290 1644828894.21453786 -0.00664329389110207558 -0.999384582042694092 0.00225387257523834705 0.0343699268996715546
-7.25717020034790039 -59.1901512145996094 5.3852696418762207 291 1644828895.11666703 -0.0385622642934322357 -0.998646378517150879 0.00472866557538509369 0.0345830246806144714
-12.30242919921875 -58.6038284301757812 5.72320413589477539 292 1644828896.01821733 -0.0698115751147270203 -0.996843397617340088 0.00230167200788855553 0.0377396009862422943
-17.3887672424316406 -57.59710693359375 6.03889560699462891 293 1644828896.91794276 -0.123878814280033112 -0.99187159538269043 -0.00212379335425794125 0.0289879534393548965
-22.2686080932617188 -55.6702766418457031 6.33862161636352539 294 1644828897.8143959 -0.212108463048934937 -0.976709067821502686 0.00422237487509846687 0.0321178063750267029
-27.5343704223632812 -51.7991180419921875 6.65696811676025391 295 1644828898.9143815 -0.380749702453613281 -0.924100697040557861 0.00701879803091287613 0.0319103412330150604
-29.6709556579589844 -48.2923583984375 6.93356800079345703 296 1644828899.61660242 -0.54256737232208252 -0.839296281337738037 -0.0162699930369853973 0.0306217372417449951
