# .PCD v0.7 - Point Cloud Data file format
VERSION 0.7
FIELDS x y z intensity t qx qy qz qw
SIZE 4 4 4 4 8 4 4 4 4
TYPE F F F F F F F F F
COUNT 1 1 1 1 1 1 1 1 1
WIDTH 275
HEIGHT 1
VIEWPOINT 0 0 0 1 0 0 0
POINTS 275
DATA ascii
163.871780395507812 9.97779560089111328 7.87407207489013672 39 1644828674.02324224 0.907795608043670654 -0.418873220682144165 -0.00929756555706262589 -0.019128601998090744
167.256561279296875 5.77544546127319336 7.68083858489990234 40 1644828674.82215977 0.899101138114929199 -0.436747997999191284 -0.0143395960330963135 -0.0257430803030729294
170.685928344726562 1.64869570732116699 7.4775090217590332 41 1644828675.62130308 0.916150331497192383 -0.398988842964172363 0.00140412617474794388 -0.0383997522294521332
174.634307861328125 -2.0092620849609375 7.29452991485595703 42 1644828676.42402577 0.930192708969116211 -0.366117149591445923 -0.00731812464073300362 -0.0254204627126455307
178.586212158203125 -5.58090925216674805 7.11840152740478516 43 1644828677.22216511 0.93480217456817627 -0.353821635246276855 -0.00197132467292249203 -0.0308425575494766235
182.584945678710938 -9.09167385101318359 6.98875093460083008 44 1644828678.02309251 0.933750391006469727 -0.357135742902755737 0.00285723060369491577 -0.0235820133239030838
186.535736083984375 -12.5391769409179688 6.89377498626708984 45 1644828678.82169485 0.934790194034576416 -0.35441020131111145 0.0149285644292831421 -0.0183800645172595978
190.461837768554688 -15.9479551315307617 6.88614463806152344 46 1644828679.62112999 0.93618619441986084 -0.350654155015945435 0.0154372835531830788 -0.0189407803118228912
194.380661010742188 -19.3192386627197266 6.84801530838012695 47 1644828680.42277455 0.939592897891998291 -0.341479241847991943 0.0100842351093888283 -0.0213407855480909348
198.358123779296875 -22.7553882598876953 6.69797754287719727 48 1644828681.2218082 0.935772538185119629 -0.351854979991912842 -0.00828420929610729218 -0.0214279685169458389
202.260009765625 -26.2001457214355469 6.61891031265258789 49 1644828682.02153969 0.934124231338500977 -0.356634527444839478 0.00243713683448731899 -0.0147598413750529289
206.076797485351562 -29.7247104644775391 6.58180618286132812 50 1644828682.82230234 0.929896712303161621 -0.367299407720565796 0.00908087752759456635 -0.0173422563821077347
209.836135864257812 -33.25177001953125 6.55585479736328125 51 1644828683.62185836 0.934304177761077881 -0.354929864406585693 0.0151082752272486687 -0.0295340903103351593
214.198806762695312 -36.0022926330566406 6.54676723480224609 52 1644828684.42269349 0.964774549007415771 -0.261634886264801025 0.00714531261473894119 -0.0265737287700176239
218.725143432617188 -38.3626785278320312 6.56363630294799805 53 1644828685.22277737 0.972648143768310547 -0.231035888195037842 0.00927736796438694 -0.02217910997569561
223.320556640625 -40.5903472900390625 6.56149148941040039 54 1644828686.02227449 0.975113570690155029 -0.220961034297943115 0.00715307053178548813 -0.0166904069483280182
227.9288330078125 -42.7917442321777344 6.56107378005981445 55 1644828686.82080674 0.973955750465393066 -0.225756272673606873 0.00654639722779393196 -0.0200348477810621262
232.505874633789062 -45.1281509399414062 6.54288768768310547 56 1644828687.62495542 0.966978132724761963 -0.254679471254348755 0.00113132793921977282 -0.00950560066848993301
236.422225952148438 -48.3183135986328125 6.53367900848388672 57 1644828688.42377782 0.920228481292724609 -0.391330748796463013 -0.00283465068787336349 0.0056373882107436657
238.853927612304688 -52.8010635375976562 6.44338369369506836 58 1644828689.22396827 0.819540143013000488 -0.572854757308959961 -0.0125185316428542137 0.00588578358292579651
239.617111206054688 -57.8501167297363281 6.35615634918212891 59 1644828690.02029943 0.738406658172607422 -0.674246609210968018 -0.0120293693616986275 -0.00156828959006816149
239.749237060546875 -63.0369224548339844 6.28366374969482422 60 1644828690.82492208 0.697798490524291992 -0.715988695621490479 -0.0163387469947338104 0.0130560081452131271
239.51483154296875 -68.1358261108398438 6.30516624450683594 61 1644828691.61985755 0.703187406063079834 -0.710950255393981934 0.00510084303095936775 0.00715284468606114388
240.222457885742188 -73.2100677490234375 6.28060054779052734 62 1644828692.42007637 0.771507680416107178 -0.636219501495361328 0.000269297452177852392 0.000722352182492613792
241.837203979492188 -78.08660888671875 6.24072742462158203 63 1644828693.22117114 0.817686557769775391 -0.575582265853881836 -0.00741449324414134026 0.00622805580496788025
243.874404907226562 -82.7967758178710938 6.20137834548950195 64 1644828694.0194428 0.8396187424659729 -0.543042480945587158 -0.00696074217557907104 0.00983651541173458099
246.053619384765625 -87.4811782836914062 6.16381597518920898 65 1644828694.81911302 0.843177139759063721 -0.537581503391265869 -0.00515727046877145767 0.00564362946897745132
248.360916137695312 -92.109954833984375 6.14397621154785156 66 1644828695.61919928 0.853475213050842285 -0.520969152450561523 -0.00967895984649658203 0.00880233198404312134
250.798416137695312 -96.6392288208007812 6.13797950744628906 67 1644828696.41915917 0.86225283145904541 -0.506296813488006592 -0.00556953996419906616 0.0123517699539661407
253.571533203125 -100.970611572265625 6.13287639617919922 68 1644828697.21807456 0.883821725845336914 -0.467615991830825806 -0.00262699113227427006 0.0136937117204070091
256.936553955078125 -104.84783935546875 6.13185739517211914 69 1644828698.01982832 0.917855024337768555 -0.396446436643600464 -0.00288673024624586105 0.0190799403935670853
260.7235107421875 -108.299964904785156 6.11415910720825195 70 1644828698.81961322 0.93705219030380249 -0.349124103784561157 -0.00311302603222429752 0.00599309662356972694
264.7197265625 -111.5093994140625 6.09676837921142578 71 1644828699.61919165 0.944128751754760742 -0.329539984464645386 -0.00367288407869637012 0.00329459691420197487
268.898223876953125 -114.387565612792969 6.04770708084106445 72 1644828700.4194839 0.955224990844726562 -0.295174598693847656 -0.0100110983476042747 0.0178024750202894211
273.481414794921875 -117.135078430175781 5.99306631088256836 73 1644828701.31882811 0.962323248386383057 -0.271147668361663818 -0.00867833569645881653 0.0183729808777570724
277.82147216796875 -119.7357177734375 5.97780227661132812 74 1644828702.31884623 0.963229596614837646 -0.267821758985519409 -0.0116972029209136963 0.0179845131933689117
282.3709716796875 -122.30084228515625 5.98814105987548828 75 1644828703.8210597 0.969615161418914795 -0.244317695498466492 0.0121941547840833664 0.00257429201155900955
287.065460205078125 -124.62774658203125 5.92777013778686523 76 1644828705.42268229 0.971643149852752686 -0.236426860094070435 0.00345148565247654915 0.000218608998693525791
291.4024658203125 -127.13311767578125 5.85300731658935547 77 1644828706.62103033 0.964487254619598389 -0.263276427984237671 -0.00713149737566709518 -0.0199753530323505402
295.96307373046875 -130.096145629882812 5.54124355316162109 78 1644828707.61988616 0.955736160278320312 -0.291375041007995605 -0.0296906325966119766 -0.0280609223991632462
300.459686279296875 -133.18017578125 5.07860755920410156 79 1644828708.51965809 0.953310370445251465 -0.29843604564666748 -0.04000057652592659 -0.0231338236480951309
305.173187255859375 -136.025344848632812 4.60293340682983398 80 1644828709.42172885 0.965091347694396973 -0.257992863655090332 -0.0367657877504825592 -0.0262030549347400665
309.577728271484375 -138.497512817382812 4.16948223114013672 81 1644828710.21931195 0.966430127620697021 -0.253904908895492554 -0.0315379425883293152 -0.0234609264880418777
314.049346923828125 -141.298690795898438 3.72377943992614746 82 1644828711.02181792 0.957990169525146484 -0.282869577407836914 -0.0370201878249645233 -0.0294805224984884262
318.2039794921875 -144.485641479492188 3.23812985420227051 83 1644828711.8190589 0.937731087207794189 -0.342885404825210571 -0.0459824651479721069 -0.0312355291098356247
321.944091796875 -148.30584716796875 2.68579721450805664 84 1644828712.72036839 0.912738561630249023 -0.403654545545578003 -0.0478850193321704865 -0.0409675911068916321
325.254150390625 -152.554031372070312 2.16293144226074219 85 1644828713.82089543 0.894158482551574707 -0.443778127431869507 -0.0362985804677009583 -0.0471592172980308533
328.220123291015625 -156.620742797851562 1.70369374752044678 86 1644828715.02269173 0.892393708229064941 -0.44782412052154541 -0.0299826785922050476 -0.0467772185802459717
331.211151123046875 -160.65167236328125 1.22073531150817871 87 1644828716.61989856 0.889244735240936279 -0.452697515487670898 -0.0327519997954368591 -0.0568865053355693817
333.828216552734375 -164.987106323242188 1.15814626216888428 88 1644828718.51801896 0.858952641487121582 -0.511119246482849121 0.0226095002144575119 -0.0211253277957439423
334.526031494140625 -168.001083374023438 1.13803756237030029 89 1644828719.62171268 0.751371622085571289 -0.659411907196044922 0.00638295477256178856 -0.0239979606121778488
333.950408935546875 -169.8704833984375 1.0720517635345459 90 1644828720.21884847 0.612247645854949951 -0.790408432483673096 -0.00350038846954703331 -0.019875653088092804
332.713714599609375 -171.451141357421875 0.976091444492340088 91 1644828720.72327876 0.457208544015884399 -0.889114916324615479 -0.0078035891056060791 -0.0193432923406362534
329.0018310546875 -174.32470703125 0.752955496311187744 92 1644828721.72434425 0.293882042169570923 -0.95560765266418457 -0.00741335609927773476 -0.0198100879788398743
324.374359130859375 -176.681137084960938 0.510386109352111816 93 1644828722.61935186 0.209008544683456421 -0.977589786052703857 -0.00557279866188764572 -0.0245470255613327026
319.632049560546875 -178.672744750976562 0.257202297449111938 94 1644828723.42140627 0.206527099013328552 -0.978024840354919434 0.0084947533905506134 -0.0272353664040565491
314.803253173828125 -180.911346435546875 -0.0250558126717805862 95 1644828724.22289348 0.213643044233322144 -0.97643578052520752 0.00941870268434286118 -0.0290018077939748764
309.884185791015625 -183.121185302734375 -0.289562761783599854 96 1644828725.02224731 0.206998899579048157 -0.977773547172546387 0.0149231888353824615 -0.0297941993921995163
304.9119873046875 -185.293716430664062 -0.552805006504058838 97 1644828725.8172617 0.200875535607337952 -0.979100883007049561 0.0163851864635944366 -0.0272394251078367233
299.87762451171875 -187.402618408203125 -0.78410571813583374 98 1644828726.61767745 0.195524707436561584 -0.980193674564361572 0.0198462363332509995 -0.0244242027401924133
294.80670166015625 -189.453903198242188 -1.01601827144622803 99 1644828727.42197704 0.188076689839363098 -0.981714069843292236 0.0148023422807455063 -0.0254079569131135941
289.758453369140625 -191.381454467773438 -1.25607955455780029 100 1644828728.21884274 0.176138430833816528 -0.983803093433380127 0.0227665528655052185 -0.0242582391947507858
284.612640380859375 -193.214447021484375 -1.42206108570098877 101 1644828729.02298284 0.167369261384010315 -0.985407173633575439 0.0241981670260429382 -0.019356144592165947
279.550079345703125 -194.977462768554688 -1.49473190307617188 102 1644828729.81943846 0.160346776247024536 -0.986695468425750732 0.0174395442008972168 -0.0204156041145324707
274.5311279296875 -196.71600341796875 -1.64444780349731445 103 1644828730.61714792 0.155968219041824341 -0.987674176692962646 0.00949428323656320572 -0.00913782697170972824
269.43377685546875 -198.41925048828125 -1.80635380744934082 104 1644828731.42138529 0.163290515542030334 -0.98652958869934082 0.00977646652609109879 -0.000137383583933115005
264.34600830078125 -200.058502197265625 -1.97235751152038574 105 1644828732.21883464 0.152374431490898132 -0.988162875175476074 0.00788790825754404068 -0.0159343630075454712
259.18829345703125 -201.507553100585938 -2.14827561378479004 106 1644828733.02116179 0.134513154625892639 -0.990694224834442139 0.0133286640048027039 -0.0159231182187795639
254.0205078125 -202.82818603515625 -2.33722686767578125 107 1644828733.81624055 0.12099224328994751 -0.992434144020080566 0.0101274596527218819 -0.0182415395975112915
248.779953002929688 -204.061538696289062 -2.51204204559326172 108 1644828734.61803865 0.114942528307437897 -0.99316859245300293 0.0105347419157624245 -0.0171287450939416885
243.538589477539062 -205.285171508789062 -2.69446682929992676 109 1644828735.41624832 0.113049015402793884 -0.993295848369598389 0.0111451344564557076 -0.0214259177446365356
238.318084716796875 -206.584274291992188 -2.86459994316101074 110 1644828736.21628666 0.11812957376241684 -0.992893576622009277 0.00677566928789019585 -0.0127220470458269119
233.102035522460938 -207.898895263671875 -2.99679112434387207 111 1644828737.01565647 0.124326534569263458 -0.991982340812683105 0.0130396587774157524 -0.0185435786843299866
227.920272827148438 -209.231719970703125 -3.14291763305664062 112 1644828737.81507778 0.125367715954780579 -0.991845130920410156 0.0144819002598524094 -0.0177893303334712982
222.698318481445312 -210.46337890625 -3.31164860725402832 113 1644828738.61482215 0.105703510344028473 -0.994188070297241211 0.00978861004114151001 -0.0179158467799425125
217.435287475585938 -211.511138916015625 -3.49610066413879395 114 1644828739.41549325 0.0859144106507301331 -0.996099948883056641 0.00621650926768779755 -0.0191026031970977783
212.14654541015625 -212.442367553710938 -3.65361618995666504 115 1644828740.21573615 0.0838650688529014587 -0.996377527713775635 -0.00104275974445044994 -0.0140502071008086205
206.837554931640625 -213.133529663085938 -3.82324838638305664 116 1644828741.01584005 0.0591206401586532593 -0.998089730739593506 -0.00254398537799715996 -0.0177543554455041885
201.538040161132812 -213.580123901367188 -3.97072458267211914 117 1644828741.81417322 0.0478123463690280914 -0.998793423175811768 0.00771993445232510567 -0.00812712963670492172
196.176116943359375 -214.041473388671875 -4.13539838790893555 118 1644828742.61530232 0.0432869680225849152 -0.998765528202056885 0.0121296020224690437 -0.0211307872086763382
190.851852416992188 -214.536376953125 -4.28752756118774414 119 1644828743.41455054 0.0425933673977851868 -0.998893916606903076 0.0123440725728869438 -0.015633387491106987
185.515609741210938 -215.032196044921875 -4.45422983169555664 120 1644828744.21468425 0.0441126115620136261 -0.998958587646484375 0.00622533354908227921 -0.0098524605855345726
180.170501708984375 -215.49774169921875 -4.62544918060302734 121 1644828745.01415658 0.0417378842830657959 -0.998945355415344238 0.00192557962145656347 -0.019038638100028038
174.798568725585938 -215.877822875976562 -4.8144373893737793 122 1644828745.81390691 0.0266828238964080811 -0.999436438083648682 0.00288237514905631542 -0.0201613772660493851
169.437423706054688 -216.175521850585938 -5.02325725555419922 123 1644828746.61572838 0.0167891550809144974 -0.999782204627990723 -0.00417945859953761101 -0.0116705326363444328
164.078079223632812 -216.317306518554688 -5.22283124923706055 124 1644828747.41512275 0.00127235741820186377 -0.999978601932525635 0.00387739692814648151 -0.00511693628504872322
158.816070556640625 -216.287094116210938 -5.10645532608032227 125 1644828748.21524215 6.25008324277587235e-05 -0.99996030330657959 0.00416303053498268127 -0.00787849351763725281
153.569976806640625 -216.338272094726562 -5.16981029510498047 126 1644828749.01467872 0.00362473772838711739 -0.999983310699462891 -0.000808238284662365913 -0.0044263000600039959
148.308853149414062 -216.437774658203125 -5.25002241134643555 127 1644828749.81648993 0.00975717604160308838 -0.999923408031463623 -0.00449107447639107704 -0.00615167804062366486
143.100814819335938 -216.591323852539062 -5.26424551010131836 128 1644828750.61513019 0.0157329756766557693 -0.999858856201171875 -0.00506238359957933426 -0.00301611772738397121
137.927520751953125 -216.75238037109375 -5.29049873352050781 129 1644828751.41485953 0.0122591303661465645 -0.999912798404693604 0.00131333398167043924 -0.00473094359040260315
132.74737548828125 -216.9921875 -5.329833984375 130 1644828752.21475244 0.0169635545462369919 -0.999843776226043701 -0.000411775719840079546 -0.00495452294126152992
127.603469848632812 -217.284713745117188 -5.33208227157592773 131 1644828753.01734734 0.0266465470194816589 -0.999619662761688232 -0.00710776541382074356 0.000147071201354265213
122.496910095214844 -217.548263549804688 -5.34058618545532227 132 1644828753.81479478 0.0206328295171260834 -0.999766767024993896 -0.00636707432568073273 0.000407721759984269738
117.361724853515625 -217.7886962890625 -5.33959770202636719 133 1644828754.61505651 0.0194614864885807037 -0.999793946743011475 -0.00577283138409256935 9.29621091927401721e-05
112.248489379882812 -217.996688842773438 -5.32879352569580078 134 1644828755.41560006 0.0137706967070698738 -0.999891996383666992 -0.00326980394311249256 0.00395602593198418617
107.12091064453125 -218.234527587890625 -5.34128427505493164 135 1644828756.21632934 0.0221578329801559448 -0.999710798263549805 -0.00889314152300357819 -0.00287341815419495106
102.002815246582031 -218.566436767578125 -5.33792400360107422 136 1644828757.01626921 0.029688982293009758 -0.999413907527923584 -0.0163510441780090332 -0.00479806773364543915
96.9011001586914062 -218.961624145507812 -5.33086442947387695 137 1644828757.81692815 0.0356139391660690308 -0.999154031276702881 -0.0194943435490131378 0.00654616579413414001
91.81109619140625 -219.3050537109375 -5.30973243713378906 138 1644828758.61555743 0.019480627030134201 -0.999549150466918945 -0.0227863118052482605 0.00167547643650323153
86.71844482421875 -219.446548461914062 -5.29099941253662109 139 1644828759.41584229 0.00838471297174692154 -0.999748826026916504 -0.0205039028078317642 0.00340456585399806499
81.5880813598632812 -219.553009033203125 -5.31777429580688477 140 1644828760.21766829 0.00680092256516218185 -0.999788403511047363 -0.0190796665847301483 -0.00358541565947234631
76.482940673828125 -219.62066650390625 -5.30984115600585938 141 1644828761.0175221 -0.000125017904792912304 -0.999828875064849854 -0.0164466835558414459 0.00847000908106565475
71.3719329833984375 -219.589202880859375 -5.27990245819091797 142 1644828761.81700063 -0.00565918348729610443 -0.999963819980621338 -0.00562792550772428513 0.00293655064888298512
66.2855224609375 -219.499435424804688 -5.23036336898803711 143 1644828762.61942506 -0.00993641745299100876 -0.999926269054412842 0.000924748077522963285 0.0069194096140563488
61.2303428649902344 -219.297393798828125 -5.18400287628173828 144 1644828763.41756845 -0.023000672459602356 -0.999666690826416016 0.00988369807600975037 0.0063092322088778019
56.1471977233886719 -218.9732666015625 -5.15844440460205078 145 1644828764.21872759 -0.0380441397428512573 -0.999245643615722656 0.00779421534389257431 1.98790858121355996e-05
51.0757675170898438 -218.493606567382812 -5.15525484085083008 146 1644828765.01616216 -0.0571251809597015381 -0.998331606388092041 0.00832608062773942947 0.00119574961718171835
46.0244979858398438 -217.649078369140625 -5.15136432647705078 147 1644828765.81796384 -0.104055076837539673 -0.994545400142669678 0.00665537640452384949 0.00277099409140646458
41.1454048156738281 -216.11419677734375 -5.17004680633544922 148 1644828766.6189189 -0.17158547043800354 -0.985095500946044922 0.0119973206892609596 0.00118446291889995337
36.444793701171875 -214.019287109375 -5.19018220901489258 149 1644828767.41761899 -0.222818464040756226 -0.974800646305084229 0.0107523649930953979 6.79742370266467333e-05
31.9610309600830078 -211.500335693359375 -5.20116901397705078 150 1644828768.21865773 -0.265029162168502808 -0.964177966117858887 0.0106346933171153069 0.00270316004753112793
27.6858806610107422 -208.6239013671875 -5.23061513900756836 151 1644828769.02011633 -0.306782156229019165 -0.951748430728912354 0.00754026835784316063 0.00165369105525314808
23.6673908233642578 -205.505081176757812 -5.21131181716918945 152 1644828769.82149673 -0.334941208362579346 -0.942048966884613037 -0.000420009862864390016 0.0189208798110485077
19.8219871520996094 -202.20428466796875 -5.23343467712402344 153 1644828770.62113333 -0.362380892038345337 -0.931934893131256104 0.00123218121007084846 0.0132646821439266205
16.0883827209472656 -198.778076171875 -5.22417402267456055 154 1644828771.41792083 -0.362588942050933838 -0.931856513023376465 -7.57201705710031092e-05 0.013140789233148098
12.3606882095336914 -195.40386962890625 -4.99722814559936523 155 1644828772.21973133 -0.359346121549606323 -0.932872533798217773 -0.0173155292868614197 0.0178711730986833572
8.26542282104492188 -191.612014770507812 -4.73375940322875977 156 1644828773.12083578 -0.368826627731323242 -0.929456233978271484 -0.00180884113069623709 -0.00864408258348703384
4.33727025985717773 -187.813522338867188 -4.58450412750244141 157 1644828774.01801133 -0.376652985811233521 -0.92586815357208252 -0.0170011259615421295 0.0247327163815498352
0.491585671901702881 -183.96197509765625 -4.28455162048339844 158 1644828774.91865659 -0.383171379566192627 -0.923124074935913086 -0.00744458474218845367 0.0310833435505628586
-3.49379229545593262 -180.273696899414062 -4.03671646118164062 159 1644828775.81965351 -0.35747113823890686 -0.933523118495941162 -0.0105205914005637169 0.0252643842250108719
-7.55713319778442383 -176.793136596679688 -3.70801758766174316 160 1644828776.7194562 -0.354358077049255371 -0.934240400791168213 -0.0223500281572341919 0.0335521511733531952
-11.5537986755371094 -173.200714111328125 -3.40560507774353027 161 1644828777.61980677 -0.366571873426437378 -0.929701805114746094 -0.0235861167311668396 0.0268941037356853485
-15.4172506332397461 -169.545211791992188 -3.04979324340820312 162 1644828778.52001047 -0.378573328256607056 -0.924799919128417969 -0.0241601597517728806 0.0290459208190441132
-19.2020950317382812 -165.876022338867188 -2.63306427001953125 163 1644828779.41997457 -0.376062661409378052 -0.925659835338592529 -0.0267421305179595947 0.0318689681589603424
-22.9878616333007812 -162.279769897460938 -2.26334190368652344 164 1644828780.31817365 -0.375128418207168579 -0.926063954830169678 -0.0302591659128665924 0.027723437175154686
-26.8002548217773438 -158.71600341796875 -1.9249342679977417 165 1644828781.21948767 -0.370589941740036011 -0.927608013153076172 -0.0374096333980560303 0.0284084826707839966
-30.5455379486083984 -155.2230224609375 -1.43048775196075439 166 1644828782.11880326 -0.365968525409698486 -0.928804218769073486 -0.0344729200005531311 0.0469193346798419952
-34.2974433898925781 -151.827682495117188 -0.987492680549621582 167 1644828783.01997018 -0.362329274415969849 -0.930600166320800781 -0.0301172621548175812 0.0423533059656620026
-38.2888336181640625 -148.078872680664062 -0.499776452779769897 168 1644828784.01866508 -0.375013440847396851 -0.925979971885681152 -0.0196336153894662857 0.0392491035163402557
-42.0502052307128906 -144.267044067382812 -0.0291375704109668732 169 1644828785.01975799 -0.392265975475311279 -0.918650031089782715 -0.0152714932337403297 0.0444558598101139069
-45.5663566589355469 -140.36700439453125 0.380153506994247437 170 1644828786.01726556 -0.410964548587799072 -0.910447478294372559 -0.013701876625418663 0.0447861738502979279
-48.975341796875 -136.346878051757812 0.804966330528259277 171 1644828787.01884818 -0.42626681923866272 -0.903569042682647705 -0.0129069266840815544 0.0411459505558013916
-52.3495101928710938 -132.245208740234375 1.19902932643890381 172 1644828788.01447535 -0.433841168880462646 -0.899963021278381348 -0.0194798801094293594 0.0383265092968940735
-55.6418418884277344 -127.948074340820312 1.57647049427032471 173 1644828789.01395559 -0.444937169551849365 -0.894651532173156738 -0.0050134570337831974 0.0400553345680236816
-58.7803993225097656 -123.472755432128906 2.02001309394836426 174 1644828790.01617193 -0.477614223957061768 -0.877351522445678711 -0.00529257301241159439 0.0459446832537651062
-61.1512603759765625 -118.592086791992188 2.4680335521697998 175 1644828791.01325083 -0.552044212818145752 -0.832267343997955322 -0.00997765455394983292 0.0497871376574039459
-62.8328742980957031 -113.389991760253906 2.93342208862304688 176 1644828792.01618409 -0.599978387355804443 -0.798289120197296143 -0.0104318559169769287 0.051493380218744278
-64.1273574829101562 -108.058738708496094 3.3521876335144043 177 1644828793.01766491 -0.628428280353546143 -0.776696205139160156 -0.013529566116631031 0.0404706709086894989
-65.1598892211914062 -102.636260986328125 3.72595977783203125 178 1644828794.01339555 -0.646740555763244629 -0.761631011962890625 -0.0215965248644351959 0.0343287251889705658
-65.7094497680664062 -97.6338424682617188 4.07934713363647461 179 1644828794.91343975 -0.681168138980865479 -0.730910062789916992 -0.0254678893834352493 0.0336427278816699982
-65.82318115234375 -92.544158935546875 4.38358211517333984 180 1644828795.81809664 -0.70974123477935791 -0.703325867652893066 -0.0187066700309514999 0.035357300192117691
-65.5721206665039062 -87.0141983032226562 5.01096010208129883 181 1644828796.81630015 -0.728380680084228516 -0.684299468994140625 -0.0171536654233932495 0.030026264488697052
-65.1721267700195312 -81.8404464721679688 5.37673568725585938 182 1644828797.91753602 -0.73113560676574707 -0.680872082710266113 -0.0227121487259864807 0.0365799739956855774
-64.7275161743164062 -76.6344680786132812 5.79717731475830078 183 1644828799.21471477 -0.736139595508575439 -0.675747990608215332 -0.0203803554177284241 0.0323699787259101868
-64.3300857543945312 -71.6636123657226562 6.17761802673339844 184 1644828800.81536341 -0.736283063888549805 -0.675429582595825195 -0.0252824593335390091 0.032294195145368576
-63.8833274841308594 -66.681854248046875 6.56207704544067383 185 1644828802.91584778 -0.745128452777862549 -0.665745437145233154 -0.0249069128185510635 0.0307605564594268799
-62.51812744140625 -63.7950706481933594 6.80739498138427734 186 1644828804.31534934 -0.852891147136688232 -0.520021677017211914 -0.0214969534426927567 0.0411347039043903351
-59.6592903137207031 -60.8600807189941406 7.04925727844238281 187 1644828805.51588893 -0.931742250919342041 -0.360563278198242188 -0.00921863503754138947 0.0420180223882198334
-54.9302177429199219 -58.3153343200683594 7.1744384765625 188 1644828806.81663728 -0.974410712718963623 -0.218256637454032898 -0.0079638361930847168 0.053145088255405426
-49.8475227355957031 -56.7793731689453125 7.37277412414550781 189 1644828807.9171083 -0.993635833263397217 -0.107313215732574463 -0.0190033838152885437 0.0284711252897977829
-44.5462226867675781 -56.3796501159667969 7.3092951774597168 190 1644828809.01656866 -0.999760568141937256 -0.00665053771808743477 0.0136518292129039764 0.0157540701329708099
-39.5081329345703125 -56.8094825744628906 7.11719703674316406 191 1644828810.2186327 -0.996192514896392822 0.0645890012383460999 0.0574569627642631531 0.0112887760624289513
-34.3454322814941406 -57.0877571105957031 7.01178884506225586 192 1644828811.81924391 -0.999898672103881836 0.00938405469059944153 0.00915615446865558624 0.00554604921489953995
-30.4841156005859375 -53.8326644897460938 6.80643796920776367 193 1644828813.2213366 -0.860550582408905029 -0.507348120212554932 0.0256680902093648911 0.0373064428567886353
-29.4972457885742188 -48.7788810729980469 6.89672327041625977 194 1644828814.31891656 -0.751069366931915283 -0.658168554306030273 0.0154156498610973358 0.0497122518718242645
-29.5441112518310547 -43.5617599487304688 7.14021015167236328 195 1644828815.3169353 -0.700862109661102295 -0.712493717670440674 -0.00519902957603335381 0.0334359481930732727
-29.7132434844970703 -38.1384391784667969 7.45285892486572266 196 1644828816.31486392 -0.694819629192352295 -0.717767536640167236 -0.00632263021543622017 0.0446710698306560516
-29.8296794891357422 -33.0243644714355469 7.72746849060058594 197 1644828817.2178638 -0.701593995094299316 -0.711570441722869873 0.000348964531440287828 0.0378584153950214386
-29.8621234893798828 -27.7954158782958984 8.03232669830322266 198 1644828818.11479282 -0.695172727108001709 -0.717406094074249268 -0.000814860512036830187 0.0454176068305969238
-30.6615371704101562 -22.47802734375 8.29685401916503906 199 1644828819.01568913 -0.647138655185699463 -0.761983394622802734 -0.0187084414064884186 0.0155851962044835091
-31.9445590972900391 -17.2065029144287109 8.47458076477050781 200 1644828819.91556048 -0.613786458969116211 -0.789277017116546631 -0.0174712296575307846 0.00166239531245082617
-33.4348564147949219 -12.2291135787963867 8.60647964477539062 201 1644828820.81453204 -0.586654603481292725 -0.809724211692810059 -0.0127529352903366089 0.00452656392008066177
-34.972442626953125 -7.03948688507080078 8.73812389373779297 202 1644828821.81530023 -0.634326517581939697 -0.772446930408477783 -0.0300533473491668701 -0.00724386796355247498
-33.6631927490234375 -1.9745934009552002 8.78168964385986328 203 1644828822.81694889 -0.856643855571746826 -0.514336585998535156 -0.0116866352036595345 -0.0385047979652881622
-31.8173789978027344 -0.241025641560554504 8.78970050811767578 204 1644828823.31319189 -0.935244560241699219 -0.352528989315032959 -0.00609167572110891342 -0.0316834524273872375
-29.4492893218994141 0.734578728675842285 8.76801300048828125 205 1644828823.81362939 -0.985691547393798828 -0.159911811351776123 0.0114944120869040489 -0.0520413517951965332
-27.0175552368164062 0.584892749786376953 8.75454521179199219 206 1644828824.31438565 -0.999213516712188721 0.0266822762787342072 0.0153968445956707001 -0.0249675493687391281
-24.7536487579345703 -0.390364199876785278 8.68242931365966797 207 1644828824.81438398 -0.977724969387054443 0.207793056964874268 0.0259471628814935684 -0.0142380790784955025
-22.8676872253417969 -2.0943453311920166 8.60777473449707031 208 1644828825.31432629 -0.916055798530578613 0.396445691585540771 0.0458254963159561157 -0.039655730128288269
-21.7613201141357422 -4.78416633605957031 8.61655616760253906 209 1644828825.91399431 -0.823079884052276611 0.567223846912384033 0.0176217611879110336 -0.0220464356243610382
-21.5420379638671875 -7.83226633071899414 8.6262664794921875 210 1644828826.51367211 -0.711091279983520508 0.702518880367279053 0.0227849669754505157 -0.0172415021806955338
-22.4907684326171875 -10.8441953659057617 8.58803939819335938 211 1644828827.11519146 -0.552449405193328857 0.832400679588317871 0.043383084237575531 -0.00516048632562160492
-24.5057392120361328 -13.0568122863769531 8.59260272979736328 212 1644828827.7142086 -0.371555954217910767 0.927515327930450439 0.0393380336463451385 -0.0106786508113145828
-26.72772216796875 -14.0664129257202148 8.58907699584960938 213 1644828828.21388054 -0.198778092861175537 0.979274153709411621 0.0387117564678192139 0.00329355522990226746
-29.0494403839111328 -14.1851568222045898 8.61276912689208984 214 1644828828.71309781 -0.0192909818142652512 0.999260902404785156 0.0327926129102706909 0.00548650883138179779
-31.2871150970458984 -13.4968538284301758 8.58820247650146484 215 1644828829.21509504 0.16399209201335907 0.985342681407928467 0.0417138226330280304 0.0215950179845094681
-33.0154647827148438 -12.1033124923706055 8.61721038818359375 216 1644828829.71324992 0.337765365839004517 0.940332591533660889 0.0371978022158145905 0.0174791458994150162
-33.3514022827148438 -3.15194869041442871 8.80327510833740234 217 1644828831.81250525 0.853133797645568848 0.520843446254730225 0.0140313189476728439 0.0262300167232751846
-24.5523929595947266 -0.692271053791046143 8.67597484588623047 218 1644828833.8154366 0.99088817834854126 -0.132006004452705383 -0.020683610811829567 0.0169489532709121704
-16.6449298858642578 -6.22472238540649414 8.52624416351318359 219 1644828835.51483083 0.96374887228012085 -0.266692787408828735 -0.000495002546813338995 -0.00792701821774244308
-11.9081563949584961 -7.86495828628540039 8.47145175933837891 220 1644828836.31396031 0.99091649055480957 -0.133765429258346558 -0.00342960981652140617 -0.0134002305567264557
-6.84679269790649414 -8.82460403442382812 8.31044578552246094 221 1644828837.11456561 0.996385455131530762 -0.0837005749344825745 -0.0144648635759949684 -0.000979203032329678535
-1.53924942016601562 -9.35927677154541016 8.00379371643066406 222 1644828837.91365933 0.998542249202728271 -0.0396832525730133057 -0.0358111560344696045 0.00749304145574569702
3.95932936668395996 -9.25638008117675781 7.52478122711181641 223 1644828838.71595526 0.998525142669677734 0.0333110690116882324 -0.0428669154644012451 -0.000598701590206474066
9.51121997833251953 -8.10833549499511719 7.05457592010498047 224 1644828839.51508832 0.993203222751617432 0.108590103685855865 -0.0374125689268112183 0.0188653860241174698
14.4219350814819336 -6.80835580825805664 6.74498367309570312 225 1644828840.21520042 0.990111589431762695 0.138522863388061523 -0.0206802207976579666 0.0079236319288611412
19.1283664703369141 -4.95142698287963867 6.5460352897644043 226 1644828840.91491079 0.974509716033935547 0.223363623023033142 -0.0188611987978219986 -0.00915221218019723892
23.7353096008300781 -1.70948588848114014 6.48624134063720703 227 1644828841.7139225 0.942461669445037842 0.333992093801498413 -0.00760162808001041412 -0.012551572173833847
27.6926002502441406 1.99768710136413574 6.48543596267700195 228 1644828842.51550341 0.92729109525680542 0.37431904673576355 -0.00280004367232322693 -0.00294771278277039528
31.3632755279541016 5.75111579895019531 6.49662351608276367 229 1644828843.31528115 0.920668065547943115 0.390311241149902344 -0.00133590365294367075 -0.00506770145148038864
34.9608268737792969 9.47389888763427734 6.4997096061706543 230 1644828844.11704993 0.921559751033782959 0.388107359409332275 -0.00595763511955738068 -0.00805135816335678101
38.5273971557617188 13.1499614715576172 6.54423189163208008 231 1644828844.91559935 0.921634674072265625 0.38776734471321106 -0.00324334437027573586 -0.0146811706945300102
42.052978515625 16.8711032867431641 6.56954574584960938 232 1644828845.71673226 0.915521860122680664 0.401895076036453247 -0.00404423009604215622 -0.0168442931026220322
45.4186325073242188 20.7394657135009766 6.62245798110961914 233 1644828846.51817799 0.913038253784179688 0.407787293195724487 -0.00784192699939012527 -0.00303515768609941006
49.1708717346191406 24.2019672393798828 6.58437728881835938 234 1644828847.31954241 0.936469674110412598 0.350465714931488037 -0.00621942058205604553 -0.0126363933086395264
52.9453620910644531 27.6280078887939453 6.61389493942260742 235 1644828848.1182735 0.934949040412902832 0.354642003774642944 0.00810362305492162704 -0.00580594781786203384
56.6228981018066406 31.1326274871826172 6.71111631393432617 236 1644828848.91844583 0.927962839603424072 0.372345089912414551 0.0149689400568604469 -0.0044753318652510643
60.5508384704589844 35.1021957397460938 6.90953350067138672 237 1644828849.81832647 0.920752406120300293 0.389741212129592896 0.0159353874623775482 -0.00792717188596725464
64.3249435424804688 39.1636848449707031 7.09820938110351562 238 1644828850.71644521 0.916377604007720947 0.399831175804138184 0.0173935927450656891 -0.00919661857187747955
68.0597381591796875 43.2835197448730469 7.26259899139404297 239 1644828851.61770892 0.908276855945587158 0.418048590421676636 0.00536905787885189056 -0.0154812820255756378
70.5020599365234375 48.17669677734375 7.44002199172973633 240 1644828852.51929688 0.814026951789855957 0.580300331115722656 0.00590680213645100594 -0.0240156613290309906
70.8967742919921875 53.6300926208496094 7.56776237487792969 241 1644828853.41657495 0.711446285247802734 0.702640235424041748 0.00451068626716732979 -0.0109791066497564316
71.6067276000976562 59.0762748718261719 7.67777299880981445 242 1644828854.31309819 0.796326577663421631 0.604578793048858643 0.0168278869241476059 0.00808233208954334259
74.5920867919921875 63.7471351623535156 7.72621250152587891 243 1644828855.21536279 0.899579226970672607 0.436629652976989746 0.00543355662375688553 -0.00906689092516899109
78.1318893432617188 67.316253662109375 7.71799516677856445 244 1644828856.01452708 0.931579530239105225 0.363508790731430054 -0.00188196019735187292 -0.00416570622473955154
82.0198822021484375 70.5835800170898438 7.73536109924316406 245 1644828856.81724215 0.940745234489440918 0.338999062776565552 0.00198843330144882202 -0.00861070398241281509
86.3609771728515625 73.8790283203125 7.74027872085571289 246 1644828857.71968007 0.960702359676361084 0.276563912630081177 -0.0106506720185279846 0.0212126336991786957
94.3631744384765625 74.1548843383789062 7.75417757034301758 247 1644828859.21869326 0.981786906719207764 -0.188569203019142151 -0.0167544744908809662 0.0159819070249795914
97.3530654907226562 71.7597732543945312 7.71506595611572266 248 1644828859.91414785 0.932041943073272705 -0.362050056457519531 -0.0055059860460460186 0.0136842038482427597
99.4585723876953125 68.191680908203125 7.6947026252746582 249 1644828860.61980391 0.848999500274658203 -0.528259098529815674 -0.00162128487136214972 -0.0118123246356844902
101.12939453125 62.8929786682128906 7.60719585418701172 250 1644828861.51322651 0.800323963165283203 -0.599200785160064697 0.0090205799788236618 -0.0189374946057796478
102.987083435058594 58.2195854187011719 7.64158535003662109 251 1644828862.31667662 0.847829282283782959 -0.529067754745483398 0.021932872012257576 -0.0281376838684082031
106.184333801269531 54.3130874633789062 7.62908697128295898 252 1644828863.11297345 0.916203498840332031 -0.399641335010528564 0.00693941488862037659 -0.0284563452005386353
109.837638854980469 50.8365592956542969 7.63515186309814453 253 1644828863.91305852 0.925438165664672852 -0.378657609224319458 0.00534020084887742996 -0.0124117759987711906
113.412818908691406 47.2610664367675781 7.62711429595947266 254 1644828864.71076894 0.926648318767547607 -0.375107795000076294 0.0116564230993390083 -0.0219365544617176056
117.713569641113281 44.6065521240234375 7.6503448486328125 255 1644828865.51176882 0.974721312522888184 -0.220568180084228516 0.00931165739893913269 -0.0343702547252178192
128.911666870117188 38.87762451171875 8.26004981994628906 256 1644828867.61065984 0.932476460933685303 -0.356142580509185791 0.0602952949702739716 0.00382261956110596657
132.066314697265625 33.0757484436035156 8.21855068206787109 257 1644828868.71135759 0.795610249042510986 -0.605014801025390625 0.0100262900814414024 -0.0293413251638412476
132.075302124023438 29.3359394073486328 8.06004524230957031 258 1644828869.31134224 0.664654970169067383 -0.746408998966217041 -0.0156662575900554657 -0.0293595883995294571
130.68402099609375 25.8213291168212891 7.77768898010253906 259 1644828869.91043472 0.523283004760742188 -0.850467860698699951 -0.0408331193029880524 -0.0348134301602840424
127.754562377929688 21.5092010498046875 7.38726282119750977 260 1644828870.71384025 0.451342135667800903 -0.891438007354736328 -0.0306463092565536499 -0.0262563750147819519
124.0916748046875 17.4228954315185547 6.95294332504272461 261 1644828871.51248956 0.389308363199234009 -0.920207619667053223 -0.0292961746454238892 -0.0282598827034235001
120.222740173339844 13.3753061294555664 6.55259180068969727 262 1644828872.31138706 0.396198898553848267 -0.917293131351470947 -0.0199052859097719193 -0.0346917659044265747
116.787246704101562 9.70093441009521484 6.19254875183105469 263 1644828873.01191497 0.395229160785675049 -0.917636573314666748 -0.0192120261490345001 -0.0369856134057044983
113.261688232421875 6.01500463485717773 5.80122709274291992 264 1644828873.71089959 0.381712108850479126 -0.923151314258575439 -0.0256615914404392242 -0.0378015898168087006
109.553619384765625 2.36440372467041016 5.40953397750854492 265 1644828874.41483068 0.371068239212036133 -0.927556216716766357 -0.0318430103361606598 -0.0305588822811841965
105.727775573730469 -1.19661545753479004 5.03976821899414062 266 1644828875.11093879 0.360870301723480225 -0.93172001838684082 -0.0296788997948169708 -0.0281000621616840363
101.80523681640625 -4.77806615829467773 4.6894831657409668 267 1644828875.81083584 0.358137726783752441 -0.932913243770599365 -0.0262128561735153198 -0.0268909931182861328
97.8515472412109375 -8.40795707702636719 4.37920570373535156 268 1644828876.51244426 0.360400408506393433 -0.932192146778106689 -0.0224017146974802017 -0.0250501614063978195
93.948974609375 -12.0878448486328125 4.08118867874145508 269 1644828877.21192551 0.369812935590744019 -0.928631305694580078 -0.0192154254764318466 -0.0226505491882562637
90.084808349609375 -15.799656867980957 3.785614013671875 270 1644828877.9117434 0.374466508626937866 -0.926802396774291992 -0.0159208569675683975 -0.0236357934772968292
86.2347335815429688 -19.5236110687255859 3.47968816757202148 271 1644828878.61231804 0.376206636428833008 -0.926002085208892822 -0.0130191678181290627 -0.028622020035982132
82.3739547729492188 -23.2846565246582031 3.12904572486877441 272 1644828879.31177354 0.375277698040008545 -0.926082313060760498 -0.0144568579271435738 -0.0364584363996982574
78.577880859375 -27.0738620758056641 2.84873414039611816 273 1644828880.0118978 0.377512812614440918 -0.925696253776550293 -0.0140767060220241547 -0.0192961245775222778
74.8334274291992188 -30.8876132965087891 2.66643691062927246 274 1644828880.71066737 0.38318103551864624 -0.923354566097259521 -0.0192474108189344406 -0.0147722475230693817
71.1886215209960938 -34.6969718933105469 2.49290132522583008 275 1644828881.41088963 0.387270867824554443 -0.921369194984436035 -0.0297235753387212753 -0.0147185223177075386
67.6108932495117188 -38.3855476379394531 2.32851600646972656 276 1644828882.11099863 0.379850596189498901 -0.924436032772064209 -0.031823478639125824 -0.0108988117426633835
63.9415473937988281 -41.8397064208984375 2.23462319374084473 277 1644828882.8116374 0.361562162637710571 -0.932149767875671387 -0.0191318076103925705 -0.00189734413288533688
59.6263504028320312 -45.3943595886230469 2.20775079727172852 278 1644828883.61141992 0.327180981636047363 -0.94492030143737793 -0.00863031484186649323 -0.00194358115550130606
55.2217330932617188 -48.4337005615234375 2.23793768882751465 279 1644828884.41163993 0.284600168466567993 -0.958641767501831055 0.00259911571629345417 0.00137550930958241224
50.7344894409179688 -51.0505867004394531 2.29140973091125488 280 1644828885.21324968 0.248468175530433655 -0.968600571155548096 0.00317806866951286793 0.00814903154969215393
46.1734275817871094 -53.3318061828613281 2.38464188575744629 281 1644828886.01104116 0.219247490167617798 -0.975586175918579102 0.00833687838166952133 0.00962333660572767258
41.5176963806152344 -55.29681396484375 2.53123712539672852 282 1644828886.81222296 0.183488756418228149 -0.982915699481964111 0.00660139089450240135 0.012847578153014183
36.1914520263671875 -56.9537200927734375 2.74100589752197266 283 1644828887.71265769 0.134176671504974365 -0.990768849849700928 0.00518341222777962685 0.018624570220708847
30.8397884368896484 -58.1302986145019531 2.99025940895080566 284 1644828888.61164141 0.094546295702457428 -0.995228946208953857 0.00307858409360051155 0.0238931942731142044
25.4323101043701172 -58.8343315124511719 3.27804303169250488 285 1644828889.51246405 0.0511640124022960663 -0.998325824737548828 0.0046721617691218853 0.0265696551650762558
20.0276603698730469 -59.1004981994628906 3.59404850006103516 286 1644828890.4127357 0.0083909323439002037 -0.999526798725128174 0.000217147768125869334 0.0295926742255687714
14.682011604309082 -59.0620346069335938 3.95958590507507324 287 1644828891.31303787 -0.00169098353944718838 -0.999402523040771484 0.00285127200186252594 0.0344030559062957764
9.36186790466308594 -59.2073173522949219 4.29985332489013672 288 1644828892.21498799 0.0115163438022136688 -0.999500036239624023 4.92089238832704723e-05 0.0294449292123317719
4.065521240234375 -59.3916702270507812 4.62719345092773438 289 1644828893.1142683 0.0134720532223582268 -0.999374866485595703 0.00151103269308805466 0.0326509736478328705
-1.16499936580657959 -59.4699630737304688 4.9662013053894043 290 1644828894.01552176 0.000685956387314945459 -0.9994468092918396 0.00235670083202421665 0.033167228102684021
-6.68388509750366211 -59.2382926940917969 5.3535161018371582 291 1644828895.01377487 -0.0329131521284580231 -0.998756945133209229 0.0035572471097111702 0.0372641086578369141
-11.7287807464599609 -58.6823081970214844 5.67354822158813477 292 1644828895.91633677 -0.0680286884307861328 -0.996965885162353516 0.00480808829888701439 0.037523273378610611
-16.8182220458984375 -57.7542800903320312 6.00460672378540039 293 1644828896.81717467 -0.113126978278160095 -0.993150234222412109 -0.00280997809022665024 0.0291028264909982681
-21.7585659027099609 -55.9094581604003906 6.2987513542175293 294 1644828897.71767664 -0.205875188112258911 -0.97809898853302002 0.00873135868459939957 0.0293526444584131241
-27.5243873596191406 -51.8003425598144531 6.65517377853393555 295 1644828898.9143815 -0.380805522203445435 -0.92409050464630127 0.00650028092786669731 0.0316483452916145325
-29.6733074188232422 -48.2889938354492188 6.93272066116333008 296 1644828899.61660242 -0.542576611042022705 -0.839290440082550049 -0.0164128672331571579 0.0305409189313650131
-29.7086944580078125 -36.0613136291503906 7.56746721267700195 297 1644828901.71341038 -0.74913179874420166 -0.661280214786529541 -0.000185557713848538697 0.0388585254549980164
-27.5844173431396484 -24.2134132385253906 8.16499423980712891 298 1644828903.71472073 -0.783643543720245361 -0.619045257568359375 -0.00753302453085780144 0.0512747578322887421
-26.0372772216796875 -19.0287456512451172 8.47382450103759766 299 1644828904.61434913 -0.8290671706199646 -0.558766484260559082 -0.0174903757870197296 0.0110346619039773941
-21.9745235443115234 -12.9417085647583008 8.55485057830810547 300 1644828905.81437898 -0.917367815971374512 -0.39777141809463501 -0.00474105169996619225 -0.0138477878645062447
-17.79095458984375 -10.2667465209960938 8.55552387237548828 301 1644828906.61491346 -0.97707676887512207 -0.212784335017204285 -0.00389547948725521564 -0.00535443099215626717
-4.48272466659545898 -9.75015449523925781 8.21136474609375 302 1644828908.71338224 -0.999521970748901367 0.0163272209465503693 0.0239014122635126114 -0.0108619881793856621
9.237945556640625 -8.67658519744873047 7.12319183349609375 303 1644828910.71353149 -0.993415415287017822 -0.110164344310760498 0.0306069422513246536 -0.00726661551743745804
22.3588409423828125 -2.86704325675964355 6.49126291275024414 304 1644828912.71402907 -0.954445362091064453 -0.298196971416473389 0.00411309767514467239 0.00978295691311359406
32.2857437133789062 6.21839570999145508 6.49550151824951172 305 1644828914.71431971 -0.92459714412689209 -0.380878448486328125 0.00394207285717129707 0.00602013524621725082
41.6288108825683594 16.0125942230224609 6.55476760864257812 306 1644828916.81512904 -0.920597374439239502 -0.390236258506774902 0.00454073399305343628 0.0139847733080387115
50.6005897521972656 25.2063922882080078 6.57493114471435547 307 1644828918.81596136 -0.923953354358673096 -0.382356494665145874 0.00413606595247983932 0.00982551276683807373
59.6171607971191406 34.1064529418945312 6.86015510559082031 308 1644828920.81824207 -0.927791953086853027 -0.372819185256958008 -0.0131566887721419334 0.00590502144768834114
68.4024276733398438 43.6204872131347656 7.27502584457397461 309 1644828922.91322303 -0.882134735584259033 -0.47068437933921814 -0.00168211373966187239 0.0170798543840646744
70.9559783935546875 55.5401725769042969 7.58525466918945312 310 1644828924.91728783 -0.742861151695251465 -0.669360578060150146 -0.0102561870589852333 0.00292066461406648159
77.2303466796875 66.6480712890625 7.71133279800415039 311 1644828927.01394343 -0.931724309921264648 -0.363161981105804443 -0.00128199136815965176 -0.00126142054796218872
86.7159652709960938 75.9052276611328125 7.8009185791015625 312 1644828929.11464953 -0.894723832607269287 -0.445877909660339355 -0.00180011172778904438 0.0256700534373521805
88.350311279296875 79.331024169921875 7.81375598907470703 313 1644828929.71407676 -0.798084914684295654 -0.60092616081237793 0.0303080789744853973 0.0320888310670852661
