# .PCD v0.7 - Point Cloud Data file format
VERSION 0.7
FIELDS x y z intensity t qx qy qz qw
SIZE 4 4 4 4 8 4 4 4 4
TYPE F F F F F F F F F
COUNT 1 1 1 1 1 1 1 1 1
WIDTH 162
HEIGHT 1
VIEWPOINT 0 0 0 1 0 0 0
POINTS 162
DATA ascii
62.0536575317382812 119.61444091796875 7.69736766815185547 0 1644824109.95601797 0.999944150447845459 3.89129745599348098e-05 -0.003974108025431633 0.00979107804596424103
62.0460662841796875 119.622802734375 7.69799375534057617 1 1644824110.05283737 0.999959766864776611 -0.00121513067279011011 -0.00413640262559056282 0.00786309968680143356
62.0437698364257812 119.632743835449219 7.68832302093505859 2 1644824110.15396023 0.999974668025970459 -0.00173785828519612551 -0.00480726175010204315 0.00495405588299036026
62.0505599975585938 119.628433227539062 7.69165945053100586 3 1644824110.2539444 0.999946057796478271 5.30876968696247786e-06 -0.00318269454874098301 0.00988695584237575531
62.0444717407226562 119.624305725097656 7.69512414932250977 4 1644824110.35260844 0.999939322471618652 -0.00087417504983022809 -0.00583014125004410744 0.00930725038051605225
62.0374488830566406 119.636489868164062 7.69425582885742188 5 1644824110.45322943 0.999977409839630127 -0.00125555309932678938 -0.00398042146116495132 0.00526947993785142899
62.0422630310058594 119.631256103515625 7.69570446014404297 6 1644824110.55369496 0.999961912631988525 -0.000573596975300461054 -0.00471399817615747452 0.00731889205053448677
62.0453605651855469 119.628257751464844 7.69419145584106445 7 1644824110.65467739 0.999943017959594727 -0.0010712652001529932 -0.00404790416359901428 0.00981891993433237076
62.0327033996582031 119.627311706542969 7.70311355590820312 8 1644824110.75253034 0.999976575374603271 0.000700632575899362564 1.84544805961195379e-05 0.00680510932579636574
62.0051651000976562 119.607879638671875 7.71234035491943359 9 1644824110.85397768 0.999974608421325684 0.00233565503731369972 0.00672867335379123688 0.000249849777901545167
61.969146728515625 119.533317565917969 7.71047449111938477 10 1644824110.95428634 0.999940276145935059 0.0101266065612435341 0.00164194195531308651 0.00377417937852442265
61.9334449768066406 119.449134826660156 7.71387338638305664 11 1644824111.05292606 0.999782919883728027 0.0175482351332902908 0.00986106507480144501 0.00537435151636600494
61.8546791076660156 119.328887939453125 7.71397542953491211 12 1644824111.15321541 0.999605417251586914 0.0277496352791786194 0.00336613692343235016 0.00275699771009385586
61.7849197387695312 119.196449279785156 7.7196044921875 13 1644824111.25333047 0.999143123626708984 0.0406404398381710052 0.00779876857995986938 0.0007364042685367167
61.70635986328125 119.019386291503906 7.71884250640869141 14 1644824111.35258293 0.998505055904388428 0.0540921799838542938 0.00513631477952003479 0.00594037119299173355
61.6163444519042969 118.849853515625 7.71645545959472656 15 1644824111.45447278 0.997731328010559082 0.0667684450745582581 0.00682343635708093643 0.00525809265673160553
61.51611328125 118.681045532226562 7.70887184143066406 16 1644824111.553303 0.997040867805480957 0.0768352225422859192 0.00229708990082144737 0.0007871618727222085
61.4247283935546875 118.505950927734375 7.70924043655395508 17 1644824111.65530539 0.99642568826675415 0.0844436958432197571 -0.00116439745761454105 0.00193059025332331657
61.3388710021972656 118.343986511230469 7.71433353424072266 18 1644824111.75322556 0.99582439661026001 0.0912418961524963379 0.00114701641723513603 0.00271039316430687904
61.2512397766113281 118.182350158691406 7.71750879287719727 19 1644824111.85438037 0.995558798313140869 0.0941086485981941223 0.000321107974741607904 0.00247209612280130386
61.1695938110351562 118.018402099609375 7.71954584121704102 20 1644824111.95489287 0.994627296924591064 0.103478454053401947 -0.00124292366672307253 0.00267678732052445412
59.8723640441894531 113.949470520019531 7.81599807739257812 21 1644824114.05738854 0.961155295372009277 0.275885283946990967 0.00473161321133375168 -0.00673739146441221237
60.2458000183105469 110.753486633300781 7.84628105163574219 22 1644824115.05577374 0.897256135940551758 0.441317379474639893 -0.0126136830076575279 -0.00335139548406004906
62.3246307373046875 106.570167541503906 7.88346147537231445 23 1644824116.55786824 0.805260002613067627 0.592822015285491943 -0.00386151089332997799 0.0101703796535730362
65.9078140258789062 102.744758605957031 7.93738651275634766 24 1644824118.05555511 0.688431084156036377 0.725028574466705322 -0.0154500864446163177 0.0125496126711368561
66.38458251953125 102.365928649902344 7.91453456878662109 25 1644824118.25425673 -0.943946957588195801 0.329211831092834473 -0.00580911152064800262 0.0234521832317113876
70.9275436401367188 99.7982406616210938 7.86586475372314453 26 1644824119.85297537 -0.964886486530303955 0.261435747146606445 0.0210175104439258575 -0.0142728202044963837
74.9644088745117188 96.4298553466796875 7.89791107177734375 27 1644824121.85295248 -0.930603146553039551 0.365957260131835938 0.00256488006561994553 -0.00682059209793806076
78.7192840576171875 92.7568435668945312 7.87364816665649414 28 1644824123.65108991 -0.924437463283538818 0.381146222352981567 0.0101629551500082016 -0.00629615597426891327
82.6281204223632812 89.1893539428710938 7.84566831588745117 29 1644824125.15104032 -0.934444963932037354 0.355826824903488159 0.0137300249189138412 -0.00336745544336736202
86.5172271728515625 85.7316360473632812 7.82021665573120117 30 1644824126.64955425 -0.929475486278533936 0.368120878934860229 0.018016427755355835 -0.015417829155921936
89.9981155395507812 82.02490234375 7.78455638885498047 31 1644824128.24918866 -0.918361902236938477 0.395349413156509399 0.0175354517996311188 0.00167632522061467171
93.638946533203125 78.360260009765625 7.74053525924682617 32 1644824129.85148644 -0.92674177885055542 0.375048607587814331 0.0219324901700019836 0.00268202950246632099
97.4014968872070312 74.9238739013671875 7.68585109710693359 33 1644824131.25011945 -0.929895162582397461 0.367489427328109741 0.0157019346952438354 -3.92379224649630487e-05
100.962051391601562 71.0594253540039062 7.71181201934814453 34 1644824132.65038633 -0.911309421062469482 0.411705821752548218 0.00286147673614323139 0.00228522834368050098
104.610862731933594 67.3060150146484375 7.70660066604614258 35 1644824134.14908457 -0.930849671363830566 0.365197092294692993 0.00593299232423305511 0.0107144974172115326
108.597084045410156 63.9213104248046875 7.65709400177001953 36 1644824135.74900651 -0.931144058704376221 0.364325284957885742 0.0153286634013056755 -0.00168486754409968853
112.181785583496094 60.1719436645507812 7.66907930374145508 37 1644824137.34719515 -0.919826745986938477 0.392159849405288696 0.0106092030182480812 -0.00409832503646612167
115.845405578613281 56.7572097778320312 7.73916292190551758 38 1644824139.04811406 -0.931065678596496582 0.364243268966674805 0.012361401692032814 -0.0170501992106437683
119.620635986328125 53.2050132751464844 7.66036081314086914 39 1644824140.75020337 -0.925916552543640137 0.377320766448974609 0.0119161885231733322 -0.0128666786476969719
123.296607971191406 49.6242904663085938 7.69323396682739258 40 1644824142.24679351 -0.931401848793029785 0.363966673612594604 0.00361691229045391083 -0.00241359858773648739
127.206535339355469 46.0724525451660156 7.72459840774536133 41 1644824143.84911609 -0.925898313522338867 0.377441704273223877 0.0044640260748565197 -0.0151698766276240349
130.8157958984375 42.3948822021484375 8.23774814605712891 42 1644824145.44868326 -0.923156559467315674 0.380640208721160889 -0.0521465204656124115 -0.0132548054680228233
133.86285400390625 38.2564735412597656 8.56278038024902344 43 1644824147.24748015 -0.880884766578674316 0.472096771001815796 -0.0208049770444631577 0.0270891468971967697
135.174667358398438 34.4141120910644531 8.46245384216308594 44 1644824148.54844666 -0.784636497497558594 0.618795573711395264 0.00379777653142809868 0.0377256423234939575
134.868972778320312 31.0447845458984375 8.29959392547607422 45 1644824149.64844728 -0.658206045627593994 0.751791238784790039 0.00950275175273418427 0.038527853786945343
133.298751831054688 27.8003387451171875 8.03764915466308594 46 1644824150.74896264 -0.508716106414794922 0.859393179416656494 0.0207151435315608978 0.0471393018960952759
130.120574951171875 23.7382984161376953 7.6097712516784668 47 1644824152.1499536 -0.420642703771591187 0.905903160572052002 0.0292127877473831177 0.0393163450062274933
126.471900939941406 19.9722003936767578 7.21905851364135742 48 1644824153.44944429 -0.38352590799331665 0.922264635562896729 0.0279779490083456039 0.0394096039235591888
122.82635498046875 15.9913110733032227 6.81532859802246094 49 1644824154.75085783 -0.403058528900146484 0.913927674293518066 0.0267624557018280029 0.039545007050037384
119.175521850585938 12.1525716781616211 6.43514823913574219 50 1644824155.95130277 -0.385472148656845093 0.921696960926055908 0.022418685257434845 0.0371940396726131439
115.441093444824219 8.49980449676513672 6.0538029670715332 51 1644824157.04999614 -0.371596395969390869 0.927159249782562256 0.0284661054611206055 0.038491174578666687
111.924324035644531 4.94264936447143555 5.66650676727294922 52 1644824158.0521214 -0.385437697172164917 0.92124861478805542 0.0325125791132450104 0.04100823774933815
108.300651550292969 1.28999769687652588 5.28813362121582031 53 1644824159.04908347 -0.383709728717803955 0.922121286392211914 0.0297845415771007538 0.0396486818790435791
104.708755493164062 -2.33392500877380371 4.92090368270874023 54 1644824160.04823351 -0.379797279834747314 0.923773705959320068 0.0305368527770042419 0.0382582060992717743
100.896697998046875 -6.0780487060546875 4.58278083801269531 55 1644824161.14892173 -0.375827997922897339 0.925731003284454346 0.0258791893720626831 0.0332517623901367188
97.225982666015625 -9.73466014862060547 4.28512907028198242 56 1644824162.24783206 -0.381800919771194458 0.923468649387359619 0.0216187145560979843 0.0310852210968732834
93.6554946899414062 -13.3771581649780273 4.00575160980224609 57 1644824163.3503449 -0.386959642171859741 0.921365678310394287 0.0165275800973176956 0.0327773168683052063
90.0653839111328125 -17.0927162170410156 3.72901439666748047 58 1644824164.4512074 -0.389119774103164673 0.920493185520172119 0.0126508390530943871 0.0334364995360374451
86.43109130859375 -20.8376560211181641 3.43235206604003906 59 1644824165.54952121 -0.38753315806388855 0.921190857887268066 0.0112282689660787582 0.0331574566662311554
82.6599807739257812 -24.7181205749511719 3.05158638954162598 60 1644824166.6512661 -0.385018795728683472 0.921994864940643311 0.0174045450985431671 0.0371902920305728912
79.1518173217773438 -28.2823143005371094 2.79191160202026367 61 1644824167.64964581 -0.385602355003356934 0.921923160552978516 0.0177054181694984436 0.0324818454682826996
75.3230438232421875 -32.1943130493164062 2.60857629776000977 62 1644824168.75035596 -0.38186308741569519 0.923782587051391602 0.021319948136806488 0.0187551379203796387
71.5230255126953125 -35.95343017578125 2.43509221076965332 63 1644824169.85166836 -0.37364727258682251 0.927195072174072266 0.0179448090493679047 0.0193654447793960571
67.8340911865234375 -39.582000732421875 2.27359747886657715 64 1644824170.95219779 -0.376054435968399048 0.926183998584747314 0.0257645640522241592 0.0101219899952411652
63.9277534484863281 -43.2028007507324219 2.19432497024536133 65 1644824172.15073299 -0.357937723398208618 0.93360137939453125 0.0137884439900517464 0.00888156052678823471
59.7062149047851562 -46.524871826171875 2.21171975135803223 66 1644824173.45177865 -0.324206411838531494 0.945977926254272461 -0.0024729918222874403 0.00313945580273866653
55.2352828979492188 -49.6578941345214844 2.25404524803161621 67 1644824174.55019546 -0.286395728588104248 0.958103358745574951 -0.00365793798118829727 0.00144556781742721796
50.6588706970214844 -52.1168174743652344 2.29051852226257324 68 1644824175.54731703 -0.226608976721763611 0.97397005558013916 -0.00260132434777915478 0.00488971173763275146
46.0309715270996094 -54.2673110961914062 2.39977693557739258 69 1644824176.55297518 -0.2108897864818573 0.977498173713684082 -0.00329624838195741177 -0.00345477997325360775
40.9343528747558594 -56.2808418273925781 2.55541896820068359 70 1644824177.64637733 -0.179130613803863525 0.983785510063171387 -0.00498200114816427231 -0.00731597049161791801
35.8132209777832031 -57.9252967834472656 2.7687840461730957 71 1644824178.74960947 -0.140748262405395508 0.989937365055084229 -0.00446929968893527985 -0.0139249609783291817
30.7316761016845703 -59.0862693786621094 3.00077700614929199 72 1644824179.84691143 -0.106257393956184387 0.994152843952178955 -0.00616130651906132698 -0.0182090699672698975
25.3386077880859375 -59.898468017578125 3.29019999504089355 73 1644824180.94780087 -0.054034058004617691 0.998337507247924805 -0.00611814623698592186 -0.0191091485321521759
20.1499557495117188 -60.1659278869628906 3.58388710021972656 74 1644824181.94806814 -0.0187457893043756485 0.999561488628387451 -0.00292113050818443298 -0.0227339789271354675
15.1568307876586914 -60.14898681640625 3.91355800628662109 75 1644824182.95006132 0.016431296244263649 0.999460995197296143 -0.00152537005487829447 -0.028379146009683609
9.76711082458496094 -59.8278732299804688 4.26813936233520508 76 1644824184.24704337 0.0257647857069969177 0.999297380447387695 -0.00602993275970220566 -0.0265427064150571823
4.56275701522827148 -59.4165916442871094 4.58816289901733398 77 1644824185.84756637 0.0509008355438709259 0.998485088348388672 -0.00383932632394134998 -0.0205387473106384277
0.417954742908477783 -58.9184646606445312 4.86794805526733398 78 1644824187.9466598 0.0614614598453044891 0.997609853744506836 -0.00475950213149189949 -0.0312152206897735596
-4.66544437408447266 -58.3859901428222656 5.21492338180541992 79 1644824190.04650211 0.0407816283404827118 0.998697280883789062 -0.00128790095914155245 -0.0306430738419294357
-7.76059579849243164 -58.5178031921386719 5.42781305313110352 80 1644824192.05017161 -0.0309798885136842728 0.999018430709838867 0.00285867787897586823 -0.0315324589610099792
-11.2560386657714844 -59.0861358642578125 5.64343881607055664 81 1644824194.14952207 -0.0636044442653656006 0.997629165649414062 0.00125311478041112423 -0.0262483861297369003
-13.6157188415527344 -59.032470703125 5.81607627868652344 82 1644824196.24957108 0.0105924047529697418 0.99946904182434082 -0.000354809919372200966 -0.0308112036436796188
-15.5478506088256836 -58.8041534423828125 5.92042922973632812 83 1644824198.25059271 0.0486015193164348602 0.998559474945068359 -0.00565043743699789047 -0.0220205318182706833
-15.6879043579101562 -58.7847480773925781 5.96038675308227539 84 1644824205.34954238 0.0511069856584072113 0.998153567314147949 -0.00335723161697387695 -0.032652880996465683
-20.7867698669433594 -57.853851318359375 6.24426174163818359 85 1644824207.44846821 0.104439213871955872 0.99437415599822998 -0.00200605578720569611 -0.017564237117767334
-23.9143714904785156 -57.2779922485351562 6.47078418731689453 86 1644824209.45239377 0.0374641343951225281 0.998625636100769043 -0.0177800878882408142 -0.0320487543940544128
-27.2215175628662109 -57.8473014831542969 6.66213607788085938 87 1644824211.55241084 0.0187613889575004578 0.999467790126800537 -0.000611303956247866154 -0.0266786310821771622
-28.5597133636474609 -56.7173576354980469 6.71191978454589844 88 1644824212.55065417 0.282641053199768066 0.959075272083282471 -0.0110029764473438263 -0.0129460487514734268
-28.8819847106933594 -55.7115325927734375 6.70017337799072266 89 1644824213.34925485 0.454322636127471924 0.890470981597900391 -0.0244348756968975067 -0.00743947038426995277
-28.7983608245849609 -54.7630386352539062 6.68952369689941406 90 1644824214.3505168 0.604234278202056885 0.796192169189453125 -0.0300594903528690338 -0.00868301000446081161
-28.3978004455566406 -53.9378204345703125 6.6808619499206543 91 1644824215.75209737 0.734623730182647705 0.677626669406890869 -0.0306424815207719803 -0.0145307173952460289
-27.7005996704101562 -53.266815185546875 6.65962457656860352 92 1644824217.45202565 0.843722701072692871 0.535578489303588867 -0.0314714089035987854 -0.0172421969473361969
-26.7485694885253906 -52.8147773742675781 6.60635709762573242 93 1644824218.35294747 0.930107176303863525 0.365256160497665405 -0.0378801785409450531 -0.00732888001948595047
-25.6794090270996094 -52.7653274536132812 6.51342010498046875 94 1644824219.15450501 0.983106791973114014 0.177396476268768311 -0.0450721345841884613 9.17837678571231663e-06
-24.5228443145751953 -53.0364646911621094 6.44692754745483398 95 1644824219.9512217 0.999024331569671631 0.00328660150989890099 -0.0434705205261707306 0.00706484541296958923
-20.7403430938720703 -53.0931205749511719 6.1869044303894043 96 1644824221.95286965 0.999238908290863037 -0.00119128159713000059 -0.0337686650454998016 0.0194885600358247757
-15.7051181793212891 -53.1430168151855469 5.8646092414855957 97 1644824223.35032797 0.998939335346221924 -0.0206160750240087509 -0.0403494350612163544 0.00819003116339445114
-10.6962156295776367 -53.5354881286621094 5.54424476623535156 98 1644824224.64834857 0.998303413391113281 -0.0403514653444290161 -0.040609452873468399 0.0106256930157542229
-2.51902484893798828 -53.7532005310058594 4.9860987663269043 99 1644824226.64823651 0.998714089393615723 -0.0204094536602497101 -0.045979771763086319 0.00628793612122535706
2.75890469551086426 -54.1790580749511719 4.66293954849243164 100 1644824227.94906735 0.997956454753875732 -0.0462874434888362885 -0.0436614453792572021 -0.00583675410598516464
7.98944568634033203 -54.1323013305664062 4.28693819046020508 101 1644824229.34847164 0.998994886875152588 0.000445074052549898624 -0.0442872792482376099 -0.00690559530630707741
13.3561944961547852 -54.5659408569335938 3.96214199066162109 102 1644824230.74893808 0.997624337673187256 -0.0530932247638702393 -0.0393390953540802002 0.0194743238389492035
18.4821891784667969 -55.0003013610839844 3.62120199203491211 103 1644824232.04876781 0.998403728008270264 -0.0350736938416957855 -0.0388515926897525787 0.0212231725454330444
23.5086307525634766 -54.6977195739746094 3.27728581428527832 104 1644824233.24824882 0.998037159442901611 0.0460472293198108673 -0.0390073619782924652 0.0167317185550928116
28.5387077331542969 -54.0120506286621094 2.94208216667175293 105 1644824234.44765663 0.99661862850189209 0.06561240553855896 -0.0418275371193885803 0.0263973753899335861
33.7786788940429688 -52.9915771484375 2.70466208457946777 106 1644824235.74831676 0.992619216442108154 0.114856958389282227 -0.0332840904593467712 0.0201769918203353882
38.8515968322753906 -51.4675369262695312 2.48480129241943359 107 1644824237.05006814 0.987867772579193115 0.152255192399024963 -0.0235836561769247055 0.0194796193391084671
43.7656288146972656 -49.5547943115234375 2.30575037002563477 108 1644824238.35062671 0.981198012828826904 0.190820485353469849 -0.0210170932114124298 0.0199070964008569717
48.3506736755371094 -47.3531455993652344 2.18052959442138672 109 1644824239.6505115 0.973390340805053711 0.227241158485412598 -0.0119983721524477005 0.0269941706210374832
53.0562095642089844 -44.7864303588867188 2.14942073822021484 110 1644824241.05024934 0.96464693546295166 0.262894034385681152 -0.00852386001497507095 0.0164443030953407288
57.2184333801269531 -41.7004165649414062 2.14600992202758789 111 1644824242.25081277 0.945315241813659668 0.325718790292739868 -0.00207779300399124622 0.0167957693338394165
61.0708732604980469 -38.3799057006835938 2.20467400550842285 112 1644824243.55260777 0.940151870250701904 0.340029239654541016 0.0109600815922021866 0.0193509422242641449
64.7915725708007812 -34.9387474060058594 2.33895730972290039 113 1644824245.1505537 0.924284517765045166 0.38106924295425415 0.0203771684318780899 0.00831822585314512253
68.36083984375 -30.9447879791259766 2.55905938148498535 114 1644824246.64970422 0.910367131233215332 0.41305619478225708 0.0248135961592197418 -0.000735635636374354362
72.002838134765625 -27.1833858489990234 2.72257137298583984 115 1644824247.84855413 0.925346910953521729 0.3789101243019104 0.0115774944424629211 0.00511457258835434914
75.9022216796875 -23.6470279693603516 2.89186549186706543 116 1644824248.95212841 0.935494661331176758 0.353101730346679688 0.0123173762112855911 -0.00414182059466838837
79.7470245361328125 -19.8738918304443359 3.19024062156677246 117 1644824250.05284905 0.919397473335266113 0.392388671636581421 0.0236078351736068726 -0.0134954368695616722
83.3237838745117188 -16.1024894714355469 3.46820783615112305 118 1644824251.04767227 0.92290729284286499 0.384242415428161621 0.0244926437735557556 5.30688885191921145e-05
87.1842193603515625 -12.3036165237426758 3.76155972480773926 119 1644824252.14716482 0.926099300384521484 0.376396149396896362 0.0258078183978796005 -5.16716863785404712e-05
91.02197265625 -8.45023918151855469 4.08181238174438477 120 1644824253.24896955 0.923110127449035645 0.383249640464782715 0.0313559398055076599 0.00204990385100245476
94.5290069580078125 -4.81805133819580078 4.39009189605712891 121 1644824254.25287533 0.918927133083343506 0.393250524997711182 0.0303734354674816132 -0.00210424093529582024
98.1846160888671875 -0.96664893627166748 4.71134757995605469 122 1644824255.24842739 0.922291219234466553 0.385157316923141479 0.0319604463875293732 0.00335508771240711212
102.103958129882812 2.92725729942321777 5.07809352874755859 123 1644824256.24897027 0.92352139949798584 0.382266193628311157 0.031312309205532074 0.000538171618245542049
105.621505737304688 6.47551536560058594 5.43012666702270508 124 1644824257.14983487 0.924023866653442383 0.381030231714248657 0.0314091816544532776 -0.00305845658294856548
109.204170227050781 9.98075199127197266 5.79956436157226562 125 1644824258.04860115 0.928332924842834473 0.370133787393569946 0.0346179753541946411 0.000717153947334736586
113.186515808105469 13.7827692031860352 6.19400978088378906 126 1644824259.04932642 0.927371799945831299 0.372822284698486328 0.031376522034406662 -0.000746366626117378473
116.940223693847656 17.5561141967773438 6.595001220703125 127 1644824260.04896903 0.922350168228149414 0.385175555944442749 0.02974720299243927 -0.0050083608366549015
120.515182495117188 21.300567626953125 6.98376893997192383 128 1644824261.04821014 0.919079184532165527 0.392543643712997437 0.0342386439442634583 -0.00553918676450848579
124.296722412109375 24.9526252746582031 7.37236213684082031 129 1644824262.24951768 0.932602882385253906 0.359505414962768555 0.031454477459192276 -0.00428229058161377907
130.378738403320312 29.8688945770263672 7.96193170547485352 130 1644824264.34827423 0.933316588401794434 0.357203245162963867 0.0354515276849269867 -0.00831896159797906876
131.978271484375 32.5728530883789062 8.18897247314453125 131 1644824265.25092387 0.853449344635009766 0.52002251148223877 0.0343319661915302277 -0.00470093917101621628
132.145919799804688 34.979949951171875 8.30430316925048828 132 1644824265.95110893 0.729350149631500244 0.683583259582519531 0.0273309648036956787 0.0039186510257422924
131.381317138671875 36.849578857421875 8.33226585388183594 133 1644824266.55167079 0.583150744438171387 0.811592817306518555 0.0289323050528764725 0.0203775819391012192
130.03875732421875 38.1672325134277344 8.33033275604248047 134 1644824267.15138578 0.416350126266479492 0.908530950546264648 0.0298983827233314514 0.0181701499968767166
126.968955993652344 39.9887046813964844 7.99169015884399414 135 1644824268.15226269 0.253568708896636963 0.964921891689300537 -0.00389572372660040855 0.067922741174697876
122.840461730957031 43.1244316101074219 7.67395591735839844 136 1644824270.05056477 0.383887410163879395 0.922551453113555908 0.0144897401332855225 0.0363222211599349976
119.093299865722656 47.2939605712890625 7.680084228515625 137 1644824272.0521946 0.380444347858428955 0.924626767635345459 0.0112664774060249329 0.0141590218991041183
115.1988525390625 50.8285713195800781 7.66043186187744141 138 1644824273.65049958 0.368727177381515503 0.929432988166809082 0.00794233568012714386 0.0114658121019601822
111.907135009765625 54.4853324890136719 7.75133085250854492 139 1644824275.65147662 0.415217578411102295 0.909398496150970459 0.0203172117471694946 -0.0132656889036297798
107.667823791503906 58.5365257263183594 7.649627685546875 140 1644824277.6532197 0.371144086122512817 0.928515315055847168 0.00297030806541442871 0.0101249506697058678
103.801124572753906 63.2336845397949219 7.65691804885864258 141 1644824279.7536056 0.483437836170196533 0.875182390213012695 0.00518965581431984901 0.0177967492491006851
102.736526489257812 66.5682525634765625 7.68643379211425781 142 1644824281.85357332 0.611658692359924316 0.791052699089050293 -0.00779424561187624931 0.00696697039529681206
100.858489990234375 70.0822677612304688 7.71925163269042969 143 1644824283.95383 0.45922514796257019 0.888267695903778076 -0.00959987007081508636 -0.000745522323995828629
97.1704788208007812 72.7766647338867188 7.71282768249511719 144 1644824285.55320883 0.296946853399276733 0.954820036888122559 -0.0106482217088341713 0.00528185488656163216
91.4471893310546875 76.3616104125976562 7.78402233123779297 145 1644824287.55682659 0.295315533876419067 0.955387532711029053 -0.00119361001998186111 0.00469035515561699867
86.1288986206054688 81.2084732055664062 7.83364248275756836 146 1644824289.65453124 0.389311224222183228 0.921078681945800781 0.00593265192583203316 0.00395812187343835831
80.572601318359375 86.859527587890625 7.87293577194213867 147 1644824291.65497875 0.391308724880218506 0.920249760150909424 -6.33906674920581281e-05 0.00422889087349176407
75.1950454711914062 92.3080978393554688 7.90512180328369141 148 1644824293.75562787 0.383243352174758911 0.923620462417602539 -0.00317698600701987743 0.00629965821281075478
70.8208770751953125 96.6060562133789062 7.90618801116943359 149 1644824295.85059953 0.378400802612304688 0.9256325364112854 -0.00173477432690560818 0.0037783491425216198
65.3058929443359375 100.990219116210938 7.87525415420532227 150 1644824297.95218539 0.327492833137512207 0.944778382778167725 -0.000598596117924898863 0.0119130229577422142
61.1418571472167969 104.978462219238281 7.81544065475463867 151 1644824299.95363832 0.398793667554855347 0.916702091693878174 -0.00109034869819879532 0.0248945187777280807
59.20672607421875 108.6231689453125 7.8061676025390625 152 1644824302.04811406 0.568112730979919434 0.822716712951660156 0.00710066268220543861 0.0182947646826505661
59.9597091674804688 110.725051879882812 7.82295894622802734 153 1644824304.1472764 0.804944753646850586 0.592998981475830078 -0.00338585278950631618 0.0201173629611730576
60.3406257629394531 111.061279296875 7.82415533065795898 154 1644824306.24642658 0.853619754314422607 0.52040177583694458 -0.00513553153723478317 0.0221131891012191772
60.403472900390625 111.189788818359375 7.83666467666625977 155 1644824309.24685121 0.850013554096221924 0.526620864868164062 -0.00227352487854659557 0.011929723434150219
60.1262321472167969 113.4202880859375 7.8061528205871582 156 1644824311.34572697 0.660052955150604248 0.751062929630279541 -0.0120387114584445953 0.00946466624736785889
60.0312309265136719 116.721755981445312 7.71200227737426758 157 1644824313.34843779 0.75209355354309082 0.658614218235015869 -0.00716592743992805481 0.0230491049587726593
60.9155387878417969 118.135528564453125 7.70355129241943359 158 1644824314.34686971 0.8489951491355896 0.52809065580368042 -0.00602559419348835945 0.0170630570501089096
61.594635009765625 118.793922424316406 7.70174741744995117 159 1644824314.94837165 0.893369317054748535 0.448940098285675049 -0.00457702809944748878 0.0179739892482757568
62.084381103515625 119.129898071289062 7.69404792785644531 160 1644824315.34684134 0.918341398239135742 0.395258933305740356 -0.00731622986495494843 0.0191306211054325104
62.7784614562988281 119.492988586425781 7.69050693511962891 161 1644824316.04838347 0.942723989486694336 0.333152830600738525 -0.0110444054007530212 0.0125961937010288239
