# .PCD v0.7 - Point Cloud Data file format
VERSION 0.7
FIELDS x y z intensity t qx qy qz qw
SIZE 4 4 4 4 8 4 4 4 4
TYPE F F F F F F F F F
COUNT 1 1 1 1 1 1 1 1 1
WIDTH 167
HEIGHT 1
VIEWPOINT 0 0 0 1 0 0 0
POINTS 167
DATA ascii
61.9892196655273438 119.569206237792969 7.68645668029785156 0 1644824096.94888735 0.999586880207061768 -0.000279801199212670326 -0.0267738886177539825 -0.0104462085291743279
61.9852294921875 119.573661804199219 7.68807792663574219 1 1644824097.04874969 0.999588727951049805 -0.000271542900009080768 -0.0267901141196489334 -0.0102254869416356087
61.9841041564941406 119.574867248535156 7.69090366363525391 2 1644824097.14996386 0.999586164951324463 3.34293072228319943e-05 -0.0268713124096393585 -0.0102683082222938538
61.9853286743164062 119.573974609375 7.69125223159790039 3 1644824097.25093198 0.999589264392852783 -0.000216268468648195267 -0.026740608736872673 -0.0103054679930210114
61.9859390258789062 119.575881958007812 7.69134092330932617 4 1644824097.34867215 0.999593019485473633 -0.000192453357158228755 -0.0266951452940702438 -0.0100537007674574852
61.9831352233886719 119.57489013671875 7.68898153305053711 5 1644824097.44853711 0.999586641788482666 -7.57404413889162242e-05 -0.0267837904393672943 -0.010445629246532917
61.9818038940429688 119.576438903808594 7.69111251831054688 6 1644824097.54876351 0.999588191509246826 4.35040528827812523e-05 -0.0267322510480880737 -0.0104335872456431389
61.9838790893554688 119.576698303222656 7.68969011306762695 7 1644824097.65021873 0.999587297439575195 -0.000127430248539894819 -0.0267510898411273956 -0.0104671251028776169
61.9837303161621094 119.575340270996094 7.69051456451416016 8 1644824097.75088549 0.999588549137115479 -0.000146376245538704097 -0.0267521142959594727 -0.0103430459275841713
61.9826812744140625 119.576057434082031 7.69087982177734375 9 1644824097.84844065 0.99959254264831543 -0.00016762971063144505 -0.026625635102391243 -0.0102854659780859947
61.980316162109375 119.576606750488281 7.69172191619873047 10 1644824097.94875598 0.999593138694763184 -0.000133852241560816765 -0.0266103092581033707 -0.0102691845968365669
61.9812431335449219 119.576362609863281 7.69172859191894531 11 1644824098.04898286 0.999587178230285645 -3.44603358826134354e-05 -0.0268161538988351822 -0.0103114154189825058
61.9821319580078125 119.575225830078125 7.69083118438720703 12 1644824098.15001082 0.99958646297454834 -0.000189364742254838347 -0.0267863422632217407 -0.0104590523988008499
61.9823341369628906 119.575202941894531 7.69024324417114258 13 1644824098.25153589 0.999586582183837891 -9.0266214101575315e-05 -0.0267519336193799973 -0.0105351069942116737
61.9823341369628906 119.574905395507812 7.69091939926147461 14 1644824098.3483367 0.999589681625366211 -0.000165450052008964121 -0.0267092529684305191 -0.0103460755199193954
61.9817352294921875 119.575584411621094 7.69213199615478516 15 1644824098.44907069 0.999589264392852783 -0.00027733095339499414 -0.026674710214138031 -0.0104705290868878365
61.9826164245605469 119.574447631835938 7.69107484817504883 16 1644824098.54899573 0.999587535858154297 -0.000148309001815505326 -0.0267875976860523224 -0.0103518767282366753
61.9822921752929688 119.573173522949219 7.69220209121704102 17 1644824098.64961004 0.999591708183288574 -0.000126841056044213474 -0.0266457032412290573 -0.0103137977421283722
61.9806556701660156 119.572822570800781 7.69253635406494141 18 1644824098.74882984 0.999586224555969238 -0.000221752168727107346 -0.0267337840050458908 -0.010611225850880146
61.9812355041503906 119.57354736328125 7.69352293014526367 19 1644824098.85136533 0.999584197998046875 -0.000222800939809530973 -0.0268278252333402634 -0.0105660315603017807
61.9823722839355469 119.572685241699219 7.69371986389160156 20 1644824098.9508965 0.99959099292755127 -0.000218012137338519096 -0.0266998428851366043 -0.0102425906807184219
61.9838676452636719 119.575752258300781 7.6885533332824707 21 1644824099.04907298 -0.394035965204238892 0.91859966516494751 0.00628951610997319221 0.0295081622898578644
61.9856338500976562 119.565032958984375 7.68890094757080078 22 1644824101.34861684 -0.393973439931869507 0.918624937534332275 0.00649830512702465057 0.0295113623142242432
62.0723304748535156 119.640472412109375 7.71204137802124023 23 1644824107.95366335 -0.39434504508972168 0.918960630893707275 -0.00168937479611486197 0.000717630784492939711
62.0092735290527344 119.604591369628906 7.71606159210205078 24 1644824110.85397768 -0.396949440240859985 0.917741179466247559 -0.0128757469356060028 0.00405645370483398438
60.4885482788085938 116.62835693359375 7.73371362686157227 25 1644824112.8551929 -0.521974384784698486 0.852821946144104004 -0.0136657562106847763 0.00712199229747056961
59.8370819091796875 113.126228332519531 7.80775547027587891 26 1644824114.35520577 -0.671225607395172119 0.740813076496124268 -0.0229708477854728699 0.0111596370115876198
60.5546836853027344 109.822616577148438 7.85308456420898438 27 1644824115.35779595 -0.791847586631774902 0.610334932804107666 -0.0135010452941060066 0.016924884170293808
63.2688636779785156 105.225494384765625 7.87525701522827148 28 1644824117.05558825 -0.886359035968780518 0.462913960218429565 -0.00536353839561343193 0.00703895231708884239
67.2393646240234375 101.830467224121094 7.88496065139770508 29 1644824118.5547483 -0.952027857303619385 0.305439800024032593 0.00531753012910485268 0.0179211292415857315
71.6735992431640625 99.3406448364257812 7.85024261474609375 30 1644824120.15434432 -0.960540235042572021 0.276052355766296387 0.0231435615569353104 -0.0249377060681581497
75.54229736328125 95.885345458984375 7.92349100112915039 31 1644824122.15401983 -0.928778886795043945 0.370358288288116455 -0.00238479720428586006 -0.014101133681833744
79.2081451416015625 92.2625885009765625 7.85973215103149414 32 1644824123.85281038 -0.925238907337188721 0.379272371530532837 0.00924075208604335785 0.000183488635229878128
83.1958541870117188 88.70965576171875 7.84760189056396484 33 1644824125.35589743 -0.937214374542236328 0.348511934280395508 0.0121997594833374023 -0.00445389561355113983
86.9510345458984375 85.2612457275390625 7.8291015625 34 1644824126.84992838 -0.925731301307678223 0.377927035093307495 0.0119595956057310104 -0.00704590696841478348
90.4325332641601562 81.565765380859375 7.78717994689941406 35 1644824128.4502635 -0.917374789714813232 0.397759169340133667 0.0141376294195652008 -0.00335318176075816154
94.1602325439453125 77.9328384399414062 7.73821163177490234 36 1644824130.04913139 -0.926440000534057617 0.3754139244556427 0.024701310321688652 -0.0127715663984417915
97.9514083862304688 74.38555908203125 7.68375921249389648 37 1644824131.44898915 -0.9266929030418396 0.375566005706787109 0.0136764384806156158 -0.00184967031236737967
101.409049987792969 70.514495849609375 7.72324132919311523 38 1644824132.85215092 -0.910063445568084717 0.414441794157028198 0.00200296030379831791 0.00430620182305574417
105.176040649414062 66.8422088623046875 7.69899272918701172 39 1644824134.35362554 -0.935044944286346436 0.354287832975387573 0.0084410104900598526 0.00999234430491924286
109.017051696777344 63.5119667053222656 7.65700292587280273 40 1644824135.94845462 -0.928891360759735107 0.370108217000961304 0.0129257636144757271 -0.00370339001528918743
112.656517028808594 59.7100448608398438 7.66756582260131836 41 1644824137.5470562 -0.922488927841186523 0.385882109403610229 0.00844090525060892105 -0.00615773722529411316
116.455146789550781 56.1627883911132812 7.65857553482055664 42 1644824139.34787488 -0.929407417774200439 0.366245090961456299 0.0450629778206348419 0.00597809022292494774
120.100456237792969 52.69610595703125 7.66192150115966797 43 1644824140.94715071 -0.924362719058990479 0.381193459033966064 0.0136166168376803398 -0.00772474939003586769
123.809814453125 49.1762466430664062 7.69581699371337891 44 1644824142.44715548 -0.93356013298034668 0.358317464590072632 0.00783732440322637558 -0.00355734513141214848
127.672561645507812 45.6506309509277344 7.75402021408081055 45 1644824144.04746366 -0.926134765148162842 0.376332640647888184 -0.00147248944267630577 -0.0254163667559623718
131.294967651367188 41.8748435974121094 8.31676673889160156 46 1644824145.64895105 -0.91931837797164917 0.390230953693389893 -0.050220198929309845 -0.00717239035293459892
134.169754028320312 37.7003517150878906 8.55046939849853516 47 1644824147.44757819 -0.873384654521942139 0.485762357711791992 -0.0127741405740380287 0.0327269397675991058
135.17889404296875 34.098846435546875 8.45273208618164062 48 1644824148.64986277 -0.775683045387268066 0.62974858283996582 -0.000353401061147451401 0.0416223742067813873
134.749847412109375 30.7478351593017578 8.27932834625244141 49 1644824149.74808502 -0.644581198692321777 0.763181865215301514 0.00301371910609304905 0.0453806035220623016
132.909759521484375 27.2247333526611328 7.97435808181762695 50 1644824150.94912481 -0.488732129335403442 0.870876312255859375 0.0252883303910493851 0.0455612018704414368
129.5889892578125 23.1417255401611328 7.54895257949829102 51 1644824152.34948087 -0.414301306009292603 0.90879511833190918 0.0291605331003665924 0.0399446114897727966
125.894546508789062 19.3540821075439453 7.15189838409423828 52 1644824153.65148139 -0.389897316694259644 0.919551253318786621 0.0283680781722068787 0.0400100685656070709
122.25140380859375 15.3671035766601562 6.74550008773803711 53 1644824154.95033264 -0.402102380990982056 0.914371967315673828 0.024405239149928093 0.0405206680297851562
118.517662048339844 11.4985628128051758 6.37159013748168945 54 1644824156.15011454 -0.381813347339630127 0.923223555088043213 0.0216734670102596283 0.0375118926167488098
114.727027893066406 7.82838106155395508 5.98033761978149414 55 1644824157.25218153 -0.370252609252929688 0.927788674831390381 0.0238776300102472305 0.0393829494714736938
111.232955932617188 4.23830938339233398 5.604461669921875 56 1644824158.24961448 -0.386133670806884766 0.921446800231933594 0.0286478232592344284 0.0318734683096408844
107.575973510742188 0.529172956943511963 5.21293497085571289 57 1644824159.25075054 -0.384216040372848511 0.921941459178924561 0.0329206697642803192 0.036307845264673233
104.019882202148438 -3.03043889999389648 4.84933042526245117 58 1644824160.248523 -0.37824133038520813 0.924388647079467773 0.0316032245755195618 0.037952229380607605
100.207923889160156 -6.76051902770996094 4.52236080169677734 59 1644824161.35241246 -0.377940088510513306 0.924866795539855957 0.0258046574890613556 0.0334193520247936249
96.5631866455078125 -10.3952827453613281 4.23577070236206055 60 1644824162.45112324 -0.383305072784423828 0.92287909984588623 0.0197084732353687286 0.0313525274395942688
93.0154571533203125 -14.0489425659179688 3.95631003379821777 61 1644824163.55034947 -0.389924854040145874 0.920124173164367676 0.0175323933362960815 0.0319795198738574982
89.401214599609375 -17.7645435333251953 3.67401671409606934 62 1644824164.64953184 -0.389852017164230347 0.9201202392578125 0.00956487655639648438 0.0360923744738101959
85.73516845703125 -21.5511264801025391 3.35833430290222168 63 1644824165.75144339 -0.387009799480438232 0.921126306056976318 0.0124533716589212418 0.039933275431394577
81.969268798828125 -25.4135684967041016 2.99795913696289062 64 1644824166.848804 -0.383727163076400757 0.922581136226654053 0.0155500210821628571 0.0368203558027744293
78.4656219482421875 -28.9795627593994141 2.77921700477600098 65 1644824167.85083413 -0.385480135679244995 0.92248690128326416 0.0127073386684060097 0.0161700919270515442
74.6222763061523438 -32.905181884765625 2.56793332099914551 66 1644824168.95171404 -0.383855998516082764 0.922835826873779297 0.023978622630238533 0.0212983638048171997
70.8193511962890625 -36.6388206481933594 2.3885800838470459 67 1644824170.05305219 -0.370809674263000488 0.92809140682220459 0.0222733225673437119 0.0255033187568187714
67.1837615966796875 -40.23223876953125 2.25731372833251953 68 1644824171.15264177 -0.375435441732406616 0.926450490951538086 0.0262537300586700439 0.00696100806817412376
63.2657966613769531 -43.7449531555175781 2.19328737258911133 69 1644824172.35299921 -0.349728763103485107 0.93674391508102417 0.00868850108236074448 0.0111877769231796265
58.9994659423828125 -47.0587921142578125 2.2191319465637207 70 1644824173.65028691 -0.319378495216369629 0.947623848915100098 -0.00210197851993143559 -0.00142159604001790285
54.756256103515625 -49.9607162475585938 2.24907469749450684 71 1644824174.65363526 -0.280623316764831543 0.959796309471130371 -0.00101476919371634722 0.00637314235791563988
50.1961936950683594 -52.3331413269042969 2.29953885078430176 72 1644824175.64770198 -0.223964214324951172 0.974579334259033203 -0.00391960935667157173 0.00444974144920706749
45.6028709411621094 -54.4495048522949219 2.41302657127380371 73 1644824176.64709187 -0.20712628960609436 0.978281855583190918 -0.00499263126403093338 -0.00619761832058429718
40.9331626892089844 -56.2815704345703125 2.55568242073059082 74 1644824177.64637733 -0.179247438907623291 0.983764827251434326 -0.00488999299705028534 -0.00729599734768271446
35.7994956970214844 -57.9235191345214844 2.7698814868927002 75 1644824178.74960947 -0.140465795993804932 0.989976286888122559 -0.00459349341690540314 -0.0139707224443554878
30.7366695404052734 -59.0829582214355469 3.00488114356994629 76 1644824179.84691143 -0.106484808027744293 0.994128227233886719 -0.00612601218745112419 -0.0182349532842636108
25.3476543426513672 -59.8982963562011719 3.28695988655090332 77 1644824180.94780087 -0.0544532574713230133 0.998313486576080322 -0.00614693295210599899 -0.0191637631505727768
20.1461124420166016 -60.1644859313964844 3.58522224426269531 78 1644824181.94806814 -0.0186843276023864746 0.999565660953521729 -0.0029385923407971859 -0.0225988868623971939
15.1566915512084961 -60.1492118835449219 3.9114220142364502 79 1644824182.95006132 0.0166066437959671021 0.9994620680809021 -0.00149039807729423046 -0.028241325169801712
9.76844692230224609 -59.8318977355957031 4.2694849967956543 80 1644824184.24704337 0.0253769103437662125 0.999315857887268066 -0.0054348423145711422 -0.0263496916741132736
4.56126976013183594 -59.4191970825195312 4.59380960464477539 81 1644824185.84756637 0.0512964017689228058 0.998465657234191895 -0.00379262212663888931 -0.0205105971544981003
0.416373610496520996 -58.9204330444335938 4.87087345123291016 82 1644824187.9466598 0.0616864077746868134 0.997605264186859131 -0.00490970956161618233 -0.0308943875133991241
-4.6725001335144043 -58.3906364440917969 5.22199296951293945 83 1644824190.04650211 0.0404677055776119232 0.998697221279144287 -0.0016533721936866641 -0.0310402419418096542
-7.75987815856933594 -58.514862060546875 5.43812465667724609 84 1644824192.05017161 -0.03076925128698349 0.999020218849182129 0.00292737362906336784 -0.0316748432815074921
-11.2680130004882812 -59.0748977661132812 5.65221357345581055 85 1644824194.14952207 -0.0637259706854820251 0.99760746955871582 0.00124584755394607782 -0.0267733428627252579
-13.6227436065673828 -59.03057861328125 5.80955791473388672 86 1644824196.24957108 0.0103363832458853722 0.999483704566955566 -0.00028825548361055553 -0.030419645830988884
-15.5431032180786133 -58.8082771301269531 5.92174100875854492 87 1644824198.25059271 0.0485709533095359802 0.998559117317199707 -0.00556206516921520233 -0.0221270937472581863
-15.6834316253662109 -58.7814254760742188 5.96117067337036133 88 1644824205.34954238 0.0511020198464393616 0.998154342174530029 -0.00322535750456154346 -0.0326510034501552582
-20.7816696166992188 -57.8563308715820312 6.24875974655151367 89 1644824207.44846821 0.104680001735687256 0.994352877140045166 -0.00177435658406466246 -0.017358049750328064
-23.9159564971923828 -57.2749252319335938 6.47174215316772461 90 1644824209.45239377 0.0372469536960124969 0.998652040958404541 -0.0175135079771280289 -0.0316226258873939514
-27.2262783050537109 -57.8496780395507812 6.66574478149414062 91 1644824211.55241084 0.0185613874346017838 0.99948418140411377 -0.000321780185913667083 -0.0262062419205904007
-28.5659275054931641 -56.7158737182617188 6.70865583419799805 92 1644824212.55065417 0.282643407583236694 0.959077835083007812 -0.0111349718645215034 -0.0125866448506712914
-28.8771953582763672 -55.72198486328125 6.70347404479980469 93 1644824213.34925485 0.454478204250335693 0.890388250350952148 -0.0242725536227226257 -0.0083137117326259613
-28.7983322143554688 -54.7668342590332031 6.69072294235229492 94 1644824214.3505168 0.60411149263381958 0.796285271644592285 -0.0299920197576284409 -0.00891777686774730682
-28.3932781219482422 -53.9406929016113281 6.6757502555847168 95 1644824215.75209737 0.734677731990814209 0.677616298198699951 -0.029773075133562088 -0.0140832886099815369
-27.7035865783691406 -53.2629737854003906 6.65458154678344727 96 1644824217.45202565 0.843735933303833008 0.535572409629821777 -0.0313295722007751465 -0.0170387513935565948
-26.748443603515625 -52.8212623596191406 6.59711360931396484 97 1644824218.35294747 0.930124521255493164 0.365265339612960815 -0.0374822728335857391 -0.00668320292606949806
-25.6862277984619141 -52.7631378173828125 6.51685047149658203 98 1644824219.15450501 0.983004271984100342 0.177509799599647522 -0.0468277968466281891 0.000244250026298686862
-24.5247955322265625 -53.0310897827148438 6.44669485092163086 99 1644824219.9512217 0.999023079872131348 0.00306163821369409561 -0.0435523390769958496 0.00683654239401221275
-20.7417945861816406 -53.087554931640625 6.18668889999389648 100 1644824221.95286965 0.999235033988952637 -0.00104409153573215008 -0.0344847850501537323 0.0184140205383300781
-15.7021570205688477 -53.1414337158203125 5.86511373519897461 101 1644824223.35032797 0.998937845230102539 -0.0203574839979410172 -0.0405254289507865906 0.00815223902463912964
-10.6990900039672852 -53.5288848876953125 5.54417562484741211 102 1644824224.64834857 0.9983406662940979 -0.0402834862470626831 -0.0396840609610080719 0.0108806081116199493
-2.51856637001037598 -53.753143310546875 4.98757314682006836 103 1644824226.64823651 0.99867779016494751 -0.0204821676015853882 -0.0467093884944915771 0.00643316749483346939
2.75714731216430664 -54.1782798767089844 4.66333103179931641 104 1644824227.94906735 0.997964262962341309 -0.0461629331111907959 -0.0435714796185493469 -0.00614781817421317101
7.98623371124267578 -54.1393051147460938 4.28842735290527344 105 1644824229.34847164 0.998989641666412354 0.00100920372642576694 -0.0444521047174930573 -0.00653796270489692688
13.3441181182861328 -54.5641021728515625 3.96211481094360352 106 1644824230.74893808 0.997583866119384766 -0.0533066652715206146 -0.0402584150433540344 0.0190805420279502869
18.4866313934326172 -55.0062942504882812 3.62194275856018066 107 1644824232.04876781 0.998411953449249268 -0.0349766574800014496 -0.0388513244688510895 0.0209948457777500153
23.5085983276367188 -54.6947708129882812 3.27855134010314941 108 1644824233.24824882 0.998053491115570068 0.0458479598164558411 -0.0386786311864852905 0.0170622281730175018
28.5509204864501953 -54.0072364807128906 2.94117021560668945 109 1644824234.44765663 0.996612846851348877 0.0657263249158859253 -0.041967783123254776 0.02610788494348526
33.7679672241210938 -52.9887733459472656 2.70815229415893555 110 1644824235.74831676 0.992716550827026367 0.114008881151676178 -0.0334120132029056549 0.0199851430952548981
38.8632278442382812 -51.4645881652832031 2.48524260520935059 111 1644824237.05006814 0.98784559965133667 0.152497738599777222 -0.0230761617422103882 0.0193141382187604904
43.7637252807617188 -49.550994873046875 2.30529570579528809 112 1644824238.35062671 0.981374442577362061 0.189968809485435486 -0.0201513003557920456 0.0202480237931013107
48.3421554565429688 -47.3577117919921875 2.17964386940002441 113 1644824239.6505115 0.973386883735656738 0.227260500192642212 -0.0118868676945567131 0.0270063299685716629
53.0515975952148438 -44.7937889099121094 2.1501462459564209 114 1644824241.05024934 0.964621007442474365 0.262971729040145874 -0.00823104940354824066 0.0168668478727340698
57.2158279418945312 -41.6991920471191406 2.14568567276000977 115 1644824242.25081277 0.945297598838806152 0.325767636299133301 -0.00242455350235104561 0.0167934894561767578
61.0577774047851562 -38.3876113891601562 2.20653033256530762 116 1644824243.55260777 0.940273642539978027 0.339722216129302979 0.0106446640565991402 0.0189995691180229187
64.787445068359375 -34.9397850036621094 2.33344650268554688 117 1644824245.1505537 0.924314916133880615 0.381009966135025024 0.0201174002140760422 0.00828087422996759415
68.3664627075195312 -30.9437198638916016 2.56176662445068359 118 1644824246.64970422 0.910401821136474609 0.412957668304443359 0.0251834671944379807 -0.000547561503481119871
72.0070571899414062 -27.1766777038574219 2.72009444236755371 119 1644824247.84855413 0.925301909446716309 0.379026502370834351 0.0113008869811892509 0.00525400694459676743
75.9120559692382812 -23.6502819061279297 2.89260029792785645 120 1644824248.95212841 0.935534775257110596 0.353010028600692749 0.0119617823511362076 -0.00394080625846982002
79.744049072265625 -19.8725948333740234 3.1912841796875 121 1644824250.05284905 0.9194222092628479 0.392289698123931885 0.0243212953209877014 -0.0134199876338243484
83.3252944946289062 -16.1026096343994141 3.4683692455291748 122 1644824251.04767227 0.922948002815246582 0.384125381708145142 0.024792596697807312 0.000112736444862093776
87.1894683837890625 -12.2989616394042969 3.76291370391845703 123 1644824252.14716482 0.926150262355804443 0.376265347003936768 0.0258859135210514069 -4.90984821226447821e-05
91.0232086181640625 -8.44753837585449219 4.0834050178527832 124 1644824253.24896955 0.923164844512939453 0.383116692304611206 0.0313701294362545013 0.00204877741634845734
94.5301361083984375 -4.82032108306884766 4.39153480529785156 125 1644824254.25287533 0.918849050998687744 0.393399477005004883 0.0308032538741827011 -0.00210414011962711811
98.1811447143554688 -0.971757769584655762 4.71094703674316406 126 1644824255.24842739 0.922284901142120361 0.385174661874771118 0.0319284237921237946 0.00340251089073717594
102.101203918457031 2.91432619094848633 5.07572364807128906 127 1644824256.24897027 0.923534631729125977 0.382200628519058228 0.0317205339670181274 0.000473070482257753611
105.619369506835938 6.47469854354858398 5.432098388671875 128 1644824257.14983487 0.923968195915222168 0.38112872838973999 0.0318390987813472748 -0.00316210160963237286
109.202056884765625 9.97920703887939453 5.79864120483398438 129 1644824258.04860115 0.928245127201080322 0.370352178812026978 0.0346378237009048462 0.000678779382724314928
113.184539794921875 13.7815055847167969 6.19676876068115234 130 1644824259.04932642 0.92736583948135376 0.372837662696838379 0.0313702784478664398 -0.000782945076934993267
116.941291809082031 17.5562820434570312 6.5956873893737793 131 1644824260.04896903 0.922313988208770752 0.385274231433868408 0.0296117458492517471 -0.00488109840080142021
120.513511657714844 21.2987308502197266 6.98415994644165039 132 1644824261.04821014 0.91906440258026123 0.392577558755874634 0.0342530794441699982 -0.00549964560195803642
124.292732238769531 24.9519996643066406 7.37404584884643555 133 1644824262.24951768 0.932582676410675049 0.359597265720367432 0.0309813562780618668 -0.00441827345639467239
130.377532958984375 29.8687992095947266 7.96336984634399414 134 1644824264.34827423 0.933250069618225098 0.357389271259307861 0.035289522260427475 -0.00847834348678588867
131.977462768554688 32.5727996826171875 8.18855381011962891 135 1644824265.25092387 0.853465497493743896 0.51997983455657959 0.0345453731715679169 -0.0049229874275624752
132.143768310546875 34.9808387756347656 8.30447864532470703 136 1644824265.95110893 0.729299068450927734 0.683636844158172607 0.0273340959101915359 0.00404243730008602142
131.378509521484375 36.8465728759765625 8.33186435699462891 137 1644824266.55167079 0.583061099052429199 0.811661243438720703 0.0288383495062589645 0.0203504655510187149
130.041595458984375 38.1658554077148438 8.33149147033691406 138 1644824267.15138578 0.416371315717697144 0.908515274524688721 0.0300820544362068176 0.0181652456521987915
126.971885681152344 39.9929237365722656 7.99102020263671875 139 1644824268.15226269 0.253607094287872314 0.964898347854614258 -0.00355557212606072426 0.0681319162249565125
122.844032287597656 43.124755859375 7.67476558685302734 140 1644824270.05056477 0.383582085371017456 0.922690331935882568 0.0140581708401441574 0.036189056932926178
119.087562561035156 47.29266357421875 7.67954206466674805 141 1644824272.0521946 0.380645662546157837 0.924541950225830078 0.0114489439874887466 0.0141411712393164635
115.197418212890625 50.8293991088867188 7.66151189804077148 142 1644824273.65049958 0.3687572181224823 0.929423809051513672 0.00774691998958587646 0.0113803362473845482
111.90478515625 54.4869003295898438 7.75218677520751953 143 1644824275.65147662 0.4152679443359375 0.909376561641693115 0.0202134586870670319 -0.0133513081818819046
107.666908264160156 58.5417327880859375 7.64797496795654297 144 1644824277.6532197 0.371109843254089355 0.928528726100921631 0.00294707971625030041 0.0101610496640205383
103.799835205078125 63.2341995239257812 7.65401601791381836 145 1644824279.7536056 0.483460605144500732 0.875176608562469482 0.00536501128226518631 0.0174043253064155579
102.740097045898438 66.568511962890625 7.68303728103637695 146 1644824281.85357332 0.611793458461761475 0.790951907634735107 -0.00760843232274055481 0.00678138202056288719
100.8565673828125 70.0845870971679688 7.72052240371704102 147 1644824283.95383 0.459248542785644531 0.888257205486297607 -0.00942709390074014664 -0.00101837387774139643
97.1721572875976562 72.7797698974609375 7.71079730987548828 148 1644824285.55320883 0.297008156776428223 0.954802155494689941 -0.0105061912909150124 0.00535305216908454895
91.4505462646484375 76.3592681884765625 7.78642940521240234 149 1644824287.55682659 0.295303851366043091 0.955390453338623047 -0.00118435884360224009 0.00482366373762488365
86.1290435791015625 81.21405029296875 7.83200645446777344 150 1644824289.65453124 0.389366954565048218 0.921052813529968262 0.006119502242654562 0.00419994117692112923
80.5698699951171875 86.8587722778320312 7.8724513053894043 151 1644824291.65497875 0.391145586967468262 0.920320093631744385 0.000125748076243326068 0.00399910053238272667
75.1935958862304688 92.3087615966796875 7.90302658081054688 152 1644824293.75562787 0.383170187473297119 0.923653185367584229 -0.00323680019937455654 0.0059070107527077198
70.8205184936523438 96.60357666015625 7.90346288681030273 153 1644824295.85059953 0.378164231777191162 0.925727188587188721 -0.00213722418993711472 0.0040452880784869194
65.3024368286132812 100.990692138671875 7.87595224380493164 154 1644824297.95218539 0.327520400285720825 0.944773972034454346 -0.0003085331991314888 0.0115097630769014359
61.1428298950195312 104.978500366210938 7.81781816482543945 155 1644824299.95363832 0.398745268583297729 0.916712760925292969 -0.000804751936811953783 0.0252841394394636154
59.2230606079101562 108.472183227539062 7.80795431137084961 156 1644824301.95122862 0.556601583957672119 0.830487191677093506 0.00691117905080318451 0.0209251753985881805
59.4294013977050781 109.852455139160156 7.8307342529296875 157 1644824302.9479208 0.700733661651611328 0.713360369205474854 0.00399976503103971481 0.00856602564454078674
60.0384635925292969 110.810745239257812 7.82293605804443359 158 1644824304.34711671 0.81709897518157959 0.576026499271392822 -0.00572103215381503105 0.0225830897688865662
60.3405990600585938 111.061729431152344 7.82384634017944336 159 1644824306.44678783 0.853253424167633057 0.52102285623550415 -0.00501390686258673668 0.0216479413211345673
60.4037208557128906 111.187423706054688 7.83828496932983398 160 1644824309.24685121 0.850023925304412842 0.526603877544403076 -0.00206676032394170761 0.0119748106226325035
60.1276092529296875 113.420181274414062 7.80500125885009766 161 1644824311.34572697 0.660044312477111816 0.751070201396942139 -0.01184832863509655 0.00973104685544967651
60.032623291015625 116.72332763671875 7.7126765251159668 162 1644824313.34843779 0.752034246921539307 0.658689200878143311 -0.00723871029913425446 0.0228159036487340927
61.0252532958984375 118.257118225097656 7.70209646224975586 163 1644824314.44679379 0.85805433988571167 0.513203203678131104 -0.00669741816818714142 0.0178979411721229553
61.7183265686035156 118.879066467285156 7.70221328735351562 164 1644824315.04852867 0.900354623794555664 0.434894979000091553 -0.00502691231667995453 0.0142343305051326752
62.2129058837890625 119.192138671875 7.69091892242431641 165 1644824315.44687295 0.924470663070678711 0.380844444036483765 -0.00921617541462182999 0.0150529360398650169
62.8424568176269531 119.534423828125 7.69789600372314453 166 1644824317.44890547 0.943703770637512207 0.330500036478042603 -0.00901014078408479691 0.0105685712769627571
