# .PCD v0.7 - Point Cloud Data file format
VERSION 0.7
FIELDS x y z intensity t qx qy qz qw
SIZE 4 4 4 4 8 4 4 4 4
TYPE F F F F F F F F F
COUNT 1 1 1 1 1 1 1 1 1
WIDTH 276
HEIGHT 1
VIEWPOINT 0 0 0 1 0 0 0
POINTS 276
DATA ascii
108.955276489257812 75.0697174072265625 7.7264704704284668 36 1644825676.40994692 0.636625945568084717 -0.770585238933563232 -0.0282998383045196533 0.0102418242022395134
107.797279357910156 73.1446304321289062 7.72824907302856445 37 1644825676.90875053 0.491062432527542114 -0.8707008957862854 -0.025973144918680191 0.00794127210974693298
105.669486999511719 71.5406417846679688 7.74210071563720703 38 1644825677.50994349 0.299340665340423584 -0.95377802848815918 -0.0253179240971803665 0.0078488420695066452
103.394752502441406 70.9305343627929688 7.73773002624511719 39 1644825678.00931835 0.110701233148574829 -0.993162453174591064 -0.0364954695105552673 -0.00645113503560423851
101.135307312011719 71.2724685668945312 7.71776390075683594 40 1644825678.50925446 -0.0646012946963310242 -0.997702896595001221 -0.0167507026344537735 -0.0116207888349890709
96.090576171875 73.5386505126953125 7.73009443283081055 41 1644825679.61118865 -0.20985056459903717 -0.977633357048034668 0.0109598208218812943 0.00869830884039402008
91.1868057250976562 75.0872726440429688 7.7673344612121582 42 1644825680.61060739 -0.101007603108882904 -0.994767546653747559 0.015330498106777668 0.00014364172238856554
86.3456344604492188 73.3102264404296875 7.74530172348022461 43 1644825681.71039414 0.27964898943901062 -0.959886550903320312 0.00815346371382474899 -0.0186490956693887711
82.474090576171875 69.8172607421875 7.72808170318603516 44 1644825682.70995617 0.3498859703540802 -0.936388611793518066 -0.02387227863073349 0.0136503400281071663
78.3985977172851562 66.4593582153320312 7.70482635498046875 45 1644825683.60994482 0.355259239673614502 -0.934585750102996826 0.0182127133011817932 -0.00293568335473537445
74.6913070678710938 62.9826774597167969 7.71310710906982422 46 1644825684.41034961 0.38841739296913147 -0.921405792236328125 0.0106230005621910095 -0.00551321031525731087
71.9603958129882812 58.6795272827148438 7.66938304901123047 47 1644825685.2114625 0.528924286365509033 -0.848224043846130371 0.0223553497344255447 -0.0159801226109266281
70.8999862670898438 53.3190727233886719 7.55924654006958008 48 1644825686.11152172 0.663672208786010742 -0.747888505458831787 0.00994951371103525162 -0.0101488111540675163
70.3479766845703125 48.1910934448242188 7.44261026382446289 49 1644825686.9098897 0.648040533065795898 -0.76157069206237793 -0.00647220388054847717 -0.00341873546130955219
68.3004226684570312 43.0836524963378906 7.25727415084838867 50 1644825687.71004009 0.501455366611480713 -0.86492234468460083 -0.0163482390344142914 -0.0135874031111598015
64.5307159423828125 39.199676513671875 7.09826087951660156 51 1644825688.51002836 0.347808271646499634 -0.937442123889923096 -0.0049750027246773243 -0.0143838701769709587
60.5108184814453125 35.3411788940429688 6.91399192810058594 52 1644825689.31054735 0.386319458484649658 -0.922171950340270996 0.00814575236290693283 -0.0170224998146295547
56.9682540893554688 31.5230808258056641 6.73123645782470703 53 1644825690.01148176 0.401231974363327026 -0.915755808353424072 0.00446847360581159592 -0.0196011234074831009
53.2790985107421875 27.5582962036132812 6.61016845703125 54 1644825690.71179938 0.396673291921615601 -0.917915999889373779 0.00479792756959795952 -0.00758569268509745598
49.4595375061035156 23.4972743988037109 6.57267236709594727 55 1644825691.41473508 0.389409124851226807 -0.921057820320129395 -0.00024558792938478291 0.00359701621346175671
45.6923408508300781 19.4124202728271484 6.60628986358642578 56 1644825692.11314535 0.412212342023849487 -0.910989701747894287 0.00216767401434481144 0.013192392885684967
42.0517120361328125 15.1079416275024414 6.54043483734130859 57 1644825692.81477928 0.41932445764541626 -0.907810688018798828 -0.0067554134875535965 0.00103367713745683432
38.2831306457519531 10.9643421173095703 6.52059268951416016 58 1644825693.51400185 0.400100409984588623 -0.916463077068328857 -0.0010446521919220686 0.00374192488379776478
34.322784423828125 6.98339605331420898 6.51189804077148438 59 1644825694.21372986 0.381499677896499634 -0.924259364604949951 0.0132638290524482727 -0.00516246259212493896
30.2322902679443359 3.13390278816223145 6.51414680480957031 60 1644825694.91598058 0.369314104318618774 -0.928935468196868896 0.0241606943309307098 -0.0101094264537096024
25.9883327484130859 -0.480875611305236816 6.50966548919677734 61 1644825695.61498022 0.331582099199295044 -0.943234682083129883 0.0181122869253158569 -0.00579707184806466103
21.5458545684814453 -3.92835044860839844 6.50394582748413086 62 1644825696.31675982 0.308075368404388428 -0.951360523700714111 -0.000719571660738438368 0.00147889554500579834
16.7692928314208984 -6.60783052444458008 6.66984272003173828 63 1644825697.01584792 0.214031964540481567 -0.97661590576171875 0.00494856340810656548 0.0196776092052459717
11.6270027160644531 -8.16195583343505859 6.93382072448730469 64 1644825697.71449733 0.107596717774868011 -0.993664085865020752 0.0113319680094718933 0.0304337982088327408
6.42859697341918945 -8.72660636901855469 7.30232763290405273 65 1644825698.41489339 0.0454564690589904785 -0.997718453407287598 0.0292556453496217728 0.0404441505670547485
1.38102412223815918 -9.16825962066650391 7.75589942932128906 66 1644825699.11384892 0.0338958203792572021 -0.998357236385345459 0.0146066080778837204 0.0438236594200134277
-4.26183605194091797 -8.98191165924072266 8.17250156402587891 67 1644825699.9135232 -0.0423793569207191467 -0.998657166957855225 0.0161505676805973053 0.0250412449240684509
-9.46991920471191406 -8.29418849945068359 8.42166805267333984 68 1644825700.71335959 -0.0696604028344154358 -0.997179746627807617 0.0145438797771930695 0.0238427147269248962
-14.8083553314208984 -8.26503849029541016 8.50405216217041016 69 1644825701.61397123 0.0343361906707286835 -0.999337732791900635 0.0118837263435125351 0.001962300855666399
-19.9986915588378906 -9.65906143188476562 8.58372879028320312 70 1644825702.61795068 0.176587030291557312 -0.984246134757995605 0.00796432048082351685 0.00362454960122704506
-24.3555488586425781 -12.3407621383666992 8.60257148742675781 71 1644825703.61520052 0.274004489183425903 -0.961596906185150146 -0.0149670038372278214 0.0053773215040564537
-29.3191070556640625 -13.3437728881835938 8.62226200103759766 72 1644825704.71266699 -0.0140002006664872169 -0.999741494655609131 -0.0176003538072109222 -0.00333286379463970661
-32.3099632263183594 -12.1858110427856445 8.62632083892822266 73 1644825705.41547298 -0.235597327351570129 -0.971057236194610596 -0.0379722081124782562 -0.00999106653034687042
-33.933380126953125 -10.4693069458007812 8.62934398651123047 74 1644825705.91325665 -0.420337557792663574 -0.905573904514312744 -0.0461386032402515411 -0.0335174761712551117
-34.6496200561523438 -8.33348846435546875 8.69741630554199219 75 1644825706.4138844 -0.584888935089111328 -0.809864521026611328 -0.0380956791341304779 -0.0239395890384912491
-34.4740447998046875 -5.74361467361450195 8.76904487609863281 76 1644825707.0130465 -0.735854208469390869 -0.676404953002929688 -0.0285084079951047897 -0.0134990019723773003
-33.2957038879394531 -3.20308041572570801 8.80407142639160156 77 1644825707.61375666 -0.860709309577941895 -0.508015990257263184 -0.0203933380544185638 -0.0261413734406232834
-31.5219497680664062 -1.58009421825408936 8.78903579711914062 78 1644825708.11550188 -0.938805878162384033 -0.341420620679855347 -0.000726886792108416557 -0.0455521717667579651
-28.9314918518066406 -0.773831009864807129 8.79638290405273438 79 1644825708.71366358 -0.989815115928649902 -0.141068398952484131 0.00304741458967328072 -0.0188796762377023697
-26.0330696105957031 -0.978366851806640625 8.7256317138671875 80 1644825709.31232452 -0.997665166854858398 0.0645603463053703308 0.0143306516110897064 -0.0170548483729362488
-23.7472286224365234 -2.0610039234161377 8.64017391204833984 81 1644825709.81054759 -0.964808881282806396 0.257625818252563477 0.0366137400269508362 -0.0378445833921432495
-22.1145172119140625 -3.96064972877502441 8.59936141967773438 82 1644825710.31528378 -0.894429326057434082 0.443226724863052368 0.0459435991942882538 -0.0378869026899337769
-21.4452877044677734 -6.22983598709106445 8.60946750640869141 83 1644825710.81477427 -0.794064044952392578 0.605727314949035645 0.0395442955195903778 -0.0315123088657855988
-21.7340602874755859 -8.96858787536621094 8.62896156311035156 84 1644825711.41255426 -0.670827209949493408 0.74123150110244751 0.0141070866957306862 -0.0191767830401659012
-23.8186302185058594 -14.3195600509643555 8.56494903564453125 85 1644825712.50951266 -0.521895110607147217 0.852687478065490723 0.0179470796138048172 -0.0150811867788434029
-26.6260585784912109 -18.9607315063476562 8.45797538757324219 86 1644825713.40902328 -0.507638692855834961 0.861500442028045654 0.00462664291262626648 0.00992688536643981934
-28.3455123901367188 -23.9920711517333984 8.19225692749023438 87 1644825714.21101117 -0.607921719551086426 0.793632447719573975 0.009033985435962677 0.0222971122711896896
-28.8822021484375 -29.6438884735107422 7.87761688232421875 88 1644825715.01716733 -0.681047677993774414 0.731728792190551758 0.0265839304774999619 0.00635363487526774406
-29.075469970703125 -34.6525993347167969 7.60601282119750977 89 1644825715.71008897 -0.693457126617431641 0.719802498817443848 0.0295852310955524445 0.0112378671765327454
-29.11724853515625 -39.68768310546875 7.32410335540771484 90 1644825716.41277432 -0.695797383785247803 0.717270970344543457 0.0365842841565608978 0.00706820748746395111
-29.3056468963623047 -44.9413986206054688 7.03586912155151367 91 1644825717.21138978 -0.694443285465240479 0.718696236610412598 0.0293033737689256668 0.0191202778369188309
-28.3695182800292969 -49.4575881958007812 6.76805019378662109 92 1644825718.11181211 -0.821862220764160156 0.567685544490814209 0.0317974463105201721 0.0355602875351905823
-26.5573501586914062 -51.4496574401855469 6.58442258834838867 93 1644825718.71489477 -0.91370469331741333 0.404283344745635986 0.0340156815946102142 0.0232734605669975281
-23.9172916412353516 -52.7032852172851562 6.39688968658447266 94 1644825719.31530428 -0.977410435676574707 0.209284529089927673 0.0268895793706178665 0.0120732365176081657
-18.7820377349853516 -53.6374549865722656 6.09272146224975586 95 1644825720.21296406 -0.997082889080047607 0.0698410198092460632 0.0246343463659286499 -0.0184681601822376251
-13.4200735092163086 -54.0371627807617188 5.75730562210083008 96 1644825721.01120472 -0.998781502246856689 0.0341799743473529816 0.0322831831872463226 -0.0150007233023643494
-8.23785114288330078 -54.2842178344726562 5.41317367553710938 97 1644825721.71251774 -0.99867093563079834 0.0349345318973064423 0.0337807983160018921 -0.0171703826636075974
-2.70652389526367188 -54.8399314880371094 5.03480768203735352 98 1644825722.41070294 -0.997502803802490234 0.0586371608078479767 0.0374798215925693512 -0.0120440404862165451
3.06423521041870117 -55.4755821228027344 4.66875076293945312 99 1644825723.11072326 -0.998087704181671143 0.0546484030783176422 0.0285839643329381943 -0.00417681876569986343
8.14841747283935547 -55.8449859619140625 4.31425285339355469 100 1644825723.71042418 -0.999139606952667236 0.0267820768058300018 0.0306116193532943726 -0.00810480117797851562
13.3538846969604492 -55.80865478515625 3.9949188232421875 101 1644825724.31521988 -0.999435603618621826 -0.0120519557967782021 0.0310897007584571838 -0.0040822434239089489
18.5479831695556641 -55.5815925598144531 3.61969518661499023 102 1644825724.91141629 -0.999117016792297363 -0.0214807037264108658 0.0339496247470378876 -0.0122956587001681328
23.7961883544921875 -55.2937812805175781 3.28690481185913086 103 1644825725.51090193 -0.999166667461395264 -0.0284162741154432297 0.0255955532193183899 -0.0142603917047381401
29.0641288757324219 -54.78240966796875 2.9611201286315918 104 1644825726.11088705 -0.997352302074432373 -0.0639814883470535278 0.0339634828269481659 -0.0064214533194899559
34.2004280090332031 -53.6351318359375 2.71443963050842285 105 1644825726.71354651 -0.990841507911682129 -0.132185176014900208 0.0273157712072134018 -0.00375075754709541798
39.0851478576660156 -51.9345817565917969 2.50724458694458008 106 1644825727.3114717 -0.983638525009155273 -0.178998678922653198 0.0187015552073717117 -0.00805761851370334625
43.8482589721679688 -49.9074172973632812 2.32010722160339355 107 1644825727.91047049 -0.979338943958282471 -0.20125877857208252 0.0137253273278474808 -0.0142045607790350914
48.4661903381347656 -47.689666748046875 2.20043253898620605 108 1644825728.51010919 -0.973411321640014648 -0.228617191314697266 0.0061394120566546917 -0.012917790561914444
52.9105148315429688 -45.2950515747070312 2.16991233825683594 109 1644825729.11042142 -0.96809542179107666 -0.250537604093551636 -0.000249449483817443252 -0.00469514867290854454
57.7311744689941406 -42.1003036499023438 2.16465568542480469 110 1644825729.81233549 -0.953018546104431152 -0.302868247032165527 -0.0028083540964871645 -0.00430900976061820984
62.1124382019042969 -38.5187797546386719 2.23163986206054688 111 1644825730.51106453 -0.936830997467041016 -0.349642366170883179 -0.00988555140793323517 0.000373717630282044411
66.1095809936523438 -34.6761970520019531 2.39754509925842285 112 1644825731.20966887 -0.925603210926055908 -0.377898126840591431 -0.0212177764624357224 0.00123425945639610291
69.898651123046875 -30.7727279663085938 2.60938882827758789 113 1644825731.91047764 -0.919922709465026855 -0.391389518976211548 -0.0195793360471725464 0.0131571032106876373
73.63580322265625 -26.8754100799560547 2.76147055625915527 114 1644825732.61006141 -0.921892225742340088 -0.387057065963745117 -0.015930594876408577 0.00691595114767551422
77.3679580688476562 -23.0561161041259766 2.95817327499389648 115 1644825733.30986261 -0.922156095504760742 -0.386087656021118164 -0.0213107466697692871 0.0105039868503808975
81.0875244140625 -19.3028602600097656 3.26104640960693359 116 1644825734.01127052 -0.922562360763549805 -0.384889125823974609 -0.0240680873394012451 0.0126408161595463753
84.7495956420898438 -15.6031646728515625 3.55989813804626465 117 1644825734.70990062 -0.923680007457733154 -0.38180840015411377 -0.0310070253908634186 0.0087271127849817276
88.348419189453125 -11.9715652465820312 3.83907151222229004 118 1644825735.4100821 -0.925786077976226807 -0.376530885696411133 -0.0336995162069797516 0.00300513673573732376
91.9229965209960938 -8.36022567749023438 4.14113426208496094 119 1644825736.11082983 -0.923063278198242188 -0.383594244718551636 -0.0283622946590185165 0.00228412263095378876
95.9128570556640625 -4.34982728958129883 4.47940158843994141 120 1644825736.91222763 -0.922660291194915771 -0.384117066860198975 -0.0334005244076251984 0.00603970419615507126
99.8213729858398438 -0.380000948905944824 4.82870674133300781 121 1644825737.71152806 -0.92308419942855835 -0.382932275533676147 -0.0356928035616874695 0.00210005301050841808
103.611213684082031 3.50744271278381348 5.19253015518188477 122 1644825738.51227188 -0.920544981956481934 -0.388530552387237549 -0.0404992811381816864 0.000879463448654860258
107.283828735351562 7.30513620376586914 5.57418394088745117 123 1644825739.31201291 -0.920866906642913818 -0.387829422950744629 -0.0398275479674339294 0.00249658501707017422
110.863685607910156 11.0633783340454102 5.94641780853271484 124 1644825740.11304188 -0.919700443744659424 -0.390607297420501709 -0.0396253205835819244 0.00261961063370108604
114.341018676757812 14.7659769058227539 6.31125640869140625 125 1644825740.9137373 -0.91808319091796875 -0.394297868013381958 -0.0405036099255084991 0.00345464469864964485
118.199531555175781 18.7904415130615234 6.72511720657348633 126 1644825741.81139159 -0.920839667320251465 -0.388162344694137573 -0.0357222259044647217 0.0104020796716213226
122.050422668457031 22.6744422912597656 7.1416926383972168 127 1644825742.71422029 -0.92522042989730835 -0.377175480127334595 -0.0399824380874633789 0.0103541873395442963
126.04193115234375 26.2601585388183594 7.54179811477661133 128 1644825743.61609697 -0.941729843616485596 -0.333633542060852051 -0.0427140109241008759 0.00301431654952466488
130.422836303710938 29.2065830230712891 7.94557952880859375 129 1644825744.51510763 -0.963728964328765869 -0.263172894716262817 -0.0441969260573387146 0.00362816499546170235
135.307373046875 30.8605937957763672 8.31870460510253906 130 1644825745.41400051 -0.993671000003814697 -0.106918752193450928 -0.0303275715559720993 0.0163272079080343246
140.384765625 30.5894756317138672 8.49612903594970703 131 1644825746.31212902 -0.99592512845993042 0.086793847382068634 -0.0154846347868442535 0.0189794134348630905
144.640655517578125 28.5214347839355469 8.63032341003417969 132 1644825747.21093106 -0.963818669319152832 0.266258358955383301 -0.00849811267107725143 0.00937495194375514984
148.39520263671875 25.0435009002685547 8.617462158203125 133 1644825748.11628008 -0.918525934219360352 0.395145595073699951 0.00213613454252481461 0.0128639582544565201
152.105804443359375 20.8712997436523438 8.45212554931640625 134 1644825749.01139402 -0.911775112152099609 0.409866482019424438 0.0108507545664906502 0.023619234561920166
155.82275390625 16.7920989990234375 8.26678276062011719 135 1644825749.81172824 -0.914449095726013184 0.403725117444992065 0.0171583797782659531 0.0222362671047449112
159.385955810546875 13.0017099380493164 8.05165672302246094 136 1644825750.51290107 -0.918458759784698486 0.394686371088027954 0.0117646548897027969 0.0227555762976408005
163.17236328125 9.10436058044433594 7.84696388244628906 137 1644825751.21157289 -0.918519854545593262 0.394883990287780762 0.00888851284980773926 0.0175765063613653183
167.022109985351562 4.94256114959716797 7.65809774398803711 138 1644825751.91189957 -0.91785198450088501 0.395899742841720581 0.00143653526902198792 0.0284435804933309555
171.105865478515625 0.903031349182128906 7.43330478668212891 139 1644825752.61399627 -0.92848503589630127 0.370083153247833252 0.00337397446855902672 0.0307023711502552032
175.315582275390625 -3.01505398750305176 7.25188302993774414 140 1644825753.31174803 -0.928535282611846924 0.370652645826339722 0.00199657445773482323 0.0208541117608547211
179.484512329101562 -7.06395244598388672 7.06293296813964844 141 1644825754.01476622 -0.92324143648147583 0.383286982774734497 0.00694308103993535042 0.0258483998477458954
183.550338745117188 -11.1379852294921875 6.89507579803466797 142 1644825754.71317124 -0.920911312103271484 0.389268368482589722 -0.000641288002952933311 0.0198014397174119949
187.565383911132812 -15.2758951187133789 6.8389735221862793 143 1644825755.41501617 -0.919652223587036133 0.392184734344482422 -0.00329396361485123634 0.0204961411654949188
191.54180908203125 -19.3009319305419922 6.81910896301269531 144 1644825756.11296964 -0.926898181438446045 0.374318867921829224 -0.0184394065290689468 0.0201293006539344788
195.784835815429688 -23.1383132934570312 6.69215011596679688 145 1644825756.81060147 -0.937401473522186279 0.347329616546630859 -0.000970602384768426418 0.0252927318215370178
200.32867431640625 -26.6291179656982422 6.57789468765258789 146 1644825757.51254129 -0.956789493560791016 0.288556426763534546 -0.0105556454509496689 0.0343165621161460876
205.161544799804688 -29.5624103546142578 6.55338954925537109 147 1644825758.21403623 -0.963824033737182617 0.26525956392288208 -0.00697290292009711266 0.025138193741440773
210.010879516601562 -32.3704719543457031 6.57507610321044922 148 1644825758.91213679 -0.965131640434265137 0.260265082120895386 -0.00761444400995969772 0.0269265864044427872
214.871658325195312 -35.1502609252929688 6.57466840744018555 149 1644825759.61200118 -0.965727627277374268 0.258376389741897583 -0.00749360257759690285 0.0235707331448793411
219.731842041015625 -37.892486572265625 6.59812402725219727 150 1644825760.31173944 -0.966814815998077393 0.254597216844558716 -0.0110312448814511299 0.0181015674024820328
224.644989013671875 -40.5781326293945312 6.57831621170043945 151 1644825761.01314259 -0.968607127666473389 0.247594758868217468 -0.0073182922787964344 0.0210602730512619019
229.35040283203125 -43.2471504211425781 6.55303525924682617 152 1644825761.71261859 -0.964084744453430176 0.264999479055404663 -0.000637133256532251835 0.0177616402506828308
233.92352294921875 -46.3538055419921875 6.5573887825012207 153 1644825762.51522446 -0.945426344871520996 0.325651347637176514 -0.010912647470831871 0.00108111347071826458
237.130264282226562 -50.2678260803222656 6.46869468688964844 154 1644825763.31116557 -0.865421593189239502 0.501011967658996582 0.00511034904047846794 0.00252175936475396156
238.91424560546875 -55.4780998229980469 6.40478229522705078 155 1644825764.21190453 -0.793431758880615234 0.608652710914611816 0.00195534620434045792 0.00202231947332620621
239.868728637695312 -60.6662788391113281 6.30838394165039062 156 1644825765.01329684 -0.756825625896453857 0.653535664081573486 0.00810511037707328796 -0.00635319622233510017
240.680206298828125 -66.2634353637695312 6.24717330932617188 157 1644825765.81405258 -0.746057033538818359 0.665344834327697754 0.022841891273856163 -0.0139072071760892868
241.219741821289062 -71.255828857421875 6.24029016494750977 158 1644825766.51406527 -0.746310591697692871 0.665508031845092773 0.00802769418805837631 -0.00742326118052005768
241.850357055664062 -76.3348770141601562 6.23923301696777344 159 1644825767.21511412 -0.751133918762207031 0.659880578517913818 -0.0154112540185451508 0.0108598712831735611
242.899429321289062 -81.3514328002929688 6.22314691543579102 160 1644825767.91452003 -0.773934006690979004 0.633221983909606934 0.00121779984328895807 -0.0073864152655005455
244.376754760742188 -86.37518310546875 6.22006702423095703 161 1644825768.61238742 -0.812942445278167725 0.582321524620056152 -0.00114433816634118557 -0.00498742843046784401
246.541366577148438 -91.3539962768554688 6.20042657852172852 162 1644825769.31571317 -0.841704964637756348 0.539885282516479492 0.000879246741533279419 -0.00747179938480257988
249.102935791015625 -96.2462310791015625 6.18882989883422852 163 1644825770.0161345 -0.860541164875030518 0.509314596652984619 0.00234414706937968731 -0.00788045302033424377
252.092422485351562 -100.901451110839844 6.18098020553588867 164 1644825770.71277571 -0.882954657077789307 0.469312816858291626 0.00394256832078099251 -0.0110003529116511345
255.536834716796875 -105.243873596191406 6.1750187873840332 165 1644825771.41095257 -0.913943290710449219 0.405761599540710449 -0.00384647399187088013 -0.00710020773112773895
259.640655517578125 -108.996124267578125 6.17023086547851562 166 1644825772.11386395 -0.938045620918273926 0.346308469772338867 0.00195991457439959049 -0.0117056146264076233
264.06011962890625 -112.407577514648438 6.13738775253295898 167 1644825772.81463671 -0.948958814144134521 0.315252542495727539 0.000917867117095738649 -0.00959884654730558395
268.419189453125 -115.323707580566406 6.07081413269042969 168 1644825773.5113194 -0.959525644779205322 0.281135439872741699 0.0124331014230847359 -0.0109009435400366783
272.843902587890625 -117.9742431640625 6.02921009063720703 169 1644825774.31566858 -0.966966927051544189 0.254811793565750122 0.0029805600643157959 0.00608163326978683472
277.503662109375 -120.0924072265625 5.97672605514526367 170 1644825775.41426921 -0.979863822460174561 0.199027344584465027 0.0155221633613109589 -0.0037542243953794241
282.19580078125 -121.884712219238281 5.96960067749023438 171 1644825777.21033764 -0.981323003768920898 0.192232087254524231 -0.00481939362362027168 -0.0053663402795791626
286.563720703125 -123.915687561035156 5.93941020965576172 172 1644825779.21271467 -0.973357319831848145 0.229126840829849243 -0.00779809942469000816 -0.00395017117261886597
290.87060546875 -126.605606079101562 5.88282585144042969 173 1644825780.51285911 -0.958947181701660156 0.28290170431137085 0.00203639967367053032 0.0195641610771417618
295.19232177734375 -129.678665161132812 5.61597156524658203 174 1644825781.51393747 -0.949688553810119629 0.31106191873550415 0.0256463196128606796 0.0259687229990959167
299.44964599609375 -132.889984130859375 5.15450191497802734 175 1644825782.41363859 -0.943946897983551025 0.327570974826812744 0.0361325331032276154 0.0188659839332103729
303.737060546875 -136.370880126953125 4.65488624572753906 176 1644825783.31385231 -0.941494464874267578 0.333000868558883667 0.0422264374792575836 0.0302575472742319107
307.689117431640625 -139.615310668945312 4.19309759140014648 177 1644825784.11399174 -0.941409468650817871 0.333480805158615112 0.0369773507118225098 0.0342262573540210724
311.919830322265625 -142.661529541015625 3.72003388404846191 178 1644825784.91359591 -0.951614081859588623 0.302576899528503418 0.0354408174753189087 0.040271420031785965
316.18133544921875 -145.687728881835938 3.23136734962463379 179 1644825785.7143507 -0.948603391647338867 0.31047549843788147 0.0414274297654628754 0.045170661062002182
320.363861083984375 -149.234329223632812 2.6737067699432373 180 1644825786.61296725 -0.930970430374145508 0.360218226909637451 0.0425702854990959167 0.0415295921266078949
324.0906982421875 -152.829177856445312 2.17515277862548828 181 1644825787.51261258 -0.922557234764099121 0.381341457366943359 0.0417379029095172882 0.0415302179753780365
327.6861572265625 -156.7413330078125 1.67995166778564453 182 1644825788.61640954 -0.909433901309967041 0.411545008420944214 0.0333625711500644684 0.0494738444685935974
330.706024169921875 -160.96929931640625 1.17237162590026855 183 1644825789.91083598 -0.881106972694396973 0.467920988798141479 0.0360434427857398987 0.0583213157951831818
332.86895751953125 -165.589889526367188 1.0909881591796875 184 1644825791.81159067 -0.821088552474975586 0.570106387138366699 -0.0186063516885042191 0.0211218353360891342
333.001190185546875 -168.389480590820312 1.05457162857055664 185 1644825792.61665511 -0.70437932014465332 0.709577858448028564 -0.00341121829114854336 0.0183687619864940643
332.213348388671875 -170.352493286132812 0.978314042091369629 186 1644825793.11058044 -0.555159091949462891 0.831535279750823975 0.011609252542257309 0.0145828099921345711
330.575836181640625 -172.051254272460938 0.86545330286026001 187 1644825793.61216283 -0.396504312753677368 0.917730391025543213 0.0100839622318744659 0.0212976802140474319
326.179351806640625 -175.1959228515625 0.617113947868347168 188 1644825794.61514163 -0.277605593204498291 0.960501015186309814 0.00670635001733899117 0.0181098263710737228
321.562255859375 -177.407318115234375 0.3687763512134552 189 1644825795.41394377 -0.2058391273021698 0.978292286396026611 0.00169658486265689135 0.0239084679633378983
316.351287841796875 -179.610092163085938 0.0688917860388755798 190 1644825796.20916557 -0.201883167028427124 0.979051709175109863 -0.00906425435096025467 0.0248758886009454727
311.36224365234375 -181.765548706054688 -0.215531915426254272 191 1644825796.91288376 -0.201320365071296692 0.978955626487731934 -0.014162801206111908 0.0302564222365617752
306.18121337890625 -183.975006103515625 -0.497748672962188721 192 1644825797.61097908 -0.19860374927520752 0.979534327983856201 -0.0166523735970258713 0.0281377732753753662
300.86187744140625 -186.197906494140625 -0.746460020542144775 193 1644825798.30970669 -0.194225013256072998 0.980379581451416016 -0.0234607495367527008 0.0241264887154102325
296.224822998046875 -188.0849609375 -0.928375124931335449 194 1644825798.91188145 -0.187298908829689026 0.981877684593200684 -0.0195715241134166718 0.0212668087333440781
291.54998779296875 -189.886871337890625 -1.10245645046234131 195 1644825799.50961065 -0.179262205958366394 0.983414888381958008 -0.0193602051585912704 0.019632633775472641
286.802398681640625 -191.629913330078125 -1.2651742696762085 196 1644825800.11105776 -0.170931071043014526 0.984851598739624023 -0.0207568928599357605 0.0204708725214004517
282.061126708984375 -193.305282592773438 -1.40898644924163818 197 1644825800.70977211 -0.165078848600387573 0.985959231853485107 -0.0194784309715032578 0.0159347914159297943
277.27239990234375 -194.9013671875 -1.55711400508880615 198 1644825801.3093605 -0.160081565380096436 0.986762583255767822 -0.0194440390914678574 0.017187243327498436
272.433380126953125 -196.483734130859375 -1.73375022411346436 199 1644825801.91148162 -0.152339980006217957 0.987631142139434814 -0.0170688014477491379 0.0329532772302627563
267.659271240234375 -197.980789184570312 -1.87985849380493164 200 1644825802.51273704 -0.146196112036705017 0.989019036293029785 -0.0213041529059410095 -0.00377065734937787056
262.803314208984375 -199.436859130859375 -2.04376459121704102 201 1644825803.1110208 -0.143348276615142822 0.989430665969848633 -0.0120840882882475853 0.0182257629930973053
257.9351806640625 -200.795761108398438 -2.20461177825927734 202 1644825803.71109629 -0.128806024789810181 0.991450250148773193 -0.0131980152800679207 0.0161640048027038574
253.042770385742188 -202.101470947265625 -2.38618159294128418 203 1644825804.31032515 -0.127835914492607117 0.991537868976593018 -0.0114573705941438675 0.0194757767021656036
248.111572265625 -203.344512939453125 -2.54788970947265625 204 1644825804.91032171 -0.122315935790538788 0.992259979248046875 -0.0132456179708242416 0.0168366339057683945
243.151748657226562 -204.512451171875 -2.71445608139038086 205 1644825805.5098753 -0.119034580886363983 0.992558181285858154 -0.0105240670964121819 0.0234154295176267624
238.200668334960938 -205.652664184570312 -2.87044978141784668 206 1644825806.11237955 -0.105805277824401855 0.994278788566589355 -0.0046938825398683548 0.0138878673315048218
233.230010986328125 -206.690231323242188 -3.00550127029418945 207 1644825806.71069694 -0.100119993090629578 0.99481511116027832 -0.00763207534328103065 0.0161443743854761124
228.242279052734375 -207.667221069335938 -3.15475106239318848 208 1644825807.31103611 -0.0947786644101142883 0.995307743549346924 -0.0107193877920508385 0.0162671282887458801
223.23272705078125 -208.574066162109375 -3.32667708396911621 209 1644825807.91170478 -0.08731803297996521 0.995894908905029297 -0.0145494183525443077 0.0189010836184024811
218.22283935546875 -209.432815551757812 -3.49203109741210938 210 1644825808.51200366 -0.0802529901266098022 0.996614634990692139 -0.00938718393445014954 0.0151864755898714066
213.209213256835938 -210.23980712890625 -3.6417078971862793 211 1644825809.11117268 -0.0732770562171936035 0.997202575206756592 -0.00526523636654019356 0.0137777999043464661
208.198699951171875 -210.964752197265625 -3.79857277870178223 212 1644825809.70904517 -0.071118183434009552 0.997330248355865479 -0.00691421562805771828 0.0150604313239455223
203.17547607421875 -211.65228271484375 -3.95747923851013184 213 1644825810.30959678 -0.0631174743175506592 0.9977874755859375 -0.0051702684722840786 0.0202397480607032776
198.14898681640625 -212.271316528320312 -4.11726617813110352 214 1644825810.90992379 -0.0590492524206638336 0.998013138771057129 -0.00973771139979362488 0.0197016671299934387
193.133743286132812 -212.851638793945312 -4.27721738815307617 215 1644825811.50919747 -0.0542028509080410004 0.998401522636413574 -0.00634017167612910271 0.0147066041827201843
188.090927124023438 -213.35272216796875 -4.40976095199584961 216 1644825812.109586 -0.0461402758955955505 0.998809754848480225 -0.00811343826353549957 0.0135784950107336044
183.039947509765625 -213.82159423828125 -4.56801748275756836 217 1644825812.71202803 -0.0432937443256378174 0.998979389667510986 -0.00162001932039856911 0.0127759063616394997
178.016204833984375 -214.251296997070312 -4.71124553680419922 218 1644825813.30989432 -0.0363967828452587128 0.999160289764404297 2.08409310289425775e-05 0.018813401460647583
172.959640502929688 -214.653579711914062 -4.85080146789550781 219 1644825813.91224957 -0.0327814966440200806 0.999348461627960205 0.00444519286975264549 0.0144334305077791214
167.910171508789062 -214.98297119140625 -4.97302436828613281 220 1644825814.51293921 -0.0318494215607643127 0.999438941478729248 0.000257641397183761001 0.0103620206937193871
162.102386474609375 -215.381668090820312 -5.05958080291748047 221 1644825815.21121097 -0.0371575206518173218 0.999293625354766846 -0.00378954038023948669 0.00414890050888061523
157.1142578125 -215.79827880859375 -5.13176870346069336 222 1644825815.81329656 -0.03969617560505867 0.999181628227233887 -0.00222237780690193176 0.00744255026802420616
151.376678466796875 -216.3389892578125 -5.20562553405761719 223 1644825816.51274347 -0.0453480817377567291 0.998953700065612793 0.00134490244090557098 0.00576577521860599518
145.658111572265625 -216.875732421875 -5.27960300445556641 224 1644825817.21045041 -0.0433868654072284698 0.999040961265563965 0.00420613354071974754 0.00413423450663685799
139.953155517578125 -217.306961059570312 -5.28714084625244141 225 1644825817.91197443 -0.0297635756433010101 0.999539017677307129 0.00337406527251005173 -0.00494631798937916756
134.227798461914062 -217.634597778320312 -5.36064910888671875 226 1644825818.61420226 -0.0169041231274604797 0.999803602695465088 0.0103323999792337418 -0.000551022356376051903
128.571212768554688 -217.814315795898438 -5.34616899490356445 227 1644825819.31183839 -0.00953713804483413696 0.999910116195678711 0.00940561573952436447 -0.00062012870330363512
122.937820434570312 -217.894363403320312 -5.35305023193359375 228 1644825820.01213861 -0.00388808478601276875 0.999942004680633545 0.00930397678166627884 -0.00378647469915449619
117.311767578125 -217.946517944335938 -5.39648914337158203 229 1644825820.71258593 -0.00141629762947559357 0.999978780746459961 0.00630015414208173752 0.000865854439325630665
111.680755615234375 -218.032012939453125 -5.50373983383178711 230 1644825821.41265011 -1.01285595519584604e-05 0.999999701976776123 -0.000575141631998121738 -0.000511217222083359957
106.028450012207031 -218.098541259765625 -5.38462066650390625 231 1644825822.11420345 -0.00228234240785241127 0.999917447566986084 0.0123226158320903778 -0.00282573211006820202
100.452339172363281 -218.242767333984375 -5.30827903747558594 232 1644825822.81417155 -0.00781708024442195892 0.999800622463226318 0.0163312852382659912 -0.00842093396931886673
94.8353805541992188 -218.500778198242188 -5.30200862884521484 233 1644825823.51428556 -0.0200116578489542007 0.999524891376495361 0.022834310308098793 -0.00530182244256138802
89.2337799072265625 -218.851699829101562 -5.28721761703491211 234 1644825824.21495724 -0.0337381660938262939 0.999253273010253906 0.0188263896852731705 -0.000383628124836832285
83.6491241455078125 -219.2802734375 -5.29044055938720703 235 1644825824.91377711 -0.0320307500660419464 0.999273955821990967 0.0205938704311847687 0.00120701978448778391
78.045074462890625 -219.579025268554688 -5.32012033462524414 236 1644825825.61334372 -0.0155585985630750656 0.999750912189483643 0.0159346573054790497 -0.00146595470141619444
72.4468917846679688 -219.662002563476562 -5.28736639022827148 237 1644825826.31423807 -0.00253460370004177094 0.999960005283355713 0.00686269672587513924 -0.00514383288100361824
66.8797378540039062 -219.578384399414062 -5.23784875869750977 238 1644825827.01504159 0.0151069434359669685 0.999870240688323975 0.00100728380493819714 -0.00549672730267047882
61.3417243957519531 -219.30126953125 -5.18656206130981445 239 1644825827.71435952 0.0319745801389217377 0.999436497688293457 -0.00800376571714878082 -0.00634557520970702171
55.8122329711914062 -218.839080810546875 -5.16082191467285156 240 1644825828.41547108 0.0503552369773387909 0.998677611351013184 -0.00679206289350986481 -0.00782834459096193314
50.2895393371582031 -218.136123657226562 -5.16238880157470703 241 1644825829.11428714 0.0762495696544647217 0.997083961963653564 -0.00296064908616244793 -0.000914517615456134081
44.8432655334472656 -216.889678955078125 -5.1684417724609375 242 1644825829.81532884 0.140124976634979248 0.990122556686401367 -0.00470090750604867935 0.000477456167573109269
39.6149635314941406 -214.886505126953125 -5.19769144058227539 243 1644825830.51661897 0.207994639873504639 0.978109359741210938 -0.00549452006816864014 0.00318640470504760742
34.6883735656738281 -212.254791259765625 -5.21036148071289062 244 1644825831.21470857 0.259475916624069214 0.965716063976287842 -0.00762142520397901535 -0.00257560773752629757
29.9653797149658203 -209.217208862304688 -5.22835826873779297 245 1644825831.91397023 0.295191049575805664 0.955397129058837891 -0.00878700707107782364 -0.00115218095015734434
25.4386444091796875 -205.908599853515625 -5.21368074417114258 246 1644825832.61417794 0.324395954608917236 0.945899665355682373 -0.00225785933434963226 -0.00600249506533145905
21.1312389373779297 -202.427841186523438 -5.14769124984741211 247 1644825833.31502891 0.336555153131484985 0.941299855709075928 0.0121966246515512466 -0.0231622271239757538
16.9162960052490234 -198.808059692382812 -5.06090307235717773 248 1644825834.01712847 0.352327138185501099 0.935834705829620361 0.0054241446778178215 -0.00704192835837602615
12.8186864852905273 -195.189529418945312 -4.95808887481689453 249 1644825834.71504545 0.364838004112243652 0.930755496025085449 0.0203047823160886765 -0.0132331643253564835
8.85408592224121094 -191.447982788085938 -4.7116551399230957 250 1644825835.41683412 0.376470685005187988 0.92641371488571167 0.00506241153925657272 -0.00135224824771285057
4.99850606918334961 -187.783035278320312 -4.61053657531738281 251 1644825836.11865807 0.376342982053756714 0.926085531711578369 0.0165312234312295914 -0.0214078016579151154
1.24296021461486816 -184.075302124023438 -4.32480573654174805 252 1644825836.81391025 0.379749417304992676 0.924528598785400391 0.0111652761697769165 -0.0302096344530582428
-2.47112774848937988 -180.37689208984375 -4.068695068359375 253 1644825837.51578808 0.383675754070281982 0.923047840595245361 0.0111632524058222771 -0.0255142375826835632
-6.08568716049194336 -176.7540283203125 -3.76645779609680176 254 1644825838.21349478 0.387359440326690674 0.921300113201141357 0.0168149992823600769 -0.0295981988310813904
-9.70105838775634766 -173.215072631835938 -3.44098997116088867 255 1644825838.91791844 0.375934064388275146 0.92589271068572998 0.0201975088566541672 -0.0314381420612335205
-13.9427194595336914 -169.540924072265625 -3.0800933837890625 256 1644825839.71435666 0.347363829612731934 0.937041282653808594 0.0245478525757789612 -0.0262556411325931549
-18.1764240264892578 -166.084991455078125 -2.67886257171630859 257 1644825840.51374412 0.339880853891372681 0.939612269401550293 0.0276095680892467499 -0.029111180454492569
-22.2511119842529297 -162.7003173828125 -2.30347776412963867 258 1644825841.31826305 0.350639283657073975 0.935661673545837402 0.029482521116733551 -0.0268342848867177963
-26.1072216033935547 -159.366714477539062 -1.96256482601165771 259 1644825842.11198068 0.361554712057113647 0.931375026702880859 0.0351532436907291412 -0.0241458229720592499
-30.1802806854248047 -155.503570556640625 -1.47197639942169189 260 1644825843.01721334 0.380026549100875854 0.922979414463043213 0.0383783020079135895 -0.0470736697316169739
-34.0030479431152344 -151.647689819335938 -0.99181288480758667 261 1644825843.91108751 0.388399988412857056 0.92020416259765625 0.0287833325564861298 -0.0392587967216968536
-37.6460685729980469 -147.915191650390625 -0.517212152481079102 262 1644825844.81259942 0.390098661184310913 0.91948091983795166 0.0195425786077976227 -0.0446762405335903168
-41.2284622192382812 -144.285812377929688 -0.0912758708000183105 263 1644825845.71045947 0.387725353240966797 0.920732498168945312 0.0154755702242255211 -0.0410032197833061218
-44.7311172485351562 -140.706954956054688 0.307356834411621094 264 1644825846.61700344 0.387743473052978516 0.920793712139129639 0.0105133317410945892 -0.0410289429128170013
-48.5234222412109375 -136.798019409179688 0.747474491596221924 265 1644825847.60907555 0.396002709865570068 0.917324542999267578 0.0113703878596425056 -0.0396007485687732697
-52.220733642578125 -132.720672607421875 1.15894317626953125 266 1644825848.61015201 0.418046176433563232 0.907757580280303955 0.0154166994616389275 -0.031239829957485199
-55.2618980407714844 -128.752532958984375 1.51380479335784912 267 1644825849.5114665 0.454305678606033325 0.889718949794769287 0.0124161913990974426 -0.043038737028837204
-57.8569984436035156 -124.454795837402344 1.89832115173339844 268 1644825850.40918779 0.50435715913772583 0.86223071813583374 0.00494263414293527603 -0.0464505702257156372
-59.9799041748046875 -119.899986267089844 2.29551243782043457 269 1644825851.30913019 0.548358321189880371 0.834687352180480957 0.00500965025275945663 -0.0507453978061676025
-61.6148567199707031 -115.183570861816406 2.71974325180053711 270 1644825852.21028209 0.59225618839263916 0.803995132446289062 0.0108110671862959862 -0.0520348362624645233
-62.91168212890625 -109.8126220703125 3.18018507957458496 271 1644825853.21052289 0.631783664226531982 0.773582696914672852 0.0145200518891215324 -0.046993449330329895
-63.710205078125 -104.887290954589844 3.55427813529968262 272 1644825854.10866499 0.657039225101470947 0.752964198589324951 0.0147537644952535629 -0.0335660018026828766
-64.27923583984375 -99.8969192504882812 3.9319465160369873 273 1644825855.01020455 0.671762764453887939 0.739458382129669189 0.0241706445813179016 -0.0367675274610519409
-64.6745758056640625 -94.9071197509765625 4.34197664260864258 274 1644825855.90906549 0.683837950229644775 0.728208065032958984 0.0267979074269533157 -0.0368859097361564636
-64.9541091918945312 -89.4334716796875 4.84735870361328125 275 1644825856.90898919 0.696623325347900391 0.714456498622894287 0.0450939573347568512 -0.0472694262862205505
-64.978851318359375 -84.4426345825195312 5.16878604888916016 276 1644825857.81139541 0.710875570774078369 0.702748000621795654 0.0157002601772546768 -0.0235519930720329285
-64.7737045288085938 -79.0661697387695312 5.62325048446655273 277 1644825858.80890584 0.733366072177886963 0.678262472152709961 0.0333492755889892578 -0.0319685973227024078
-63.829315185546875 -73.6825714111328125 6.02146100997924805 278 1644825859.81020784 0.771526157855987549 0.635030865669250488 0.022417750209569931 -0.0313146710395812988
-62.4664649963378906 -68.3938064575195312 6.43481254577636719 279 1644825860.80779648 0.798014283180236816 0.601123690605163574 0.0235331803560256958 -0.0356327854096889496
-60.1969146728515625 -63.4198837280273438 6.81395053863525391 280 1644825861.80784702 0.859969735145568848 0.508566677570343018 0.0171952918171882629 -0.0389396250247955322
-56.5931053161621094 -59.2303886413574219 7.09342098236083984 281 1644825862.8115871 0.924670517444610596 0.37842985987663269 0.00730583583936095238 -0.041495688259601593
-52.7042198181152344 -56.9920158386230469 7.26359987258911133 282 1644825863.60925341 0.976657748222351074 0.211618289351463318 0.0100302621722221375 -0.0354507677257061005
-47.5324859619140625 -56.0630149841308594 7.35630512237548828 283 1644825864.50889373 0.999092757701873779 0.0363864414393901825 0.000158072201884351671 -0.0221283566206693649
-42.3951988220214844 -56.1444816589355469 7.2153468132019043 284 1644825865.41492796 0.999117553234100342 -0.0359206944704055786 -0.0217660665512084961 0.000143327328260056674
-37.2582931518554688 -56.5580596923828125 7.11047029495239258 285 1644825866.91651821 0.99938124418258667 -0.0332714840769767761 -0.0111098131164908409 0.00260114623233675957
-32.1138877868652344 -56.1791534423828125 6.89043807983398438 286 1644825868.21273637 0.997302532196044922 0.0702972784638404846 -0.0211171358823776245 -0.000226148724323138595
-20.8227634429931641 -53.6882514953613281 6.21773338317871094 287 1644825870.21435285 0.997262835502624512 0.065593332052230835 -0.0287436675280332565 0.0183891430497169495
-4.63617420196533203 -54.2269439697265625 5.16275262832641602 288 1644825872.31221986 0.99826890230178833 -0.0458463132381439209 -0.0304328817874193192 0.0207649394869804382
12.2834644317626953 -56.1965866088867188 4.07965660095214844 289 1644825874.3130126 0.999570190906524658 -0.00307932612486183643 -0.0290324818342924118 -0.0026614130474627018
29.6073417663574219 -54.1339073181152344 2.90662097930908203 290 1644825876.3136673 0.99517822265625 0.0924974903464317322 -0.0246204361319541931 0.0214094538241624832
45.9977645874023438 -48.9024505615234375 2.26128363609313965 291 1644825878.31430531 0.972281754016876221 0.233432099223136902 -0.0112722814083099365 0.00711486255750060081
60.3828392028808594 -39.5296669006347656 2.18731260299682617 292 1644825880.41228342 0.940803229808807373 0.338387876749038696 0.0190861690789461136 0.00431206123903393745
72.1839599609375 -28.3781204223632812 2.71537137031555176 293 1644825882.51203537 0.923159658908843994 0.383977234363555908 0.0165690481662750244 -0.00794849824160337448
83.2572479248046875 -17.2138023376464844 3.43083333969116211 294 1644825884.61055541 0.921515762805938721 0.386977672576904297 0.0308714024722576141 -0.0101957879960536957
92.9215316772460938 -6.68776321411132812 4.24259090423583984 295 1644825886.61209679 0.91635364294052124 0.398094981908798218 0.0412054210901260376 0.0108837438747286797
102.209892272949219 3.07882952690124512 5.08343648910522461 296 1644825888.61263061 0.925395607948303223 0.377060145139694214 0.0381693430244922638 -0.00341999577358365059
111.82958984375 12.2872600555419922 6.05781650543212891 297 1644825890.71111226 0.930551230907440186 0.36340370774269104 0.0447396673262119293 -0.0032489607110619545
120.658065795898438 20.3504791259765625 6.95867156982421875 298 1644825892.71168017 0.932513236999511719 0.358273208141326904 0.0439952351152896881 -0.0111276451498270035
129.213333129882812 28.8846721649169922 7.83318233489990234 299 1644825894.81191039 0.904071211814880371 0.425730466842651367 0.0320418104529380798 -0.0195487942546606064
131.997726440429688 34.8970603942871094 8.27237796783447266 300 1644825896.01349282 0.823094785213470459 0.566713690757751465 0.0364627651870250702 0.00459048477932810783
132.717544555664062 39.5509567260742188 8.50234889984130859 301 1644825897.11282873 0.714494466781616211 0.699612081050872803 0.00628558825701475143 -0.00101890473160892725
131.817276000976562 41.7294921875 8.36550235748291016 302 1644825897.70944095 0.562494635581970215 0.82545173168182373 -0.0157204680144786835 0.0445209518074989319
129.107620239257812 44.9131736755371094 7.8753199577331543 303 1644825898.61409354 0.40690314769744873 0.911472141742706299 -0.0291178636252880096 0.0529197901487350464
125.027366638183594 48.2697486877441406 7.67111301422119141 304 1644825899.71366715 0.291006505489349365 0.956204593181610107 -0.0306085720658302307 -0.0071451207622885704
120.468544006347656 50.3939132690429688 7.70789909362792969 305 1644825900.81375813 0.217246681451797485 0.975973129272460938 -0.0138596938923001289 -0.00939637608826160431
115.923164367675781 52.7717819213867188 7.69831657409667969 306 1644825901.81369901 0.263272315263748169 0.964665234088897705 0.0064876386895775795 0.00816082488745450974
111.765762329101562 55.6899452209472656 7.67133760452270508 307 1644825902.91427422 0.319652915000915527 0.946698367595672607 -0.00773143116384744644 0.0390448234975337982
107.697586059570312 58.9455795288085938 7.6757502555847168 308 1644825904.11526155 0.345419734716415405 0.93836522102355957 0.0119577404111623764 0.00359810958616435528
103.735183715820312 62.5378532409667969 7.66182613372802734 309 1644825905.11338115 0.368357002735137939 0.929678201675415039 0.00261432444676756859 0.00217566965147852898
99.7926788330078125 66.314422607421875 7.627197265625 310 1644825906.01137519 0.381523489952087402 0.924244999885559082 0.0130843622609972954 0.0063063022680580616
90.6107254028320312 76.1865463256835938 7.7907867431640625 311 1644825908.01637793 0.410791695117950439 0.911680519580841064 0.00891314074397087097 -0.00305422162637114525
