# .PCD v0.7 - Point Cloud Data file format
VERSION 0.7
FIELDS x y z intensity roll pitch yaw time
SIZE 4 4 4 4 4 4 4 8
TYPE F F F F F F F F
COUNT 1 1 1 1 1 1 1 1
WIDTH 315
HEIGHT 1
VIEWPOINT 0 0 0 1 0 0 0
POINTS 315
DATA ascii
-63.3209228515625 -104.811470031738281 0.492151945829391479 109 0.0172239858657121658 0.0613811463117599487 2.90109157562255859 1644824156.45160651
-65.1966094970703125 -104.331222534179688 0.297653347253799438 110 0.0142603917047381401 0.070998266339302063 2.89594602584838867 1644824156.84997845
-67.0515518188476562 -103.89422607421875 0.202894136309623718 111 0.0162294693291187286 0.0665342658758163452 2.87785172462463379 1644824157.25218153
-68.02789306640625 -103.611312866210938 0.105916015803813934 112 0.011694079264998436 0.0766704976558685303 2.88674283027648926 1644824157.4522984
-69.0244827270507812 -103.400009155273438 0.0777463987469673157 113 0.0161141157150268555 0.0720351338386535645 2.89939069747924805 1644824157.65207267
-70.9853057861328125 -103.011077880859375 -0.0564603917300701141 114 0.00336973345838487148 0.086613290011882782 2.91224813461303711 1644824158.0521214
-71.9862442016601562 -102.778144836425781 -0.0654311329126358032 115 -0.00170339317992329597 0.0520957261323928833 2.92010974884033203 1644824158.24961448
-73.0358810424804688 -102.563850402832031 -0.153071209788322449 116 0.00267913262359797955 0.0772668421268463135 2.91737222671508789 1644824158.45285273
-74.0195236206054688 -102.365097045898438 -0.25292205810546875 117 0.00532184494659304619 0.0763487592339515686 2.9078526496887207 1644824158.64866185
-75.03271484375 -102.093399047851562 -0.305193990468978882 118 0.00158649845980107784 0.0731944292783737183 2.90717005729675293 1644824158.85177159
-76.0747222900390625 -101.83721923828125 -0.386411309242248535 119 0.00340401474386453629 0.0703047886490821838 2.91466879844665527 1644824159.04908347
-77.100372314453125 -101.672500610351562 -0.40317109227180481 120 -0.00466496031731367111 0.0732996389269828796 2.91529560089111328 1644824159.25075054
-78.09375 -101.430564880371094 -0.511895537376403809 121 -0.000168046157341450453 0.0672522112727165222 2.91097664833068848 1644824159.448421
-79.0863418579101562 -101.176666259765625 -0.529763996601104736 122 0.000148563791299238801 0.0740791633725166321 2.90521764755249023 1644824159.65058446
-80.0628128051757812 -100.93804931640625 -0.621229290962219238 123 0.00511418981477618217 0.0651742145419120789 2.90657424926757812 1644824159.84804058
-81.0456619262695312 -100.729766845703125 -0.655024468898773193 124 0.00306542427279055119 0.0664664283394813538 2.90418457984924316 1644824160.04823351
-82.948516845703125 -100.29345703125 -0.772990942001342773 125 -0.00680628931149840355 0.0624009110033512115 2.89679455757141113 1644824160.44838309
-84.8712844848632812 -99.7860565185546875 -0.878975391387939453 126 0.00341597013175487518 0.0643587857484817505 2.89834237098693848 1644824160.84807062
-86.7409591674804688 -99.3629074096679688 -0.953131556510925293 127 0.00388862448744475842 0.0588790662586688995 2.89475035667419434 1644824161.250036
-88.5957717895507812 -98.9048233032226562 -1.02674615383148193 128 0.00443265540525317192 0.0545333437621593475 2.90191459655761719 1644824161.64824438
-90.4275283813476562 -98.494049072265625 -1.12609279155731201 129 0.00806066300719976425 0.0488241426646709442 2.90774846076965332 1644824162.04867387
-92.2393951416015625 -98.0585250854492188 -1.17836260795593262 130 0.0138146979734301567 0.0506806783378124237 2.90814638137817383 1644824162.45112324
-94.0645904541015625 -97.6719131469726562 -1.29422628879547119 131 0.0155136846005916595 0.0640959665179252625 2.91332030296325684 1644824162.85154939
-95.8592147827148438 -97.2557754516601562 -1.29366147518157959 132 0.0157756712287664413 0.0371732935309410095 2.92175984382629395 1644824163.25013947
-97.6945419311523438 -96.8635101318359375 -1.40807139873504639 133 0.0208925735205411911 0.0438972450792789459 2.92225027084350586 1644824163.64984107
-99.5470962524414062 -96.4814987182617188 -1.4837418794631958 134 0.0351254753768444061 0.0506631806492805481 2.92467021942138672 1644824164.04861879
-101.344474792480469 -96.080902099609375 -1.51058530807495117 135 0.0296548381447792053 0.0362995602190494537 2.92191815376281738 1644824164.4512074
-103.250503540039062 -95.6222381591796875 -1.57103514671325684 136 0.0377659127116203308 0.0423388108611106873 2.92331671714782715 1644824164.8509593
-105.122764587402344 -95.2807846069335938 -1.70254373550415039 137 0.0332278721034526825 0.0554537214338779449 2.91998958587646484 1644824165.25004959
-107.007278442382812 -94.833740234375 -1.77380073070526123 138 0.0353676080703735352 0.0417198091745376587 2.92114472389221191 1644824165.65070748
-108.889961242675781 -94.408721923828125 -1.82997238636016846 139 0.0319935008883476257 0.0584752261638641357 2.91777634620666504 1644824166.04998994
-110.823165893554688 -93.9962615966796875 -1.91826260089874268 140 0.0278039760887622833 0.0599494799971580505 2.91549777984619141 1644824166.44944549
-112.721603393554688 -93.5629425048828125 -2.07530665397644043 141 0.028428228572010994 0.0552568621933460236 2.90888452529907227 1644824166.848804
-113.747795104980469 -93.32666015625 -2.09832978248596191 142 0.026296103373169899 0.0521777309477329254 2.91461539268493652 1644824167.05136228
-115.668876647949219 -92.8998794555664062 -2.14231204986572266 143 0.02543671615421772 0.0298038236796855927 2.91027164459228516 1644824167.45276833
-116.67413330078125 -92.6527862548828125 -2.09667491912841797 144 0.0183190144598484039 0.0465641729533672333 2.91605877876281738 1644824167.64964581
-117.669563293457031 -92.450897216796875 -2.12379860877990723 145 0.0206802990287542343 0.00975999701768159866 2.91393017768859863 1644824167.85083413
-118.672370910644531 -92.2501602172851562 -2.10948419570922852 146 0.017175823450088501 0.0156401060521602631 2.91123199462890625 1644824168.04890776
-120.573631286621094 -91.7683792114257812 -2.23137426376342773 147 0.00809264741837978363 0.0215511266142129898 2.90889692306518555 1644824168.45172501
-121.598243713378906 -91.5809707641601562 -2.15467953681945801 148 0.00186666974332183599 0.0214081741869449615 2.91015362739562988 1644824168.64868164
-123.452369689941406 -91.1577682495117188 -2.29849481582641602 149 0.00761326774954795837 0.0163366887718439102 2.9005732536315918 1644824169.04968762
-125.384689331054688 -90.7054290771484375 -2.25038838386535645 150 0.00189088855404406786 0.0125469453632831573 2.90084934234619141 1644824169.4496665
-127.237777709960938 -90.2447967529296875 -2.32142424583435059 151 0.00452874507755041122 0.0228623673319816589 2.8894345760345459 1644824169.85166836
-129.08807373046875 -89.7398300170898438 -2.30189061164855957 152 -0.00642001256346702576 0.0167463291436433792 2.88083219528198242 1644824170.25063467
-130.966781616210938 -89.2947463989257812 -2.25293421745300293 153 -0.00922901462763547897 0.0156675372272729874 2.88527965545654297 1644824170.65167308
-132.720413208007812 -88.8498382568359375 -2.41471695899963379 154 0.00125789642333984375 0.00369579438120126724 2.8907170295715332 1644824171.05023623
-134.455703735351562 -88.4311065673828125 -2.32575368881225586 155 -0.00209152838215231895 0.000326503592077642679 2.88460421562194824 1644824171.4510169
-136.251785278320312 -87.8952484130859375 -2.23932814598083496 156 0.00317690242081880569 0.00023199831775855273 2.86996698379516602 1644824171.851331
-137.82794189453125 -87.4205398559570312 -2.27121925354003906 157 0.0101437577977776527 -0.00430045044049620628 2.84741830825805664 1644824172.25048542
-139.408584594726562 -86.8465347290039062 -2.19998764991760254 158 0.0247407685965299606 -0.02202625572681427 2.81822299957275391 1644824172.65465164
-140.902313232421875 -86.30511474609375 -2.19630861282348633 159 0.0258795600384473801 -0.0111302398145198822 2.79872393608093262 1644824173.05079079
-142.456832885742188 -85.734344482421875 -2.13994359970092773 160 0.0349231362342834473 -0.0297795925289392471 2.78326845169067383 1644824173.45177865
-144.206298828125 -85.0038833618164062 -2.06055855751037598 161 0.0434821955859661102 -0.0378822498023509979 2.76511287689208984 1644824173.85199404
-145.991424560546875 -84.3067779541015625 -2.05110740661621094 162 0.0396999791264533997 -0.0297965705394744873 2.73793363571166992 1644824174.25042868
-146.95513916015625 -83.8415145874023438 -2.01539301872253418 163 0.0391196161508560181 -0.0237412471324205399 2.72209692001342773 1644824174.45152593
-147.933242797851562 -83.3660202026367188 -1.98985934257507324 164 0.039522320032119751 -0.0219631828367710114 2.70175361633300781 1644824174.65363526
-148.90631103515625 -82.8595046997070312 -1.84212946891784668 165 0.0350630581378936768 -0.0331279784440994263 2.68123912811279297 1644824174.85131431
-150.650970458984375 -81.8511810302734375 -1.90494179725646973 166 0.0436787828803062439 -0.0220108237117528915 2.62339591979980469 1644824175.25178099
-151.525222778320312 -81.30755615234375 -1.81960272789001465 167 0.0440302528440952301 -0.024269619956612587 2.59297466278076172 1644824175.45196724
-152.389801025390625 -80.7375946044921875 -1.79089891910552979 168 0.0453154295682907104 -0.0201024878770112991 2.57481980323791504 1644824175.64770198
-153.299484252929688 -80.1259307861328125 -1.75414121150970459 169 0.0464037247002124786 -0.032255072146654129 2.56483817100524902 1644824175.85223603
-154.958175659179688 -79.0507354736328125 -1.68227469921112061 170 0.0492513477802276611 -0.0338193811476230621 2.5567774772644043 1644824176.24782634
-156.613265991210938 -77.9322738647460938 -1.58898472785949707 171 0.0418968573212623596 -0.0413179434835910797 2.54209423065185547 1644824176.64709187
-157.463714599609375 -77.3313217163085938 -1.54311525821685791 172 0.0466331914067268372 -0.0428612865507602692 2.52631068229675293 1644824176.85052514
-159.01861572265625 -76.1755294799804688 -1.45967686176300049 173 0.0508589223027229309 -0.043709874153137207 2.49951815605163574 1644824177.24814558
-159.84649658203125 -75.53045654296875 -1.43677937984466553 174 0.0517364144325256348 -0.0446067042648792267 2.49334025382995605 1644824177.45123267
-160.649017333984375 -74.9366531372070312 -1.37417829036712646 175 0.0443613454699516296 -0.0388496071100234985 2.48417520523071289 1644824177.64637733
-162.157211303710938 -73.723480224609375 -1.29525399208068848 176 0.0450924597680568695 -0.0447563119232654572 2.45834875106811523 1644824178.04825115
-163.712310791015625 -72.3790740966796875 -1.15708315372467041 177 0.0440132282674312592 -0.044971030205488205 2.43521714210510254 1644824178.44794512
-165.037979125976562 -71.2005157470703125 -1.04298067092895508 178 0.044307023286819458 -0.0553496144711971283 2.39861607551574707 1644824178.85019255
-166.473190307617188 -69.7583236694335938 -0.960975468158721924 179 0.0452796705067157745 -0.0563034676015377045 2.36314249038696289 1644824179.24751496
-167.735015869140625 -68.4444351196289062 -0.833994686603546143 180 0.0496773198246955872 -0.0598028823733329773 2.33570742607116699 1644824179.64999199
-169.072906494140625 -67.067352294921875 -0.685887277126312256 181 0.044917762279510498 -0.063958778977394104 2.32543349266052246 1644824180.04681969
-170.343460083007812 -65.6214447021484375 -0.540546238422393799 182 0.0410043150186538696 -0.0668049603700637817 2.2970890998840332 1644824180.4487834
-171.017959594726562 -64.8065185546875 -0.449672311544418335 183 0.0482801571488380432 -0.0654826313257217407 2.2666776180267334 1644824180.65083766
-172.219833374023438 -63.2464141845703125 -0.349321305751800537 184 0.0513841696083545685 -0.0609018467366695404 2.2195582389831543 1644824181.04717088
-172.82763671875 -62.3994903564453125 -0.288575202226638794 185 0.0523840002715587616 -0.0620723962783813477 2.19720458984375 1644824181.24740195
-173.417770385742188 -61.5412826538085938 -0.230109274387359619 186 0.0563037954270839691 -0.0632876753807067871 2.17887759208679199 1644824181.45007348
-174.008132934570312 -60.6741600036621094 -0.181494250893592834 187 0.0548199079930782318 -0.0638309121131896973 2.1679682731628418 1644824181.64955568
-174.604721069335938 -59.8027420043945312 -0.125607401132583618 188 0.0513161420822143555 -0.064223170280456543 2.16189932823181152 1644824181.84741974
-175.180191040039062 -58.9437942504882812 -0.0624639503657817841 189 0.0480009652674198151 -0.0692062750458717346 2.15300607681274414 1644824182.04726839
-175.75640869140625 -58.0663185119628906 7.67212623031809926e-05 190 0.0465208441019058228 -0.0706245154142379761 2.14249420166015625 1644824182.24905324
-176.300918579101562 -57.2058868408203125 0.084726385772228241 191 0.0436786450445652008 -0.0705990716814994812 2.13279986381530762 1644824182.45126915
-176.822052001953125 -56.3501625061035156 0.196624100208282471 192 0.041936337947845459 -0.0696614533662796021 2.11633396148681641 1644824182.65038109
-177.314239501953125 -55.4736862182617188 0.276199668645858765 193 0.0455078743398189545 -0.071877405047416687 2.09802627563476562 1644824182.84986877
-178.153839111328125 -53.9465904235839844 0.429153561592102051 194 0.0479320473968982697 -0.0740320831537246704 2.07233428955078125 1644824183.24952936
-178.949844360351562 -52.4427413940429688 0.550579249858856201 195 0.0541322864592075348 -0.0709778517484664917 2.05644750595092773 1644824183.64856887
-179.670867919921875 -51.0603866577148438 0.705407023429870605 196 0.0567220114171504974 -0.0781615376472473145 2.06293463706970215 1644824184.04762387
-180.499908447265625 -49.6285514831542969 0.790552914142608643 197 0.0433003604412078857 -0.0639821216464042664 2.0679779052734375 1644824184.44746971
-181.191421508789062 -48.3377418518066406 0.915470600128173828 198 0.0456263497471809387 -0.0636573284864425659 2.05363273620605469 1644824184.84895086
-181.761932373046875 -47.1032142639160156 0.98830646276473999 199 0.0498951897025108337 -0.0642965212464332581 2.03572678565979004 1644824185.24709392
-182.282440185546875 -46.0983467102050781 1.08758187294006348 200 0.0499098189175128937 -0.0633649304509162903 2.0253443717956543 1644824185.64729905
-182.720245361328125 -45.1381912231445312 1.17698097229003906 201 0.0498583540320396423 -0.0633434802293777466 2.01133918762207031 1644824186.04763889
-183.211868286132812 -44.0655479431152344 1.25799226760864258 202 0.0525617189705371857 -0.0667803063988685608 2.01141595840454102 1644824186.64847898
-183.776275634765625 -42.8805465698242188 1.36777472496032715 203 0.052332073450088501 -0.0874506458640098572 1.99628055095672607 1644824187.44785929
-184.35601806640625 -41.5640869140625 1.46945023536682129 204 0.0537915080785751343 -0.0820461362600326538 1.99336349964141846 1644824188.04644608
-184.81005859375 -40.5726737976074219 1.5542752742767334 205 0.0545583777129650116 -0.0811412930488586426 1.99222421646118164 1644824188.44834828
-185.25469970703125 -39.5737800598144531 1.64219999313354492 206 0.053097900003194809 -0.0759178996086120605 1.98957943916320801 1644824188.84692216
-185.827774047851562 -38.2922859191894531 1.7456355094909668 207 0.0531152449548244476 -0.0784244313836097717 1.99768221378326416 1644824189.44723535
-186.424468994140625 -37.1754913330078125 1.85500454902648926 208 0.0479992739856243134 -0.0829398632049560547 2.03280091285705566 1644824190.04650211
-187.031570434570312 -36.2042274475097656 1.95663142204284668 209 0.0422609001398086548 -0.0782856196165084839 2.06854462623596191 1644824190.64662957
-187.563888549804688 -35.3558540344238281 2.05766129493713379 210 0.032252483069896698 -0.0839219540357589722 2.10540008544921875 1644824191.44835782
-188.440811157226562 -34.2444725036621094 2.12754225730895996 211 0.0272811036556959152 -0.0847302451729774475 2.20660805702209473 1644824192.24727702
-189.189224243164062 -33.4449043273925781 2.23882651329040527 212 0.0181084014475345612 -0.0721141323447227478 2.26201558113098145 1644824192.84814405
-189.980911254882812 -32.4956092834472656 2.33684182167053223 213 0.0275914426892995834 -0.0779917463660240173 2.26355528831481934 1644824193.64868784
-190.734664916992188 -31.4983997344970703 2.4772639274597168 214 0.0308608170598745346 -0.0789406523108482361 2.23066163063049316 1644824194.4492557
-191.319549560546875 -30.5364952087402344 2.57055068016052246 215 0.0381628870964050293 -0.0886768177151679993 2.16087174415588379 1644824195.44980454
-191.763687133789062 -29.6312255859375 2.64450478553771973 216 0.0486340261995792389 -0.0907789468765258789 2.08810138702392578 1644824196.4499588
-192.238723754882812 -28.6467552185058594 2.70362544059753418 217 0.0492311529815196991 -0.0744220837950706482 2.04476404190063477 1644824197.25054216
-192.701095581054688 -27.5852909088134766 2.86678624153137207 218 0.0558533445000648499 -0.0921850353479385376 2.00824713706970215 1644824205.64853072
-193.163681030273438 -26.4503231048583984 2.90714097023010254 219 0.0617591440677642822 -0.0787690877914428711 1.9797508716583252 1644824206.25028443
-193.565887451171875 -25.4757766723632812 3.0172736644744873 220 0.0614577308297157288 -0.0776931121945381165 1.95642578601837158 1644824206.65015745
-194.044464111328125 -24.2513866424560547 3.08390045166015625 221 0.0559454932808876038 -0.0596963278949260712 1.93865787982940674 1644824207.04937243
-194.416046142578125 -23.1826610565185547 3.16606998443603516 222 0.0473324097692966461 -0.0576874762773513794 1.91485166549682617 1644824207.44846821
-194.816986083984375 -21.8951988220214844 3.22714686393737793 223 0.0526959896087646484 -0.0592483729124069214 1.88061809539794922 1644824208.04913116
-195.13916015625 -20.7401618957519531 3.33383727073669434 224 0.0737028643488883972 -0.0660735368728637695 1.86434030532836914 1644824208.84837747
-195.773895263671875 -19.9566211700439453 3.4344027042388916 225 0.0625880211591720581 -0.0875262022018432617 2.08099770545959473 1644824209.65205216
-196.77764892578125 -19.2221832275390625 3.46031618118286133 226 0.0243000257760286331 -0.0916349887847900391 2.34936714172363281 1644824210.25113273
-197.51617431640625 -18.500274658203125 3.68860793113708496 227 0.00727248983457684517 -0.069371148943901062 2.33455610275268555 1644824210.85182929
-197.832077026367188 -17.4639339447021484 3.63041901588439941 228 0.0487799011170864105 -0.0854284018278121948 2.07798242568969727 1644824211.64947891
-197.8360595703125 -16.7147979736328125 3.69441461563110352 229 0.0568503141403198242 -0.0497031211853027344 1.86126220226287842 1644824212.05222654
-197.675384521484375 -16.057525634765625 3.76522207260131836 230 0.0776044130325317383 -0.0378514975309371948 1.64590907096862793 1644824212.45099926
-197.363677978515625 -15.5422601699829102 3.7007901668548584 231 0.0959432944655418396 -0.015538947656750679 1.44292628765106201 1644824212.85287809
-196.853302001953125 -15.0007209777832031 3.68776750564575195 232 0.0938435345888137817 0.00869139842689037323 1.17480611801147461 1644824213.45427871
-196.340087890625 -14.7114543914794922 3.70738410949707031 233 0.107330068945884705 0.018797311931848526 0.951236844062805176 1644824214.05230021
-195.73004150390625 -14.4941692352294922 3.61403226852416992 234 0.0966607183218002319 0.0422255359590053558 0.701462090015411377 1644824214.85147285
-195.1375732421875 -14.4826955795288086 3.66690802574157715 235 0.0856835469603538513 0.0399907156825065613 0.469620764255523682 1644824215.85222054
-194.590728759765625 -14.571446418762207 3.63132405281066895 236 0.0810164809226989746 0.039746604859828949 0.265936702489852905 1644824217.05339336
-193.868438720703125 -14.8353490829467773 3.52756547927856445 237 0.0626979395747184753 0.0668790638446807861 -0.00735974404960870743 1644824217.85430431
-193.310455322265625 -15.2701349258422852 3.50102090835571289 238 0.0460932925343513489 0.0841504260897636414 -0.273585289716720581 1644824218.45266986
-192.826217651367188 -15.8965616226196289 3.40856766700744629 239 0.0185106992721557617 0.103001527488231659 -0.562600910663604736 1644824219.05073261
-192.564041137695312 -16.4078044891357422 3.34541416168212891 240 -0.0104398811236023903 0.108278073370456696 -0.76903378963470459 1644824219.45296383
-192.28240966796875 -17.28204345703125 3.32641434669494629 241 -0.0343810170888900757 0.0976581573486328125 -1.01550078392028809 1644824220.04789591
-191.653961181640625 -18.4199047088623047 3.13218426704406738 242 -0.0437552742660045624 0.104461252689361572 -1.06277894973754883 1644824220.85354042
-191.087921142578125 -19.4098625183105469 3.05264067649841309 243 -0.0468780100345611572 0.104888126254081726 -1.04817986488342285 1644824221.45520687
-190.310928344726562 -20.5940628051757812 2.93300437927246094 244 -0.0533618852496147156 0.0781578347086906433 -1.02485930919647217 1644824222.04772854
-189.54473876953125 -21.6608638763427734 2.78002071380615234 245 -0.0557508803904056549 0.0739749670028686523 -1.00556504726409912 1644824222.44941354
-188.79644775390625 -22.9456214904785156 2.68637800216674805 246 -0.0432023666799068451 0.0879023298621177673 -1.01405811309814453 1644824222.85384321
-188.042724609375 -24.2662868499755859 2.6401970386505127 247 -0.0385627597570419312 0.0875163599848747253 -1.04928886890411377 1644824223.2508533
-187.35101318359375 -25.6262378692626953 2.46691298484802246 248 -0.034979555755853653 0.0867402926087379456 -1.08116841316223145 1644824223.64979649
-186.636642456054688 -26.99224853515625 2.35217809677124023 249 -0.0397647209465503693 0.0858455449342727661 -1.09642612934112549 1644824224.05074573
-185.987930297851562 -28.3396263122558594 2.23468399047851562 250 -0.0412869155406951904 0.0870897173881530762 -1.12002301216125488 1644824224.44819069
-185.21148681640625 -29.7702198028564453 2.14158868789672852 251 -0.042953047901391983 0.0858675986528396606 -1.10015511512756348 1644824224.84824133
-184.447021484375 -31.1625232696533203 1.97549927234649658 252 -0.0416700132191181183 0.0882636159658432007 -1.07413804531097412 1644824225.24788666
-183.629501342773438 -32.5580024719238281 1.8883359432220459 253 -0.0359399467706680298 0.093526110053062439 -1.05587315559387207 1644824225.65013385
-182.78143310546875 -33.9393119812011719 1.68165481090545654 254 -0.0369043834507465363 0.0878045335412025452 -1.04382848739624023 1644824226.05138969
-181.934432983398438 -35.4237022399902344 1.57063078880310059 255 -0.0354819037020206451 0.0812852382659912109 -1.0506138801574707 1644824226.44980359
-181.133544921875 -36.9092369079589844 1.46263670921325684 256 -0.0419810377061367035 0.0887328162789344788 -1.06593430042266846 1644824226.84829998
-180.343399047851562 -38.3715133666992188 1.29678487777709961 257 -0.0230118557810783386 0.0760958492755889893 -1.08288764953613281 1644824227.24887013
-179.651336669921875 -39.8510932922363281 1.14160895347595215 258 -0.0199366491287946701 0.0911001041531562805 -1.10328197479248047 1644824227.65007472
-179.018936157226562 -41.1483879089355469 1.04636693000793457 259 -0.00593056157231330872 0.0976435169577598572 -1.12284791469573975 1644824228.05139995
-178.221511840820312 -42.5124053955078125 0.917265355587005615 260 -0.00999993085861206055 0.0920085012912750244 -1.07141518592834473 1644824228.44832659
-177.367843627929688 -43.7750663757324219 0.767506718635559082 261 0.00820199586451053619 0.076127961277961731 -1.00519824028015137 1644824228.85026336
-176.538131713867188 -44.9596519470214844 0.654284238815307617 262 -0.00755726266652345657 0.115073136985301971 -0.992028117179870605 1644824229.25223231
-175.807083129882812 -46.4097366333007812 0.535503506660461426 263 0.000972651236224919558 0.0803630873560905457 -1.04276633262634277 1644824229.65063071
-175.205352783203125 -47.4790992736816406 0.378030866384506226 264 -0.0404538623988628387 0.0821739137172698975 -1.09870660305023193 1644824230.04959297
-174.417404174804688 -49.0624961853027344 0.304600775241851807 265 -0.062872961163520813 0.0724821537733078003 -1.13404905796051025 1644824230.45025539
-173.844512939453125 -50.3705787658691406 0.218821629881858826 266 -0.0587157309055328369 0.0773193091154098511 -1.14322578907012939 1644824230.84895396
-173.031509399414062 -51.8447036743164062 0.124445483088493347 267 -0.0652217790484428406 0.0814389809966087341 -1.12740826606750488 1644824231.25096583
-172.378677368164062 -53.3188896179199219 -0.0169347953051328659 268 -0.0611926503479480743 0.0854224562644958496 -1.12994587421417236 1644824231.65084004
-171.629791259765625 -54.7020492553710938 -0.0734165012836456299 269 -0.0697500705718994141 0.078719504177570343 -1.10402929782867432 1644824232.04876781
-170.782806396484375 -56.1575469970703125 -0.21990753710269928 270 -0.0548712499439716339 0.0863339081406593323 -1.05508410930633545 1644824232.44814777
-169.855133056640625 -57.4757652282714844 -0.444075644016265869 271 -0.0410999283194541931 0.0984649732708930969 -0.989919006824493408 1644824232.85004401
-168.785537719726562 -58.8250160217285156 -0.576407134532928467 272 -0.0455030500888824463 0.0785721763968467712 -0.937288582324981689 1644824233.24824882
-167.78045654296875 -60.1154022216796875 -0.688091754913330078 273 -0.0495453625917434692 0.095033891499042511 -0.924219071865081787 1644824233.64824677
-166.670272827148438 -61.4593505859375 -0.802477240562438965 274 -0.0558579154312610626 0.0828287303447723389 -0.907387077808380127 1644824234.04872465
-165.615325927734375 -62.7457427978515625 -0.984161257743835449 275 -0.0621259696781635284 0.0982224941253662109 -0.897858202457427979 1644824234.44765663
-164.53631591796875 -64.0132675170898438 -0.983440220355987549 276 -0.0696185752749443054 0.0707822814583778381 -0.881420731544494629 1644824234.84810805
-163.506195068359375 -65.2103729248046875 -1.1135413646697998 277 -0.0515150055289268494 0.0628774538636207581 -0.86821514368057251 1644824235.25149441
-162.813613891601562 -65.9540863037109375 -1.16969168186187744 278 -0.0493214316666126251 0.0701246559619903564 -0.837262332439422607 1644824235.44798779
-161.756851196289062 -66.9557342529296875 -1.18179357051849365 279 -0.05072040855884552 0.0597583465278148651 -0.799997687339782715 1644824235.84945917
-160.466461181640625 -68.1348114013671875 -1.38351190090179443 280 -0.057052120566368103 0.0710610449314117432 -0.762592673301696777 1644824236.25174093
-159.278366088867188 -69.1978073120117188 -1.36440324783325195 281 -0.0609122402966022491 0.0580305308103561401 -0.745032131671905518 1644824236.65024233
-158.037948608398438 -70.249755859375 -1.60173916816711426 282 -0.0449848175048828125 0.0648743435740470886 -0.72298508882522583 1644824237.05006814
-156.788558959960938 -71.24407958984375 -1.70446562767028809 283 -0.0381169393658638 0.0615823157131671906 -0.697227180004119873 1644824237.45140433
-155.45098876953125 -72.2923660278320312 -1.82568395137786865 284 -0.0425445586442947388 0.0696749463677406311 -0.670318245887756348 1644824237.84944129
-154.147628784179688 -73.274688720703125 -1.76322150230407715 285 -0.0425085350871086121 0.0495700947940349579 -0.648274064064025879 1644824238.24948668
-152.92364501953125 -74.089202880859375 -1.88248741626739502 286 -0.0429257266223430634 0.0549893751740455627 -0.625885128974914551 1644824238.65004301
-151.5299072265625 -75.0302352905273438 -1.95291221141815186 287 -0.0330624133348464966 0.0436888746917247772 -0.602768003940582275 1644824239.04944086
-150.310546875 -75.79852294921875 -2.0571599006652832 288 -0.0370264463126659393 0.0621399693191051483 -0.5884246826171875 1644824239.45037103
-148.928695678710938 -76.6094436645507812 -2.07871007919311523 289 -0.0449988916516304016 0.0394737422466278076 -0.563976049423217773 1644824239.84965348
-147.753021240234375 -77.3194503784179688 -2.07502532005310059 290 -0.0544808246195316315 0.0342136546969413757 -0.559170722961425781 1644824240.25039649
-146.39276123046875 -78.09771728515625 -2.15380740165710449 291 -0.0423730276525020599 0.0261466540396213531 -0.539027392864227295 1644824240.65189219
-144.974288940429688 -78.8868484497070312 -2.16321849822998047 292 -0.0449533760547637939 0.0262350644916296005 -0.504249095916748047 1644824241.05024934
-143.474563598632812 -79.4967727661132812 -2.28430414199829102 293 -0.0391072370111942291 0.0377403087913990021 -0.457420527935028076 1644824241.4520874
-141.727035522460938 -80.2678680419921875 -2.29217410087585449 294 -0.0364652574062347412 0.0174816958606243134 -0.406414002180099487 1644824241.85223174
-140.190673828125 -80.8599777221679688 -2.28045034408569336 295 -0.0377721525728702545 0.029058113694190979 -0.370364665985107422 1644824242.25081277
-138.569564819335938 -81.3183212280273438 -2.3860018253326416 296 -0.0433105342090129852 0.0319960862398147583 -0.32757905125617981 1644824242.65004992
-137.04229736328125 -81.833709716796875 -2.37075519561767578 297 -0.0480731092393398285 0.0181597061455249786 -0.32103767991065979 1644824243.05317473
-135.59478759765625 -82.2656097412109375 -2.44850635528564453 298 -0.0529728680849075317 0.01142082829028368 -0.316931396722793579 1644824243.4509685
-134.392013549804688 -82.7229461669921875 -2.33734774589538574 299 -0.0417034216225147247 0.00491086486726999283 -0.336333215236663818 1644824243.84963322
-132.926834106445312 -83.136322021484375 -2.29761672019958496 300 -0.0544891320168972015 0.0233147703111171722 -0.310451805591583252 1644824244.25379062
-131.851287841796875 -83.4644699096679688 -2.32783317565917969 301 -0.0577268749475479126 0.00261845043860375881 -0.28861701488494873 1644824244.65202928
-130.68682861328125 -83.673004150390625 -2.35935568809509277 302 -0.0541102290153503418 -0.00791075453162193298 -0.251557916402816772 1644824245.0534513
-129.436447143554688 -83.9769744873046875 -2.35394787788391113 303 -0.0573593825101852417 -0.0182198155671358109 -0.22559279203414917 1644824245.45397329
-128.209259033203125 -84.1966171264648438 -2.39611554145812988 304 -0.0410199761390686035 -0.0165496338158845901 -0.207304820418357849 1644824245.8492806
-126.690414428710938 -84.4876632690429688 -2.33696722984313965 305 -0.0296037737280130386 -0.00503155775368213654 -0.182606711983680725 1644824246.25363183
-125.146011352539062 -84.7354736328125 -2.28400230407714844 306 -0.0427310653030872345 -0.0422879420220851898 -0.163005635142326355 1644824246.64970422
-123.535842895507812 -85.0277023315429688 -2.35726499557495117 307 -0.0150219779461622238 -0.0136991981416940689 -0.189324527978897095 1644824247.04904127
-121.814697265625 -85.436248779296875 -2.19321513175964355 308 -0.0263519417494535446 -0.0104814935475587845 -0.213503673672676086 1644824247.45327044
-120.064964294433594 -85.8339004516601562 -2.18816995620727539 309 -0.0237272512167692184 -0.00650462228804826736 -0.238460525870323181 1644824247.84855413
-118.271232604980469 -86.277099609375 -2.31150674819946289 310 -0.0232717301696538925 0.000993189285509288311 -0.260544508695602417 1644824248.24935031
-116.521980285644531 -86.82177734375 -2.17125844955444336 311 -0.0352214276790618896 -0.0199452545493841171 -0.279952377080917358 1644824248.64947629
-115.53216552734375 -87.12139892578125 -2.19002676010131836 312 -0.0227711834013462067 -0.0223499052226543427 -0.289190500974655151 1644824248.8486402
-114.566246032714844 -87.4024124145507812 -2.08889436721801758 313 -0.0167652629315853119 -0.0248253736644983292 -0.296870231628417969 1644824249.04786325
-112.729423522949219 -87.957916259765625 -2.08700251579284668 314 -0.00845160242170095444 -0.0300007704645395279 -0.274708032608032227 1644824249.45145917
-110.833580017089844 -88.36553955078125 -2.03116464614868164 315 0.00351577950641512871 -0.0493698380887508392 -0.231975987553596497 1644824249.84719753
-109.84283447265625 -88.578094482421875 -2.02917027473449707 316 0.00575843174010515213 -0.0435047484934329987 -0.218152403831481934 1644824250.05284905
-108.812705993652344 -88.7678909301757812 -2.02674293518066406 317 -0.00440308451652526855 -0.0389636270701885223 -0.208295673131942749 1644824250.25242805
-107.792556762695312 -88.9642868041992188 -1.89559876918792725 318 -0.0175496097654104233 -0.0424899682402610779 -0.205320015549659729 1644824250.44835615
-106.76629638671875 -89.1752853393554688 -1.8893883228302002 319 -0.0169772598892450333 -0.0362721756100654602 -0.215208277106285095 1644824250.64994597
-105.782478332519531 -89.4020462036132812 -1.86557435989379883 320 -0.0163851585239171982 -0.0408968068659305573 -0.225724324584007263 1644824250.84947252
-104.726394653320312 -89.6594772338867188 -1.79726660251617432 321 -0.025882575660943985 -0.0383520498871803284 -0.229448482394218445 1644824251.04767227
-103.674186706542969 -89.847747802734375 -1.77432453632354736 322 -0.0277321282774209976 -0.0441424958407878876 -0.228678062558174133 1644824251.24989986
-101.843246459960938 -90.2949600219726562 -1.76051616668701172 323 -0.0304482560604810715 -0.0340050198137760162 -0.24567045271396637 1644824251.64964867
-100.841575622558594 -90.557373046875 -1.70029664039611816 324 -0.034982975572347641 -0.0282555911689996719 -0.245585247874259949 1644824251.84734344
-98.9754257202148438 -91.0473785400390625 -1.62803840637207031 325 -0.0297574251890182495 -0.0311143212020397186 -0.249912679195404053 1644824252.24851584
-97.993560791015625 -91.254638671875 -1.54056036472320557 326 -0.0240269768983125687 -0.0446491427719593048 -0.248682498931884766 1644824252.44847941
-97.011871337890625 -91.510498046875 -1.56104004383087158 327 -0.0176974684000015259 -0.0364204272627830505 -0.244102045893669128 1644824252.64678192
-96.0167922973632812 -91.6989593505859375 -1.47775530815124512 328 -0.0327677763998508453 -0.0433295965194702148 -0.236248612403869629 1644824252.84722495
-94.09893798828125 -92.1224441528320312 -1.36053216457366943 329 -0.0404263250529766083 -0.0547324530780315399 -0.231306418776512146 1644824253.24896955
-92.3461837768554688 -92.5398635864257812 -1.42477643489837646 330 -0.0229619443416595459 -0.0485876612365245819 -0.225884422659873962 1644824253.65094042
-91.3390121459960938 -92.7631301879882812 -1.3957667350769043 331 -0.0373836606740951538 -0.0566568374633789062 -0.220027267932891846 1644824253.85078216
-90.2534637451171875 -93.0435714721679688 -1.17361760139465332 332 -0.0324291139841079712 -0.0580746866762638092 -0.220346942543983459 1644824254.05000234
-89.1140899658203125 -93.1764678955078125 -1.17389547824859619 333 -0.0292445942759513855 -0.0493403114378452301 -0.211211323738098145 1644824254.25287533
-87.2145309448242188 -93.6251983642578125 -1.1191108226776123 334 -0.0277144685387611389 -0.0468888059258460999 -0.21024659276008606 1644824254.65077472
-86.147705078125 -93.8680572509765625 -0.998154878616333008 335 -0.022313462570309639 -0.0517867356538772583 -0.210899442434310913 1644824254.84990883
-85.039825439453125 -94.0151138305664062 -0.99547123908996582 336 -0.02676352858543396 -0.0535427853465080261 -0.207058906555175781 1644824255.04798698
-84.045501708984375 -94.2322921752929688 -0.91714322566986084 337 -0.0369183607399463654 -0.0541461668908596039 -0.211340919137001038 1644824255.24842739
-83.0280838012695312 -94.540740966796875 -0.911067485809326172 338 -0.0370059385895729065 -0.0517294295132160187 -0.228121146559715271 1644824255.45070553
-81.9157485961914062 -94.817718505859375 -0.791976213455200195 339 -0.0345416814088821411 -0.0515722706913948059 -0.24048931896686554 1644824255.65077376
-80.7915802001953125 -95.0219497680664062 -0.778078079223632812 340 -0.0270014964044094086 -0.0577717535197734833 -0.237237066030502319 1644824255.85206032
-79.7202529907226562 -95.2608184814453125 -0.729320824146270752 341 -0.033349551260471344 -0.0561204627156257629 -0.231146320700645447 1644824256.04922247
-78.6555252075195312 -95.5490493774414062 -0.616709113121032715 342 -0.0310535803437232971 -0.0591508299112319946 -0.233079835772514343 1644824256.24897027
-77.5436859130859375 -95.7640762329101562 -0.602227151393890381 343 -0.0307399816811084747 -0.0551580674946308136 -0.228934362530708313 1644824256.44839406
-76.4698410034179688 -96.0056228637695312 -0.538811206817626953 344 -0.0348950587213039398 -0.056283365935087204 -0.225927010178565979 1644824256.64798713
-75.3969879150390625 -96.2661666870117188 -0.442683607339859009 345 -0.0364012420177459717 -0.0638681277632713318 -0.226934149861335754 1644824256.85067034
-74.2663650512695312 -96.4997634887695312 -0.414851188659667969 346 -0.0316188037395477295 -0.0617472641170024872 -0.229721605777740479 1644824257.04760766
-73.191009521484375 -96.7366790771484375 -0.345737606287002563 347 -0.0259630046784877777 -0.0552644431591033936 -0.233082786202430725 1644824257.25008845
-72.1351318359375 -97.0396652221679688 -0.305911809206008911 348 -0.039296220988035202 -0.0605760104954242706 -0.239999786019325256 1644824257.45014739
-70.9962921142578125 -97.2682647705078125 -0.236038938164710999 349 -0.034707874059677124 -0.0667655393481254578 -0.244025185704231262 1644824257.65029693
-69.903076171875 -97.50250244140625 -0.142641842365264893 350 -0.0375116728246212006 -0.0593777596950531006 -0.247048690915107727 1644824257.84968853
-68.873870849609375 -97.8559112548828125 -0.0689223036170005798 351 -0.0300213117152452469 -0.0615875907242298126 -0.25667494535446167 1644824258.04860115
-67.7406692504882812 -98.14617919921875 -0.0703188106417655945 352 -0.0349202714860439301 -0.0493486523628234863 -0.259711563587188721 1644824258.24785447
-66.6051559448242188 -98.3216400146484375 0.0118660246953368187 353 -0.0418784394860267639 -0.0523077920079231262 -0.254991233348846436 1644824258.44724107
-65.6445159912109375 -98.6275177001953125 0.0947465673089027405 354 -0.0386888310313224792 -0.0595578625798225403 -0.258980154991149902 1644824258.64698768
-64.5784378051757812 -98.9709548950195312 0.17810918390750885 355 -0.0334494523704051971 -0.061893608421087265 -0.264266341924667358 1644824258.84892201
-63.4687652587890625 -99.1639251708984375 0.206762030720710754 356 -0.0304876826703548431 -0.0602085143327713013 -0.256076306104660034 1644824259.04932642
-62.4365348815917969 -99.4162521362304688 0.302066266536712646 357 -0.0370702669024467468 -0.048785921186208725 -0.247329249978065491 1644824259.25132322
-61.40570068359375 -99.7436904907226562 0.368799656629562378 358 -0.0346341431140899658 -0.0617354363203048706 -0.243867993354797363 1644824259.44846511
-60.3338737487792969 -99.9657440185546875 0.447740942239761353 359 -0.0331263653934001923 -0.0660318881273269653 -0.237746685743331909 1644824259.64932203
-59.3144607543945312 -100.153549194335938 0.494071900844573975 360 -0.0280523616820573807 -0.0615163035690784454 -0.230782091617584229 1644824259.84892082
-58.3145027160644531 -100.401649475097656 0.59987330436706543 361 -0.0247268527746200562 -0.058198239654302597 -0.227119952440261841 1644824260.04896903
-57.2744140625 -100.628219604492188 0.652241528034210205 362 -0.0198388341814279556 -0.0786823779344558716 -0.220240920782089233 1644824260.24738407
-56.2275924682617188 -100.852928161621094 0.712830305099487305 363 -0.0194404125213623047 -0.0595749616622924805 -0.215707153081893921 1644824260.44791555
-54.1938095092773438 -101.339599609375 0.807002842426300049 364 -0.0181460883468389511 -0.055491715669631958 -0.211985737085342407 1644824260.84846926
-53.16961669921875 -101.430671691894531 0.944828927516937256 365 -0.0310816168785095215 -0.076183617115020752 -0.209120213985443115 1644824261.04821014
-51.2966461181640625 -101.897369384765625 1.08184957504272461 366 -0.028075123205780983 -0.0688376575708389282 -0.218484789133071899 1644824261.44886422
-49.5560989379882812 -102.248359680175781 1.14440524578094482 367 -0.0280805137008428574 -0.0554677583277225494 -0.239874869585037231 1644824261.84805799
-48.0120887756347656 -102.729133605957031 1.29180681705474854 368 -0.0291070453822612762 -0.0638138651847839355 -0.273557543754577637 1644824262.24951768
-46.4664764404296875 -103.2467041015625 1.34672451019287109 369 -0.0214902833104133606 -0.0651573538780212402 -0.309350639581680298 1644824262.64999056
-44.9685211181640625 -103.763946533203125 1.50295209884643555 370 -0.0295195076614618301 -0.0717481374740600586 -0.342023849487304688 1644824263.04974484
-43.4596366882324219 -104.347160339355469 1.57320964336395264 371 -0.0186286047101020813 -0.0658921748399734497 -0.362585544586181641 1644824263.44896913
-42.1538581848144531 -104.845481872558594 1.74004256725311279 372 -0.0234609488397836685 -0.0613914579153060913 -0.369476228952407837 1644824263.84967017
-40.9310340881347656 -105.254913330078125 1.86253058910369873 373 -0.0112481676042079926 -0.0824750214815139771 -0.334703385829925537 1644824264.248595
-39.5944099426269531 -105.569686889648438 1.96359336376190186 374 -0.0272460579872131348 -0.0691769421100616455 -0.22978489100933075 1644824264.65099692
-38.2025337219238281 -105.469375610351562 1.9725719690322876 375 -0.0215744860470294952 -0.0700689926743507385 -0.0632593482732772827 1644824265.0491457
-36.6837882995605469 -105.213661193847656 2.06389522552490234 376 -0.019818577915430069 -0.0623793601989746094 0.130942493677139282 1644824265.44989967
-35.5651588439941406 -104.674186706542969 2.07954716682434082 377 -0.0371220633387565613 -0.0263913143426179886 0.362613379955291748 1644824265.85066938
-34.4792289733886719 -103.465744018554688 2.15561795234680176 378 -0.0789917707443237305 -0.0151579910889267921 0.62981492280960083 1644824266.25099564
-33.8918647766113281 -102.572975158691406 2.16027212142944336 379 -0.0778521299362182617 0.0131927374750375748 0.881627738475799561 1644824266.65009618
-33.5153007507324219 -101.22528076171875 2.04545187950134277 380 -0.0579929091036319733 0.0133101167157292366 1.1586298942565918 1644824267.0508523
-33.4137077331542969 -100.190437316894531 1.89587616920471191 381 -0.0196894425898790359 0.0386882312595844269 1.38145637512207031 1644824267.44973779
-33.2392311096191406 -98.8519134521484375 1.90712940692901611 382 -0.0653611123561859131 0.0862276479601860046 1.49539363384246826 1644824267.65110683
-33.6905555725097656 -98.016876220703125 1.54479002952575684 383 -0.00998883415013551712 0.145974323153495789 1.56611621379852295 1644824268.05185747
-33.4864616394042969 -96.306396484375 1.54425930976867676 384 -0.0140533307567238808 0.130946710705757141 1.62465226650238037 1644824268.45257521
-33.6244277954101562 -95.029296875 1.40992462635040283 385 -0.0259908586740493774 0.106565356254577637 1.60009932518005371 1644824269.05056214
-33.5360298156738281 -93.7852096557617188 1.29313468933105469 386 -0.00803903304040431976 0.0988615825772285461 1.52580165863037109 1644824269.45188761
-33.0616302490234375 -92.137725830078125 1.2903130054473877 387 -0.0471328124403953552 0.0751135051250457764 1.35262882709503174 1644824270.05056477
-32.5802345275878906 -90.7677459716796875 1.22350943088531494 388 -0.0166638828814029694 0.0286088176071643829 1.26813149452209473 1644824270.65058422
-32.2465744018554688 -89.71697998046875 1.22204041481018066 389 -0.0112276049330830574 0.0265558529645204544 1.26246440410614014 1644824271.04875851
-31.9216079711914062 -88.7398681640625 1.20658385753631592 390 0.001607737154699862 0.00909792538732290268 1.26682043075561523 1644824271.45077348
-31.6646900177001953 -87.5568466186523438 1.13592052459716797 391 0.00325060728937387466 0.0157472789287567139 1.30829298496246338 1644824271.85202646
-31.3965377807617188 -86.241424560546875 1.11727535724639893 392 -0.00607354333624243736 0.025703994557261467 1.3525615930557251 1644824272.2510345
-31.1673946380615234 -84.7216644287109375 1.16533505916595459 393 0.00277483905665576458 0.0165811367332935333 1.38315057754516602 1644824272.65202522
-30.9129600524902344 -83.4236602783203125 1.10285782814025879 394 -0.0080349557101726532 0.0316453948616981506 1.3864370584487915 1644824273.05226612
-30.7141189575195312 -82.2068710327148438 1.04897928237915039 395 -0.00498531805351376534 0.0293440483510494232 1.38316404819488525 1644824273.45201397
-30.4411983489990234 -81.094451904296875 1.03270983695983887 396 -0.0064438297413289547 0.0236895084381103516 1.36320793628692627 1644824273.84975767
-30.1937713623046875 -80.0209121704101562 1.00988328456878662 397 -0.00130177359096705914 0.0180837176740169525 1.33595120906829834 1644824274.25005293
-29.8790721893310547 -79.0117645263671875 0.984968125820159912 398 -0.00472133699804544449 0.0268004089593887329 1.30886602401733398 1644824274.65228224
-29.4569606781005859 -77.6932754516601562 0.88082277774810791 399 0.00677501596510410309 0.0260207727551460266 1.26857554912567139 1644824275.25179601
-28.9997329711914062 -76.3300018310546875 1.1315457820892334 400 -0.0211577992886304855 -0.0538717731833457947 1.27288472652435303 1644824275.85125732
-28.7513504028320312 -75.1381149291992188 1.06368541717529297 401 -0.0197210386395454407 0.0730960741639137268 1.30351066589355469 1644824276.25312901
-28.6717967987060547 -74.1399078369140625 0.959786176681518555 402 0.00631164060905575752 0.0308763086795806885 1.35036230087280273 1644824276.65367246
-28.2950916290283203 -72.9550018310546875 0.921453118324279785 403 -0.003521317383274436 0.0183814801275730133 1.36113190650939941 1644824277.05165672
-28.1605453491210938 -71.8162155151367188 0.928643882274627686 404 -0.00468555884435772896 0.0201267972588539124 1.36757028102874756 1644824277.45265722
-27.8948841094970703 -70.532623291015625 0.911306798458099365 405 -0.00738558312878012657 0.0137917855754494667 1.36478185653686523 1644824277.85360718
-27.6365852355957031 -69.3729248046875 0.866995692253112793 406 -0.000932705122977495193 0.00745371170341968536 1.35240352153778076 1644824278.25337601
-27.2970924377441406 -68.2121963500976562 0.813131570816040039 407 0.00116702925879508257 0.0287273973226547241 1.32341468334197998 1644824278.65237236
-26.9212017059326172 -67.1067886352539062 0.80122220516204834 408 0.012312617152929306 0.0346298664808273315 1.26942729949951172 1644824279.0516119
-26.4702014923095703 -66.0854644775390625 0.786780059337615967 409 0.00929150637239217758 0.0296293999999761581 1.19621896743774414 1644824279.45350885
-25.7424755096435547 -64.8066940307617188 0.762337327003479004 410 -0.00496730487793684006 0.0317216441035270691 1.08526062965393066 1644824280.05189443
-25.1530094146728516 -63.9194831848144531 0.766333222389221191 411 -0.0267165452241897583 0.0171755757182836533 1.0198136568069458 1644824280.65325665
-24.2647418975830078 -62.9940605163574219 0.676772892475128174 412 0.0083319665864109993 0.0125711718574166298 0.881019175052642822 1644824281.45389009
-23.4969310760498047 -62.2964897155761719 0.711239874362945557 413 0.00990026723593473434 0.0154286604374647141 0.798879623413085938 1644824282.25683284
-22.8573532104492188 -61.4782676696777344 0.777238070964813232 414 -0.00152707030065357685 -0.0128923365846276283 0.851026177406311035 1644824283.05359817
-22.3247966766357422 -60.6187057495117188 0.786589086055755615 415 0.00190974806901067495 -0.00257733161561191082 0.947454273700714111 1644824283.45263648
-21.8783245086669922 -59.5555610656738281 0.75841820240020752 416 0.0202526655048131943 0.00858204066753387451 1.09094154834747314 1644824283.85355258
-21.6402606964111328 -58.4220008850097656 0.724313676357269287 417 0.0248141884803771973 0.0155235147103667259 1.24911034107208252 1644824284.25476742
-21.5175209045410156 -57.1858940124511719 0.662930488586425781 418 0.0235340017825365067 0.0242681447416543961 1.3968968391418457 1644824284.65553951
-21.4455375671386719 -56.0608978271484375 0.648368120193481445 419 0.029567524790763855 0.0184788648039102554 1.46557819843292236 1644824285.05383992
-21.4083003997802734 -54.9852180480957031 0.589774072170257568 420 0.0362419560551643372 0.0146907912567257881 1.50131845474243164 1644824285.45533109
-21.39544677734375 -53.4813079833984375 0.552901923656463623 421 0.044095795601606369 -0.00798748619854450226 1.53535473346710205 1644824286.05500078
-21.3273525238037109 -52.0486373901367188 0.594727694988250732 422 0.0445501841604709625 -0.0109274759888648987 1.55844438076019287 1644824286.45583844
-21.4532260894775391 -50.6219062805175781 0.772266507148742676 423 0.024271724745631218 0.00145962659735232592 1.57629334926605225 1644824286.85691643
