# .PCD v0.7 - Point Cloud Data file format
VERSION 0.7
FIELDS x y z intensity roll pitch yaw time
SIZE 4 4 4 4 4 4 4 8
TYPE F F F F F F F F
COUNT 1 1 1 1 1 1 1 1
WIDTH 316
HEIGHT 1
VIEWPOINT 0 0 0 1 0 0 0
POINTS 316
DATA ascii
-28.8141326904296875 -49.2394447326660156 0.31354716420173645 193 0.0317090526223182678 -0.0337643437087535858 -1.85183942317962646 1644758948.63136792
-29.0971889495849609 -51.1852340698242188 0.304850965738296509 194 0.0442198626697063446 -0.0370246656239032745 -1.70846259593963623 1644758949.02814269
-29.0821609497070312 -52.2099876403808594 0.327911645174026489 195 0.0605161711573600769 -0.0325696282088756561 -1.61350870132446289 1644758949.22827649
-28.7094650268554688 -54.0710906982421875 0.289582133293151855 196 0.057996165007352829 -0.012116575613617897 -1.42985188961029053 1644758949.62774086
-28.0908336639404297 -55.8347396850585938 0.367107927799224854 197 0.0448774322867393494 -0.0129553377628326416 -1.27074170112609863 1644758950.02760363
-27.0247001647949219 -57.9288406372070312 0.328912049531936646 198 0.0465139150619506836 -0.0245786700397729874 -1.11564850807189941 1644758950.52828383
-26.5537395477294922 -58.8103904724121094 0.402640998363494873 199 0.0335021466016769409 -0.0206631682813167572 -1.05873024463653564 1644758950.72790217
-25.4567985534667969 -60.3442649841308594 0.366665661334991455 200 0.0343688465654850006 -0.00672772340476512909 -0.986237823963165283 1644758951.12637162
-24.9317359924316406 -61.20086669921875 0.415907680988311768 201 0.046312868595123291 -0.011862143874168396 -0.962985992431640625 1644758951.32604504
-23.76861572265625 -62.6585884094238281 0.386984497308731079 202 0.0254845432937145233 -0.0121012749150395393 -0.927503645420074463 1644758951.72848535
-22.6133708953857422 -64.1672134399414062 0.399430274963378906 203 0.0178908966481685638 -0.0154280764982104301 -0.944590628147125244 1644758952.12740469
-21.6159782409667969 -66.1786880493164062 0.449418395757675171 204 -0.0160058625042438507 -0.0378192327916622162 -1.14017951488494873 1644758952.62911439
-21.2250156402587891 -68.0291595458984375 0.487303376197814941 205 -0.0189896170049905777 -0.0366749465465545654 -1.34006905555725098 1644758953.03016686
-21.24603271484375 -69.9986953735351562 0.480802774429321289 206 -0.0145330531522631645 -0.0448145680129528046 -1.55050086975097656 1644758953.42827129
-21.3821887969970703 -70.9973068237304688 0.550313115119934082 207 -0.0249167568981647491 -0.0271835476160049438 -1.66420245170593262 1644758953.62715769
-22.000274658203125 -72.938812255859375 0.54324030876159668 208 -0.0166547335684299469 -0.0256462600082159042 -1.84431684017181396 1644758954.02731586
-22.3809566497802734 -73.9156570434570312 0.538819372653961182 209 -0.0170336049050092697 -0.0172454118728637695 -1.91106498241424561 1644758954.22718501
-23.3035926818847656 -75.7243194580078125 0.581876695156097412 210 -0.0196479689329862595 -0.0251539256423711777 -2.05118131637573242 1644758954.62776875
-23.9163951873779297 -76.62841796875 0.666805922985076904 211 -0.042424716055393219 -0.0317185334861278534 -2.11733841896057129 1644758954.82750916
-24.578033447265625 -77.4792098999023438 0.64849478006362915 212 -0.0234202612191438675 -0.0343978554010391235 -2.18540811538696289 1644758955.02913499
-25.2698917388916016 -78.2755050659179688 0.646575272083282471 213 -0.0229355283081531525 -0.0300595741719007492 -2.24874663352966309 1644758955.22709537
-26.0258331298828125 -79.0158157348632812 0.677139520645141602 214 -0.0171891357749700546 -0.0269518904387950897 -2.31175422668457031 1644758955.42759657
-26.8177471160888672 -79.7559280395507812 0.68833082914352417 215 -0.0123752616345882416 -0.0442666076123714447 -2.36804413795471191 1644758955.62801075
-27.6067237854003906 -80.3975830078125 0.669333398342132568 216 -0.00815124530345201492 -0.0254234466701745987 -2.43397831916809082 1644758955.82705498
-28.5489406585693359 -81.0338668823242188 0.641689538955688477 217 0.000771432591136544943 -0.0181928742676973343 -2.48569750785827637 1644758956.02896619
-29.5989456176757812 -81.7863616943359375 0.699350416660308838 218 0.00585395563393831253 -0.0184187665581703186 -2.51527571678161621 1644758956.2281332
-31.3083477020263672 -82.7001266479492188 0.734274685382843018 219 0.00306347268633544445 -0.0162924006581306458 -2.643157958984375 1644758956.62829232
-32.3891181945800781 -83.0840988159179688 0.724813580513000488 220 -0.000893542950507253408 -0.0184665396809577942 -2.73521232604980469 1644758956.83024693
-33.4985198974609375 -83.4503173828125 0.659354567527770996 221 -0.00284972111694514751 -0.00263891764916479588 -2.82174420356750488 1644758957.02800775
-34.5485687255859375 -83.6352005004882812 0.720967113971710205 222 -0.0143283512443304062 0.00414074072614312172 -2.91767477989196777 1644758957.2284739
-35.6206932067871094 -83.6670989990234375 0.671010136604309082 223 -0.0168227124959230423 -0.000320153310894966125 -3.01917266845703125 1644758957.42800522
-36.7338905334472656 -83.6436004638671875 0.643967986106872559 224 -0.026399536058306694 0.000829710974358022213 -3.11635541915893555 1644758957.62772727
-37.8182144165039062 -83.4979476928710938 0.629091262817382812 225 -0.0247801560908555984 -0.000465976510895416141 3.06209707260131836 1644758957.82786989
-38.9153976440429688 -83.234344482421875 0.650402665138244629 226 -0.0248629413545131683 -0.00289350864477455616 2.95717740058898926 1644758958.02794218
-40.7515716552734375 -82.4300460815429688 0.59227520227432251 227 -0.0470682084560394287 -0.0032672099769115448 2.73374414443969727 1644758958.43081617
-41.6430282592773438 -81.860321044921875 0.610665440559387207 228 -0.0617582723498344421 0.00225810287520289421 2.62134337425231934 1644758958.62856102
-42.4770545959472656 -81.2068252563476562 0.672486364841461182 229 -0.062097545713186264 -0.00743552995845675468 2.51364469528198242 1644758958.82840538
-43.6117630004882812 -79.8050460815429688 0.678377270698547363 230 -0.037006184458732605 -0.0176011323928833008 2.30745458602905273 1644758959.22947812
-44.56390380859375 -78.2016448974609375 0.581727921962738037 231 -0.0286245662719011307 -0.0236565694212913513 2.12778902053833008 1644758959.63036752
-45.1335067749023438 -76.3613357543945312 0.572477936744689941 232 0.00588471256196498871 -0.00343330600298941135 1.94219851493835449 1644758960.03364015
-45.2878379821777344 -74.5048904418945312 0.67329096794128418 233 0.0251888278871774673 -0.00791953038424253464 1.73612105846405029 1644758960.43307137
-45.185882568359375 -72.6289825439453125 0.617674469947814941 234 0.0148853976279497147 -0.00191974698100239038 1.53820669651031494 1644758960.83222246
-44.6994361877441406 -70.7449493408203125 0.592981219291687012 235 0.0094191310927271843 0.00695811398327350616 1.33995473384857178 1644758961.23287582
-43.8530120849609375 -68.9352493286132812 0.591150581836700439 236 0.0126095525920391083 -0.0115822888910770416 1.1779094934463501 1644758961.62972641
-43.3265647888183594 -67.9642562866210938 0.640220403671264648 237 0.0161067787557840347 -0.00243427930399775505 1.11577224731445312 1644758961.82974863
-42.4008903503417969 -66.5072250366210938 0.49417838454246521 238 0.022496737539768219 0.00745488377287983894 1.01678991317749023 1644758962.23019361
-41.4466476440429688 -65.0307846069335938 0.672734856605529785 239 -0.00196137395687401295 -0.0610986799001693726 0.960404515266418457 1644758962.62987089
-40.6713409423828125 -64.2475967407226562 0.754535675048828125 240 -0.0136456601321697235 0.0568201541900634766 0.923392891883850098 1644758962.83262682
-39.9374732971191406 -63.1530952453613281 0.447397202253341675 241 -0.00870990008115768433 0.0158925727009773254 0.888602733612060547 1644758963.23271513
-39.1590347290039062 -62.4703140258789062 0.463595300912857056 242 0.0311686154454946518 0.00910459272563457489 0.861426055431365967 1644758963.4333961
-38.1886405944824219 -61.23187255859375 0.455445230007171631 243 0.0445394627749919891 -0.00622498663142323494 0.880082130432128906 1644758963.82955146
-37.1587562561035156 -59.85107421875 0.402281343936920166 244 0.0526140592992305756 0.0092214047908782959 0.940537869930267334 1644758964.23100042
-36.4297370910644531 -58.669036865234375 0.437292933464050293 245 0.0414976254105567932 -0.0111802816390991211 0.975631594657897949 1644758964.62967992
-35.5626182556152344 -57.2149429321289062 0.333441108465194702 246 0.0463819578289985657 0.00517465034499764442 1.00634181499481201 1644758965.02988863
-34.6639480590820312 -55.72637939453125 0.400655627250671387 247 0.0301123950630426407 -0.00748250400647521019 1.02441513538360596 1644758965.43048072
-33.9510116577148438 -54.2627410888671875 0.296114861965179443 248 0.0120649086311459541 -0.00407237373292446136 1.04547107219696045 1644758965.83071542
-33.4496650695800781 -53.3972053527832031 0.261648356914520264 249 0.000760192633606493473 -0.00435467157512903214 1.06806552410125732 1644758966.02784657
-32.8555335998535156 -52.1709632873535156 0.279601633548736572 250 -0.00682932557538151741 -0.0016825434286147356 1.08091282844543457 1644758966.32755089
-32.3799247741699219 -51.2227706909179688 0.313098102807998657 251 -0.0121473958715796471 0.00267785228788852692 1.09607541561126709 1644758966.52691031
-31.6256370544433594 -49.5867691040039062 0.340300709009170532 252 -0.021871611475944519 -0.0193102266639471054 1.09844815731048584 1644758966.92696023
-31.0709934234619141 -48.6167564392089844 0.209964022040367126 253 -0.00679132761433720589 -0.00555123109370470047 1.11385238170623779 1644758967.12860632
-30.3496589660644531 -46.9494667053222656 0.328405886888504028 254 -0.0094927540048956871 -0.0215819627046585083 1.12327456474304199 1644758967.53056097
-29.8894252777099609 -45.8393058776855469 0.160795703530311584 255 -0.0115210721269249916 -0.0235004648566246033 1.11980891227722168 1644758967.82817912
-29.3206558227539062 -44.9268455505371094 0.37717825174331665 256 -0.0202557705342769623 -0.0149486111477017403 1.11546671390533447 1644758968.03113747
-28.9183712005615234 -43.9650611877441406 0.11771923303604126 257 0.00437321700155735016 -0.0079798409715294838 1.12696075439453125 1644758968.22849011
-28.3755855560302734 -42.80963134765625 0.162510529160499573 258 -0.0182294119149446487 -0.0121697373688220978 1.12900018692016602 1644758968.5302515
-27.5494480133056641 -40.9334068298339844 0.267929166555404663 259 -0.0135016180574893951 -0.0215576495975255966 1.12674033641815186 1644758969.02941418
-26.8520545959472656 -39.6507377624511719 0.2722664475440979 260 0.00447872933000326157 -0.00671449489891529083 1.14834535121917725 1644758969.42951727
-26.5725784301757812 -38.5750312805175781 0.200108975172042847 261 0.0410922355949878693 -0.0131753543391823769 1.24437582492828369 1644758969.72471023
-26.6275596618652344 -37.3831291198730469 0.191938892006874084 262 0.0497373528778553009 -0.00754706095904111862 1.47249114513397217 1644758970.02481699
-27.3899307250976562 -35.6835174560546875 0.131497636437416077 263 0.0370006859302520752 -0.0251558180898427963 1.86787223815917969 1644758970.52665043
-28.5549049377441406 -34.2860603332519531 0.103815212845802307 264 0.0416957363486289978 0.00652006315067410469 2.17949461936950684 1644758971.02891707
-29.6642131805419922 -33.1710472106933594 0.15948641300201416 265 0.0546555817127227783 -0.0249178223311901093 2.36150956153869629 1644758971.52718163
-30.5804977416992188 -32.4626579284667969 -0.0077808932401239872 266 0.074666142463684082 0.00807980820536613464 2.45699119567871094 1644758971.83009362
-32.155303955078125 -31.2750797271728516 0.11894698441028595 267 0.0478464923799037933 -0.0117153944447636604 2.52701520919799805 1644758972.32682586
-33.1308364868164062 -30.9990959167480469 0.136998474597930908 268 0.0383483730256557465 -0.0246192514896392822 2.55904698371887207 1644758972.52896905
-33.9093780517578125 -30.3587207794189453 0.100781887769699097 269 0.0363637953996658325 -0.0148497447371482849 2.5539853572845459 1644758972.82909369
-34.8811225891113281 -29.6933612823486328 0.12184799462556839 270 0.0254786722362041473 -0.0160953383892774582 2.54927659034729004 1644758973.1259582
-36.4939765930175781 -28.6653232574462891 0.152255535125732422 271 -0.00822975859045982361 -0.027644796296954155 2.52813243865966797 1644758973.6256206
-38.0042724609375 -27.4723358154296875 0.0773093774914741516 272 0.0169171039015054703 -0.0184804107993841171 2.49760961532592773 1644758974.12629032
-39.6669998168945312 -26.1447467803955078 0.171884804964065552 273 0.0053050587885081768 -0.0206808801740407944 2.49567532539367676 1644758974.62531424
-41.0576057434082031 -25.3114967346191406 0.126168221235275269 274 0.00503692450001835823 -0.00872927717864513397 2.52567958831787109 1644758975.0256536
-42.4619979858398438 -24.3854827880859375 0.148553535342216492 275 0.012648705393075943 -0.0133352279663085938 2.55976557731628418 1644758975.42535281
-43.8328475952148438 -23.6091117858886719 0.0935860127210617065 276 0.0210975911468267441 -0.00689438218250870705 2.61779046058654785 1644758975.82492256
-45.4433097839355469 -22.9953861236572266 0.109956271946430206 277 0.0246044676750898361 -0.00619240943342447281 2.7318427562713623 1644758976.22543669
-47.04693603515625 -22.5886878967285156 0.0874149352312088013 278 0.0325631499290466309 -0.00757145741954445839 2.86851787567138672 1644758976.62447619
-48.7604866027832031 -22.4132976531982422 0.0110862692818045616 279 0.0465578362345695496 0.0168814007192850113 3.01064038276672363 1644758977.02512383
-50.4240264892578125 -22.4832019805908203 -0.0512220524251461029 280 0.0633954107761383057 -0.00928522553294897079 -3.1383965015411377 1644758977.42493916
-52.2459487915039062 -22.7056312561035156 -0.0413791276514530182 281 0.0548199228942394257 -0.00613392051309347153 -3.04205203056335449 1644758977.82576609
-53.9719772338867188 -23.0260848999023438 -0.0754451528191566467 282 0.0484220534563064575 0.0153035325929522514 -2.9786217212677002 1644758978.2256031
-55.72149658203125 -23.3738727569580078 0.00185745186172425747 283 0.0272405818104743958 -0.00349960848689079285 -2.97243785858154297 1644758978.6251967
-57.4897079467773438 -23.5182609558105469 -0.0698121413588523865 284 0.00840905215591192245 0.0115111060440540314 -3.04498744010925293 1644758979.02584982
-59.2301025390625 -23.4154262542724609 -0.143542781472206116 285 0.0222896318882703781 0.0307407844811677933 3.10937237739562988 1644758979.42591691
-60.9463119506835938 -23.04278564453125 -0.22056308388710022 286 0.0144629804417490959 0.0139587847515940666 2.95009064674377441 1644758979.82632494
-62.5751953125 -22.2703189849853516 -0.251999765634536743 287 -0.00153098301962018013 0.0211455691605806351 2.73960328102111816 1644758980.22534728
-63.9447517395019531 -21.1778106689453125 -0.31265568733215332 288 0.00703684519976377487 0.0123551944270730019 2.5187232494354248 1644758980.62705302
-65.3026504516601562 -19.9673595428466797 -0.342812865972518921 289 0.0131307570263743401 0.031810469925403595 2.43155121803283691 1644758981.02378964
-66.7567977905273438 -18.8642559051513672 -0.437817931175231934 290 0.035846468061208725 0.0167865976691246033 2.47446727752685547 1644758981.42681527
-68.2527542114257812 -17.8289470672607422 -0.51979517936706543 291 0.0423401296138763428 0.0232392828911542892 2.54004931449890137 1644758981.82681346
-69.9046707153320312 -16.8482379913330078 -0.537430703639984131 292 0.0278826020658016205 0.0166907701641321182 2.57938933372497559 1644758982.22779393
-71.6013870239257812 -15.8301591873168945 -0.571026980876922607 293 0.0271919872611761093 0.0145140448585152626 2.58812785148620605 1644758982.62698221
-72.4590606689453125 -15.2998991012573242 -0.597737967967987061 294 0.0288123823702335358 0.0174246635288000107 2.58726382255554199 1644758982.82764149
-73.3108062744140625 -14.7435197830200195 -0.651225388050079346 295 0.0334583744406700134 0.0211817771196365356 2.58246207237243652 1644758983.02852559
-74.1944198608398438 -14.2012853622436523 -0.642336785793304443 296 0.031358964741230011 0.0064571392722427845 2.57791757583618164 1644758983.22592139
-75.1193771362304688 -13.6258420944213867 -0.714923739433288574 297 0.0293025393038988113 0.0174011029303073883 2.57374835014343262 1644758983.42900896
-76.0340194702148438 -13.0529012680053711 -0.736381173133850098 298 0.0312690064311027527 0.0128146978095173836 2.56979846954345703 1644758983.62855411
-76.93194580078125 -12.4439306259155273 -0.762172520160675049 299 0.0311324149370193481 0.0158120226114988327 2.56370329856872559 1644758983.82699585
-77.8534317016601562 -11.8514852523803711 -0.78862297534942627 300 0.0334023423492908478 0.0099691459909081459 2.5600588321685791 1644758984.02871704
-78.765716552734375 -11.2976808547973633 -0.830037057399749756 301 0.0223700124770402908 0.0128200510516762733 2.55499100685119629 1644758984.22863626
-80.3079452514648438 -10.1518716812133789 -0.890591979026794434 302 0.0206485260277986526 0.0202730707824230194 2.52458405494689941 1644758984.62878466
-81.68914794921875 -9.12695980072021484 -0.898693978786468506 303 0.0192102156579494476 0.0144521156325936317 2.49520564079284668 1644758985.0290997
-82.9915008544921875 -8.09941673278808594 -0.862489044666290283 304 0.0152674922719597816 -0.0236995294690132141 2.47453141212463379 1644758985.43007064
-84.3599319458007812 -7.03823757171630859 -0.861047089099884033 305 0.0161393657326698303 -0.0227644219994544983 2.46650218963623047 1644758985.83011675
-85.8390350341796875 -5.97483921051025391 -0.838369429111480713 306 0.00932179111987352371 -0.0221504773944616318 2.48935437202453613 1644758986.23014975
-87.3556289672851562 -4.93950843811035156 -0.773527324199676514 307 -0.00283663161098957062 -0.0270141661167144775 2.52461767196655273 1644758986.62906575
-88.8849334716796875 -3.89554071426391602 -0.770871877670288086 308 0.00160210963804274797 -0.0433951914310455322 2.53578495979309082 1644758987.02856207
-90.4492721557617188 -2.78474044799804688 -0.859148323535919189 309 0.00135773979127407074 -0.0121748121455311775 2.54267311096191406 1644758987.42888761
-91.3334884643554688 -2.29601263999938965 -0.729370057582855225 310 -0.00764234922826290131 0.00500565767288208008 2.55075907707214355 1644758987.62961221
-92.8519439697265625 -1.24081075191497803 -0.799782872200012207 311 -0.00759799499064683914 -0.0160134173929691315 2.54274535179138184 1644758988.02858281
-94.4704742431640625 -0.158008500933647156 -0.787834405899047852 312 -0.0016135283512994647 -0.0168371032923460007 2.54342842102050781 1644758988.42821527
-96.0455169677734375 0.929200112819671631 -0.799655020236968994 313 0.000591998163145035505 -0.0200958549976348877 2.54059815406799316 1644758988.82878852
-97.6396255493164062 1.98071599006652832 -0.770704388618469238 314 0.00138336909003555775 -0.0185906626284122467 2.5408477783203125 1644758989.22839427
-99.2322158813476562 3.08183574676513672 -0.730370044708251953 315 0.00236211530864238739 -0.0152075495570898056 2.53934478759765625 1644758989.62850237
-100.810272216796875 4.16828775405883789 -0.803836345672607422 316 0.0135220251977443695 -0.00846561230719089508 2.53390216827392578 1644758990.02992177
-102.402297973632812 5.27081441879272461 -0.767528116703033447 317 0.0123921753838658333 -0.0235708951950073242 2.53369450569152832 1644758990.43019915
-104.052024841308594 6.40471649169921875 -0.759032607078552246 318 0.0138481929898262024 -0.0299411695450544357 2.53068232536315918 1644758990.82912278
-104.910858154296875 7.00122976303100586 -0.738488078117370605 319 0.0230420157313346863 -0.0286367479711771011 2.52810907363891602 1644758991.02869916
-105.788192749023438 7.6110987663269043 -0.737800061702728271 320 0.0199925918132066727 -0.0251086298376321793 2.52917957305908203 1644758991.22990251
-106.669380187988281 8.23427104949951172 -0.70586007833480835 321 0.0211855806410312653 -0.0272647812962532043 2.53269290924072266 1644758991.4302907
-107.566734313964844 8.82721138000488281 -0.721911489963531494 322 0.0241640601307153702 -0.0245139449834823608 2.53421854972839355 1644758991.62903285
-108.452033996582031 9.43317890167236328 -0.714272797107696533 323 0.0256190989166498184 -0.0196356568485498428 2.53337693214416504 1644758991.82898927
-109.369468688964844 10.091679573059082 -0.725273191928863525 324 0.0264058522880077362 -0.0190881993621587753 2.53676533699035645 1644758992.02809525
-110.270233154296875 10.6779394149780273 -0.690016090869903564 325 0.031037619337439537 -0.0241744853556156158 2.53890752792358398 1644758992.22891116
-111.161300659179688 11.3018836975097656 -0.659888386726379395 326 0.0292983967810869217 -0.0272170640528202057 2.54222846031188965 1644758992.4305172
-112.08892822265625 11.9214448928833008 -0.64394909143447876 327 0.0280180890113115311 -0.028209267184138298 2.54476499557495117 1644758992.62996292
-112.995285034179688 12.5225534439086914 -0.676573038101196289 328 0.0348151177167892456 -0.0241550058126449585 2.54637265205383301 1644758992.82941842
-113.889839172363281 13.1318826675415039 -0.621891260147094727 329 0.0277875550091266632 -0.0256697945296764374 2.54360055923461914 1644758993.03131413
-114.817939758300781 13.7535581588745117 -0.602588653564453125 330 0.0232783649116754532 -0.0256139226257801056 2.53817462921142578 1644758993.23028588
-115.731819152832031 14.3751430511474609 -0.599210560321807861 331 0.0221899691969156265 -0.0274483803659677505 2.52458095550537109 1644758993.428087
-116.565017700195312 15.0160989761352539 -0.578699231147766113 332 0.0100236814469099045 -0.0286927241832017899 2.50023198127746582 1644758993.62869549
-117.352653503417969 15.7353830337524414 -0.557770431041717529 333 0.0128584103658795357 -0.0302980765700340271 2.4550175666809082 1644758993.82834721
-118.138290405273438 16.4856414794921875 -0.517119884490966797 334 0.0183316599577665329 -0.0378519818186759949 2.40613222122192383 1644758994.02930546
-118.871353149414062 17.2496128082275391 -0.469081401824951172 335 0.0245161298662424088 -0.0594939254224300385 2.35688018798828125 1644758994.22827387
-119.53472900390625 18.0616607666015625 -0.43642076849937439 336 0.0352094508707523346 -0.0550667457282543182 2.30133461952209473 1644758994.42920041
-120.062637329101562 18.9401340484619141 -0.335726946592330933 337 0.0414666496217250824 -0.0702379494905471802 2.23604655265808105 1644758994.62869644
-120.736114501953125 19.8395500183105469 -0.402689695358276367 338 0.0400306880474090576 -0.0654693841934204102 2.17939615249633789 1644758994.83050776
-121.3319091796875 20.6835060119628906 -0.280906349420547485 339 0.0366988815367221832 -0.0654687732458114624 2.12184572219848633 1644758995.02983594
-122.052650451660156 22.6554450988769531 -0.171258777379989624 340 0.0499228835105895996 -0.0756179988384246826 1.9969714879989624 1644758995.43082309
-122.460777282714844 23.6747703552246094 -0.100178316235542297 341 0.0548448227345943451 -0.074224814772605896 1.9394984245300293 1644758995.62737322
-122.790672302246094 24.6550960540771484 -0.024714367464184761 342 0.0618742629885673523 -0.0797536447644233704 1.89248383045196533 1644758995.82934713
-123.011360168457031 25.686859130859375 0.0457275025546550751 343 0.0576757714152336121 -0.0865011587738990784 1.85367107391357422 1644758996.02689719
-123.299873352050781 26.7811126708984375 0.128047585487365723 344 0.0799900367856025696 -0.105815447866916656 1.84112417697906494 1644758996.22746968
-123.623306274414062 27.7442493438720703 0.231533125042915344 345 0.0908149778842926025 -0.0991052314639091492 1.84542989730834961 1644758996.42862105
-123.911186218261719 28.7067604064941406 0.217502757906913757 346 0.095647074282169342 -0.0863705947995185852 1.86948049068450928 1644758996.62636805
-124.207679748535156 29.6574783325195312 0.431940615177154541 347 0.0792781785130500793 -0.107458814978599548 1.88441026210784912 1644758996.83018208
-124.979637145996094 31.5021305084228516 0.622155964374542236 348 0.0514650605618953705 -0.128993064165115356 1.92462575435638428 1644758997.22865748
-125.303718566894531 32.4778518676757812 0.666474580764770508 349 0.0593385994434356689 -0.117229357361793518 1.92679452896118164 1644758997.42850137
-125.715103149414062 33.4200439453125 0.772076010704040527 350 0.0415507443249225616 -0.116013742983341217 1.92079043388366699 1644758997.6317358
-126.27734375 35.3006095886230469 0.983945965766906738 351 0.0438020788133144379 -0.126424118876457214 1.87892746925354004 1644758998.03072619
-126.563575744628906 36.3046913146972656 1.05842745304107666 352 0.0410781502723693848 -0.10911715030670166 1.84761464595794678 1644758998.23226118
-126.957855224609375 38.2654228210449219 1.24839425086975098 353 0.0407686010003089905 -0.103006161749362946 1.76457309722900391 1644758998.63183999
-127.058334350585938 39.2899627685546875 1.2619861364364624 354 0.0580408237874507904 -0.0864485651254653931 1.72197282314300537 1644758998.83146358
-127.160682678222656 40.2973136901855469 1.3596421480178833 355 0.0520564280450344086 -0.0846425145864486694 1.68045306205749512 1644758999.0320158
-127.192146301269531 41.3174476623535156 1.47542119026184082 356 0.0572287105023860931 -0.0807788148522377014 1.63799083232879639 1644758999.23179674
-127.200119018554688 42.3559341430664062 1.47486937046051025 357 0.0519739054143428802 -0.0687302425503730774 1.59293472766876221 1644758999.43021274
-127.157051086425781 43.3909835815429688 1.57106912136077881 358 0.0461766645312309265 -0.0649915412068367004 1.54664862155914307 1644758999.63073659
-127.033859252929688 44.4558448791503906 1.55810081958770752 359 0.0482675358653068542 -0.0495206080377101898 1.5006718635559082 1644758999.83027124
-126.952751159667969 45.4901695251464844 1.57929456233978271 360 0.0365730226039886475 -0.0669887065887451172 1.47237348556518555 1644759000.02884316
-126.868110656738281 46.5115890502929688 1.67755770683288574 361 0.0242339931428432465 -0.0501206107437610626 1.45479023456573486 1644759000.22919464
-126.692375183105469 47.5726242065429688 1.65905106067657471 362 0.0299348253756761551 -0.0383717194199562073 1.43554902076721191 1644759000.42928219
-126.544021606445312 48.6136131286621094 1.64102017879486084 363 0.0339862741529941559 -0.0292805880308151245 1.42230939865112305 1644759000.62900376
-126.352706909179688 49.6164360046386719 1.65377950668334961 364 0.0347208455204963684 -0.0251165237277746201 1.40442311763763428 1644759000.83066511
-126.14886474609375 50.6439704895019531 1.63120865821838379 365 0.0426497422158718109 -0.0196740329265594482 1.39185500144958496 1644759001.0295682
-125.725631713867188 52.5732536315917969 1.68791651725769043 366 0.0361745990812778473 -0.0219231583178043365 1.34382867813110352 1644759001.43017459
-125.118865966796875 54.3954315185546875 1.66102135181427002 367 0.0484468340873718262 -0.015046331100165844 1.26853036880493164 1644759001.83036804
-124.407943725585938 56.1595497131347656 1.85753202438354492 368 0.0497373864054679871 -0.0375102683901786804 1.191375732421875 1644759002.23295951
-123.620498657226562 57.798553466796875 1.85907304286956787 369 0.048956703394651413 -0.0243343748152256012 1.13865435123443604 1644759002.62972188
-122.854652404785156 59.4643020629882812 1.78798568248748779 370 0.0471658483147621155 -0.0315922535955905914 1.12792611122131348 1644759003.02885175
-122.167549133300781 61.1943778991699219 1.90047192573547363 371 0.0621343590319156647 -0.0406412892043590546 1.19376492500305176 1644759003.43107462
-121.811912536621094 62.931182861328125 1.93568599224090576 372 0.0727385655045509338 -0.052015349268913269 1.34189426898956299 1644759003.83087206
-121.876083374023438 64.7635574340820312 2.03331780433654785 373 0.062978401780128479 -0.0485288240015506744 1.55134963989257812 1644759004.23078108
-122.308441162109375 66.469879150390625 2.0352017879486084 374 0.065636076033115387 -0.0339978374540805817 1.76150012016296387 1644759004.63085628
-123.116477966308594 68.0725784301757812 2.11464405059814453 375 0.0716413334012031555 -0.0347642004489898682 1.98705554008483887 1644759005.028965
-124.278236389160156 69.40277099609375 2.0979912281036377 376 0.0764391645789146423 -0.0252289362251758575 2.23095870018005371 1644759005.42801881
-125.7552490234375 70.4869766235351562 2.11167097091674805 377 0.0771519243717193604 -0.0158816985785961151 2.47794651985168457 1644759005.82755446
-127.417205810546875 71.1176376342773438 2.14713048934936523 378 0.0750600993633270264 -0.00940671376883983612 2.72852826118469238 1644759006.228122
-129.2352294921875 71.3077850341796875 2.13354372978210449 379 0.0829002484679222107 -0.00657777721062302589 2.98518157005310059 1644759006.62980032
-131.038848876953125 71.035430908203125 2.14095258712768555 380 0.0770317837595939636 -0.00109445524867624044 -3.04125785827636719 1644759007.02985954
-132.717819213867188 70.2318038940429688 2.06209635734558105 381 0.0780695602297782898 0.0132216243073344231 -2.7693636417388916 1644759007.42747355
-134.154312133789062 69.0103836059570312 2.06966519355773926 382 0.0753189027309417725 0.0127410814166069031 -2.48987722396850586 1644759007.82867765
-135.199844360351562 67.51220703125 2.09897565841674805 383 0.0754140093922615051 0.00315205194056034088 -2.22077298164367676 1644759008.22824049
-135.749526977539062 65.76348876953125 2.07105398178100586 384 0.0722794383764266968 0.00343892583623528481 -1.95370030403137207 1644759008.62921548
-135.859222412109375 63.9273719787597656 2.06779837608337402 385 0.060460653156042099 -0.0114621827378869057 -1.70495474338531494 1644759009.02669144
-135.666885375976562 62.1645774841308594 2.03949141502380371 386 0.046171773225069046 -0.0161278527230024338 -1.51854300498962402 1644759009.43334627
-135.1888427734375 60.4701919555664062 2.03467631340026855 387 0.0505884438753128052 0.011574823409318924 -1.35397565364837646 1644759009.82705712
-134.42724609375 58.8438644409179688 1.92884361743927002 388 0.053946319967508316 0.0183143895119428635 -1.17970383167266846 1644759010.23104095
-133.397125244140625 57.3357696533203125 1.9653850793838501 389 0.0564422979950904846 0.0273153651505708694 -0.992332816123962402 1644759010.62721992
-132.1328125 56.214080810546875 1.87951695919036865 390 0.0886462107300758362 -0.00533933471888303757 -0.811291992664337158 1644759011.02982497
-130.611663818359375 55.3087310791015625 1.90252149105072021 391 0.0782144814729690552 -0.00742437876760959625 -0.574373722076416016 1644759011.42936015
-128.823806762695312 54.8509521484375 1.91282272338867188 392 0.0779795348644256592 0.0102349873632192612 -0.305722713470458984 1644759011.82835436
-127.048187255859375 54.934661865234375 1.84344780445098877 393 0.0853221267461776733 0.006678018718957901 -0.026192227378487587 1644759012.23063779
-125.449508666992188 55.442291259765625 1.73717820644378662 394 0.104856349527835846 0.0142441866919398308 0.249807775020599365 1644759012.62765288
-123.939537048339844 56.4960403442382812 1.78895163536071777 395 0.106193758547306061 0.00135855283588171005 0.540928006172180176 1644759013.02616143
-122.814239501953125 57.8854827880859375 1.77078807353973389 396 0.104573339223861694 -0.0051253046840429306 0.824086010456085205 1644759013.42573452
-122.092567443847656 59.4540748596191406 1.84471213817596436 397 0.0773468092083930969 -0.0248981136828660965 1.06120467185974121 1644759013.82687116
-121.60430908203125 61.0711631774902344 1.81492078304290771 398 0.069820009171962738 -0.0309640895575284958 1.21940577030181885 1644759014.22712231
-121.337577819824219 62.7467689514160156 1.94720029830932617 399 0.0644746869802474976 -0.0514062941074371338 1.36952638626098633 1644759014.62602448
-121.353240966796875 64.4425277709960938 1.98547089099884033 400 0.0577776581048965454 -0.0467286631464958191 1.53180205821990967 1644759015.02430153
-121.672355651855469 66.1243209838867188 2.06269669532775879 401 0.0640471652150154114 -0.0442490801215171814 1.71392393112182617 1644759015.42393827
-122.347412109375 67.7559280395507812 2.04656553268432617 402 0.0704405903816223145 -0.0258746929466724396 1.91569852828979492 1644759015.82800341
-123.376968383789062 69.2060012817382812 2.03601884841918945 403 0.0814162194728851318 -0.0252537894994020462 2.14068388938903809 1644759016.22451019
-124.830589294433594 70.4161911010742188 2.11490273475646973 404 0.0779400467872619629 -0.017129160463809967 2.41321587562561035 1644759016.62484455
-126.481513977050781 71.0924148559570312 2.15826749801635742 405 0.0797948166728019714 -0.0217302031815052032 2.69695663452148438 1644759017.02472639
-128.344436645507812 71.2412490844726562 2.12706732749938965 406 0.0898938477039337158 -0.00133736047428101301 3.0013735294342041 1644759017.4245069
-130.168411254882812 70.781402587890625 2.14281034469604492 407 0.0810352489352226257 -0.00069397239712998271 -2.96155285835266113 1644759017.82484722
-131.800918579101562 69.8298797607421875 2.12554693222045898 408 0.0649493187665939331 0.00762893026694655418 -2.67270016670227051 1644759018.22895169
-133.236175537109375 68.6170883178710938 2.10113215446472168 409 0.0309504568576812744 0.00512897036969661713 -2.50341510772705078 1644759018.62850499
-134.792770385742188 67.3636627197265625 2.07197189331054688 410 0.0385825522243976593 -0.00805285200476646423 -2.4691624641418457 1644759019.02883673
-136.401199340820312 66.2193527221679688 2.1103065013885498 411 0.0128462649881839752 -0.00388688850216567516 -2.52615737915039062 1644759019.42342138
-137.301483154296875 65.7130355834960938 2.02865743637084961 412 0.0107700461521744728 -0.000753841071855276823 -2.5711367130279541 1644759019.62386131
-138.250885009765625 65.1608734130859375 2.11281251907348633 413 0.0033956640399992466 -0.0160842183977365494 -2.60678005218505859 1644759019.82385182
-139.142929077148438 64.6997222900390625 2.03580737113952637 414 0.0258607920259237289 -0.00195332546718418598 -2.65520715713500977 1644759020.02461052
-140.09564208984375 64.3042755126953125 1.87786674499511719 415 0.0309072565287351608 0.0152356363832950592 -2.69721698760986328 1644759020.2239449
-141.094650268554688 63.9262657165527344 1.98980116844177246 416 0.025529567152261734 -0.000582227192353457212 -2.74055624008178711 1644759020.42411065
-142.192764282226562 63.5246849060058594 1.97512567043304443 417 0.0317761786282062531 -0.00237661879509687424 -2.76713848114013672 1644759020.62439895
-143.169021606445312 63.157073974609375 1.93030846118927002 418 0.0400966331362724304 0.00345907686278223991 -2.80167365074157715 1644759020.82721186
-144.197479248046875 62.8733558654785156 1.91690528392791748 419 0.0290453657507896423 0.0178051237016916275 -2.83953380584716797 1644759021.02410603
-145.291610717773438 62.5896682739257812 1.8741297721862793 420 0.0159102939069271088 0.0186039824038743973 -2.8668982982635498 1644759021.22687531
-146.36492919921875 62.2295989990234375 1.82610487937927246 421 -0.00377755356021225452 0.0250130146741867065 -2.87726378440856934 1644759021.42624402
-147.362823486328125 61.907928466796875 1.86010682582855225 422 -0.0261067971587181091 0.0388675704598426819 -2.88965582847595215 1644759021.62661099
-148.456924438476562 61.7322425842285156 1.85045039653778076 423 -0.0283376723527908325 0.0190360452979803085 -2.90096449851989746 1644759021.8240056
-149.603363037109375 61.4554939270019531 1.78139078617095947 424 0.000673144415486603975 0.010239873081445694 -2.89879274368286133 1644759022.02619052
-150.58087158203125 61.0671958923339844 1.75588369369506836 425 -0.047835569828748703 0.02943434938788414 -2.90250253677368164 1644759022.22385097
-151.584579467773438 60.8891448974609375 1.55994415283203125 426 -0.028585776686668396 0.0280556902289390564 -2.91269779205322266 1644759022.42487907
-152.72283935546875 60.6145172119140625 1.62103903293609619 427 -0.0421602651476860046 0.0288155674934387207 -2.91193509101867676 1644759022.62359762
-153.793075561523438 60.338836669921875 1.53912496566772461 428 -0.0386038161814212799 0.0222235266119241714 -2.91631555557250977 1644759022.82334733
-154.791412353515625 60.1440086364746094 1.57052648067474365 429 -0.0471672564744949341 0.0187089182436466217 -2.93337321281433105 1644759023.02303386
-155.940093994140625 59.9097671508789062 1.50016677379608154 430 -0.0447094738483428955 0.0222305748611688614 -2.93834757804870605 1644759023.22266197
-157.030227661132812 59.6363410949707031 1.42079687118530273 431 -0.0540848672389984131 0.0312118232250213623 -2.94487118721008301 1644759023.4236114
-158.056991577148438 59.4507026672363281 1.41964387893676758 432 -0.0538935773074626923 0.0264099743217229843 -2.96131134033203125 1644759023.62398267
-159.161148071289062 59.3004226684570312 1.36565482616424561 433 -0.0506516583263874054 0.0307879131287336349 -2.97307682037353516 1644759023.82329798
-160.2734375 59.1082115173339844 1.34423613548278809 434 -0.0534588806331157684 0.0272190216928720474 -2.98132181167602539 1644759024.02246928
-161.32257080078125 58.9408950805664062 1.28057539463043213 435 -0.0469357185065746307 0.0310802403837442398 -2.99329495429992676 1644759024.22273254
-162.40728759765625 58.8216361999511719 1.26831507682800293 436 -0.0556330271065235138 0.0226458869874477386 -3.00550532341003418 1644759024.42382598
-163.494186401367188 58.6876029968261719 1.24183142185211182 437 -0.0504907406866550446 0.025249529629945755 -3.01773381233215332 1644759024.62398577
-164.5455322265625 58.5277137756347656 1.16128873825073242 438 -0.0516795255243778229 0.0337275899946689606 -3.02217674255371094 1644759024.82374954
-166.563125610351562 58.4033203125 1.10080051422119141 439 -0.0312767885625362396 0.0232515856623649597 -3.05070304870605469 1644759025.22301769
-168.503341674804688 58.2625656127929688 1.09268736839294434 440 -0.0219181440770626068 0.0404478795826435089 -3.07553720474243164 1644759025.62319708
-170.297470092773438 58.1599884033203125 1.01799070835113525 441 -0.034966934472322464 -0.0157090853899717331 -3.09499764442443848 1644759026.02497745
-172.048049926757812 58.0620155334472656 0.987476170063018799 442 -0.061942756175994873 0.00938150938600301743 -3.13191986083984375 1644759026.42505956
-173.711929321289062 58.2150306701660156 1.05816614627838135 443 -0.081236325204372406 -0.00956354010850191116 3.05773401260375977 1644759026.82491088
-174.948654174804688 58.7430686950683594 1.10194075107574463 444 -0.0778826996684074402 -0.0498219728469848633 2.88426566123962402 1644759027.22385406
-176.2337646484375 59.2632789611816406 1.08074033260345459 445 -0.0614328682422637939 -0.0406876504421234131 2.72873568534851074 1644759027.62349653
-177.10955810546875 60.1089630126953125 1.25607991218566895 446 -0.0524613820016384125 -0.0658222436904907227 2.54522323608398438 1644759028.0280652
-177.719070434570312 60.8831672668457031 1.24359714984893799 447 -0.0237265471369028091 -0.0635927468538284302 2.34154701232910156 1644759028.42595601
-178.251296997070312 62.1761512756347656 1.40375590324401855 448 0.00550635810941457748 -0.0729620978236198425 2.09213066101074219 1644759029.02320743
-178.60333251953125 63.5595741271972656 1.44961130619049072 449 0.0403701066970825195 -0.162425458431243896 1.94269490242004395 1644759029.62428308
-179.073806762695312 64.8924636840820312 1.40525591373443604 450 0.0296898186206817627 -0.049109194427728653 1.87623560428619385 1644759030.02767515
-179.229263305664062 66.194549560546875 1.41807305812835693 451 0.0442916117608547211 -0.100694313645362854 1.78404486179351807 1644759030.42699242
-179.456741333007812 67.5269699096679688 1.47893786430358887 452 0.0363546945154666901 -0.033055327832698822 1.72921454906463623 1644759030.82555032
-179.697738647460938 68.8804550170898438 1.84263443946838379 453 -0.0228311698883771896 0.0386512055993080139 1.72313582897186279 1644759031.22814131
-179.698715209960938 70.4983901977539062 1.80830526351928711 454 0.0272868480533361435 -0.0478107258677482605 1.65236091613769531 1644759031.83015275
-179.843948364257812 71.5419387817382812 1.87051594257354736 455 0.0176293924450874329 -0.0539056360721588135 1.64575505256652832 1644759032.22582603
-179.962615966796875 72.7251434326171875 1.85489964485168457 456 0.0187390241771936417 -0.058924652636051178 1.66459262371063232 1644759032.62589502
-180.204238891601562 73.9214859008789062 1.89607739448547363 457 0.00399519968777894974 -0.0483914203941822052 1.724739670753479 1644759033.02643776
-180.599777221679688 75.2001953125 1.91018128395080566 458 -0.00873231980949640274 -0.0410036444664001465 1.79557418823242188 1644759033.4250474
-181.0228271484375 76.4483184814453125 1.92141926288604736 459 -0.00699911173433065414 -0.0337656252086162567 1.86409974098205566 1644759033.82544827
-181.586212158203125 77.710479736328125 1.96224308013916016 460 -0.0187077149748802185 0.00246104900725185871 1.93848669528961182 1644759034.22510433
-182.19482421875 78.7591476440429688 1.89133334159851074 461 -0.0253921728581190109 0.0167352072894573212 2.03308272361755371 1644759034.6254909
-183.031036376953125 79.611968994140625 1.80935299396514893 462 -0.0179211292415857315 0.0360510125756263733 2.22208237648010254 1644759035.02786207
-184.060592651367188 80.161834716796875 1.72224926948547363 463 -0.0154996765777468681 0.04404454305768013 2.4626309871673584 1644759035.42561841
-184.917022705078125 80.3697280883789062 1.68474602699279785 464 -0.0170436501502990723 0.0620017126202583313 2.67598485946655273 1644759035.82659602
-185.9188232421875 80.4668121337890625 1.74262046813964844 465 0.0312995016574859619 0.0367645397782325745 2.90002131462097168 1644759036.22664523
-186.637725830078125 80.4212112426757812 1.81828176975250244 466 0.121413931250572205 -0.000147646642290055752 3.11946010589599609 1644759036.62650418
-187.763992309570312 79.9853973388671875 1.82555973529815674 467 0.065326392650604248 -0.0308292042464017868 -2.9472968578338623 1644759037.42704153
-189.09600830078125 79.7010116577148438 1.8180917501449585 468 -0.0239505507051944733 0.0618142783641815186 -3.0118718147277832 1644759038.0263145
-190.48248291015625 79.6661911010742188 1.60444402694702148 469 0.000660212477669119835 0.0747387632727622986 -3.04947400093078613 1644759038.42490411
-191.6937255859375 79.5770263671875 1.49936091899871826 470 0.0123980967327952385 0.0613688081502914429 -3.0552520751953125 1644759038.82682347
-192.961151123046875 79.2625656127929688 1.33523464202880859 471 -0.0174283329397439957 0.0729793906211853027 -3.03249216079711914 1644759039.22734261
-193.9638671875 79.2932815551757812 1.20808148384094238 472 -0.0152896987274289131 0.0707469582557678223 -3.06477689743041992 1644759039.62569666
-195.373626708984375 79.2058334350585938 1.21278727054595947 473 -0.00455590710043907166 0.0377438478171825409 -3.05847048759460449 1644759040.02590966
-196.576507568359375 79.1785125732421875 1.17125070095062256 474 -0.0107423253357410431 0.0567848607897758484 -3.10009288787841797 1644759040.42664099
-197.963119506835938 79.0655975341796875 1.07823538780212402 475 -0.00595219479873776436 0.0507906824350357056 -3.09607267379760742 1644759040.82631278
-199.365829467773438 79.0372085571289062 0.99664604663848877 476 0.00584540050476789474 0.0525572635233402252 -3.09474062919616699 1644759041.22600484
-200.733154296875 78.8545913696289062 0.983977615833282471 477 0.011760542169213295 0.0335867553949356079 -3.05171656608581543 1644759041.62624097
-202.282119750976562 78.6625213623046875 0.900030910968780518 478 0.0214857999235391617 0.0482699312269687653 -3.02930212020874023 1644759042.02573705
-203.774581909179688 78.4428176879882812 0.715878307819366455 479 0.0155556099489331245 0.0530073866248130798 -3.02875518798828125 1644759042.42555189
-205.448013305664062 78.2247772216796875 0.586983859539031982 480 0.0209837295114994049 0.0435238592326641083 -3.0230560302734375 1644759042.82577968
-207.206558227539062 78.1658554077148438 0.581644952297210693 481 0.00935579277575016022 0.0441086329519748688 -3.02727389335632324 1644759043.22648144
-208.68524169921875 77.9305572509765625 0.275989681482315063 482 0.00768221495673060417 0.0474530123174190521 -3.058746337890625 1644759043.62650228
-209.703384399414062 77.8909225463867188 0.457131117582321167 483 -0.00112541008275002241 0.0491566136479377747 -3.0561366081237793 1644759043.82723641
-211.346176147460938 77.6886520385742188 0.297562390565872192 484 0.0118404021486639977 0.0460691340267658234 -3.03815412521362305 1644759044.2283411
-213.19281005859375 77.4745407104492188 0.212349995970726013 485 0.00600262405350804329 0.0476651974022388458 -3.01206254959106445 1644759044.62712932
-214.818878173828125 77.210479736328125 0.0341712161898612976 486 0.0233496744185686111 0.00732969352975487709 -3.0168149471282959 1644759045.02845597
-215.904220581054688 77.0765914916992188 0.0229081809520721436 487 0.0160911809653043747 0.040157712996006012 -2.99744892120361328 1644759045.22768068
-217.595596313476562 76.7466354370117188 -0.00817103777080774307 488 0.0117741255089640617 0.0499674044549465179 -2.99732685089111328 1644759045.62638354
-218.700103759765625 76.6850967407226562 -0.0768814235925674438 489 0.00434864452108740807 0.0421970374882221222 -2.98675060272216797 1644759045.82983851
-220.346221923828125 76.2958526611328125 -0.271592527627944946 490 0.000752915861085057259 0.0535283200442790985 -2.99491047859191895 1644759046.2274158
-222.201217651367188 76.0203323364257812 -0.423605799674987793 491 -0.000815727631561458111 0.0712116807699203491 -2.99210405349731445 1644759046.62740898
-223.829208374023438 75.6665573120117188 -0.50814211368560791 492 -0.00358068756759166718 0.0549601055681705475 -2.94214630126953125 1644759047.02897573
-225.466690063476562 75.2989730834960938 -0.61314469575881958 493 0.010990033857524395 0.0623259767889976501 -2.90086770057678223 1644759047.42940593
-226.905868530273438 74.8367691040039062 -0.749368727207183838 494 0.0181385092437267303 0.0682914182543754578 -2.87580537796020508 1644759047.82868052
-228.546310424804688 74.2244033813476562 -0.853696107864379883 495 0.0119491424411535263 0.0886812731623649597 -2.81857728958129883 1644759048.22935987
-230.054946899414062 73.6112136840820312 -0.912851154804229736 496 0.00806051958352327347 0.0644615814089775085 -2.76711702346801758 1644759048.62566924
-231.574371337890625 72.9454498291015625 -1.1496661901473999 497 0.00809545814990997314 0.0737974643707275391 -2.72435641288757324 1644759049.02866769
-233.061447143554688 72.2788009643554688 -1.23433172702789307 498 0.012289268895983696 0.0831935927271842957 -2.72791910171508789 1644759049.42424846
-234.513031005859375 71.5587310791015625 -1.45416545867919922 499 0.0126069663092494011 0.070019155740737915 -2.73346543312072754 1644759049.82651401
-236.083572387695312 71.0476608276367188 -1.3927009105682373 500 -0.00551809230819344521 0.0657499507069587708 -2.73267078399658203 1644759050.22874594
-237.307952880859375 70.2554473876953125 -1.58516466617584229 501 0.0175269972532987595 0.0625602304935455322 -2.71063733100891113 1644759050.62778449
-238.857940673828125 69.4789962768554688 -1.82172977924346924 502 0.0241656657308340073 0.0700115039944648743 -2.64697146415710449 1644759051.02886581
-240.227508544921875 68.6307449340820312 -1.90313005447387695 503 0.0216102246195077896 0.0825150385499000549 -2.57950735092163086 1644759051.4290669
-241.419723510742188 67.7026214599609375 -1.91841268539428711 504 0.00815236475318670273 0.0672080442309379578 -2.54291105270385742 1644759051.82648253
-242.706954956054688 66.684295654296875 -2.1157534122467041 505 0.00259211449883878231 0.0840557590126991272 -2.50971651077270508 1644759052.22485089
-243.9798583984375 65.7769927978515625 -2.18330001831054688 506 0.0112530915066599846 0.0477339848875999451 -2.51040315628051758 1644759052.62781262
-245.26318359375 64.65252685546875 -2.25114345550537109 507 0.00923916511237621307 0.0532942637801170349 -2.47904706001281738 1644759053.02789402
-246.547119140625 63.8025741577148438 -2.42219662666320801 508 0.010442882776260376 0.0450369268655776978 -2.46039128303527832 1644759053.42897868
