# .PCD v0.7 - Point Cloud Data file format
VERSION 0.7
FIELDS x y z intensity t qx qy qz qw
SIZE 4 4 4 4 8 4 4 4 4
TYPE F F F F F F F F F
COUNT 1 1 1 1 1 1 1 1 1
WIDTH 277
HEIGHT 1
VIEWPOINT 0 0 0 1 0 0 0
POINTS 277
DATA ascii
1.38625991344451904 -184.2998046875 -4.3340764045715332 25 1645020377.47482491 0.385890483856201172 0.921946108341217041 0.00953987520188093185 -0.0318270325660705566
-2.24611592292785645 -180.643173217773438 -4.08467674255371094 26 1645020378.4747541 0.384705692529678345 0.922571957111358643 0.00991054251790046692 -0.0276455730199813843
-6.11569976806640625 -176.938079833984375 -3.77350997924804688 27 1645020379.47462344 0.372438818216323853 0.927496969699859619 0.0135344080626964569 -0.029249364510178566
-10.178985595703125 -173.3253173828125 -3.43312883377075195 28 1645020380.47402287 0.357728540897369385 0.932920336723327637 0.0256547089666128159 -0.0321219116449356079
-14.3176746368408203 -169.68646240234375 -3.07042837142944336 29 1645020381.47429609 0.359036117792129517 0.93247377872467041 0.0257796738296747208 -0.0303497891873121262
-18.3781261444091797 -165.979537963867188 -2.65915274620056152 30 1645020382.47424698 0.367300271987915039 0.929170966148376465 0.02567276731133461 -0.0327525101602077484
-22.4019069671630859 -162.272903442382812 -2.26657915115356445 31 1645020383.47500253 0.362474948167800903 0.931190788745880127 0.0259613897651433945 -0.0286630522459745407
-26.5420131683349609 -158.743850708007812 -1.89834821224212646 32 1645020384.47506022 0.351249665021896362 0.935280978679656982 0.0352749601006507874 -0.0250764414668083191
-30.5265483856201172 -155.16607666015625 -1.42497348785400391 33 1645020385.47346354 0.363609194755554199 0.929800212383270264 0.0343557856976985931 -0.0456026382744312286
-34.3695716857910156 -151.55657958984375 -0.962752223014831543 34 1645020386.47386909 0.367624938488006592 0.928665101528167725 0.0267950110137462616 -0.0414134040474891663
-38.1257514953613281 -148.10235595703125 -0.507381260395050049 35 1645020387.4741087 0.36287650465965271 0.930818915367126465 0.0198586545884609222 -0.0387613847851753235
-41.7594795227050781 -144.683273315429688 -0.0723216831684112549 36 1645020388.47503757 0.371968746185302734 0.927242636680603027 0.0131938373669981956 -0.0410639643669128418
-45.55584716796875 -140.871871948242188 0.361171454191207886 37 1645020389.57531023 0.389951139688491821 0.919662177562713623 0.0103300483897328377 -0.0453087352216243744
-49.2502403259277344 -136.97637939453125 0.796207070350646973 38 1645020390.67454195 0.398218452930450439 0.916178286075592041 0.00874285493046045303 -0.0443050377070903778
-52.8908653259277344 -132.928573608398438 1.19115579128265381 39 1645020391.7750237 0.418694794178009033 0.907163918018341064 0.0123114679008722305 -0.0399597063660621643
-55.7380218505859375 -128.801742553710938 1.54866433143615723 40 1645020392.77515578 0.476437598466873169 0.878183364868164062 0.00637740734964609146 -0.0419591180980205536
-58.1847457885742188 -124.335693359375 1.92025744915008545 41 1645020393.77855611 0.521293759346008301 0.851954460144042969 0.00162167451344430447 -0.0492320433259010315
-60.1609001159667969 -119.658950805664062 2.30632948875427246 42 1645020394.77651119 0.562232255935668945 0.825317800045013428 -0.000362130609573796391 -0.0523953959345817566
-61.855712890625 -114.881385803222656 2.75662779808044434 43 1645020395.77756882 0.576656103134155273 0.815296709537506104 0.00720707885921001434 -0.0520294718444347382
-63.4097023010253906 -110.103103637695312 3.1818382740020752 44 1645020396.77957582 0.595910727977752686 0.801570415496826172 0.0116258617490530014 -0.0473300516605377197
-64.680816650390625 -105.244369506835938 3.54929280281066895 45 1645020397.77818942 0.6256369948387146 0.779186069965362549 0.014718799851834774 -0.0350816696882247925
-65.4252548217773438 -100.221961975097656 3.9200432300567627 46 1645020398.77682281 0.668462276458740234 0.742626428604125977 0.0217524003237485886 -0.034511219710111618
-65.635284423828125 -95.09356689453125 4.34007024765014648 47 1645020399.77834368 0.698336899280548096 0.714137732982635498 0.0230477340519428253 -0.0424462258815765381
-65.656463623046875 -90.0180816650390625 4.77139997482299805 48 1645020400.77639437 0.71128392219543457 0.700459599494934082 0.0369035415351390839 -0.0454942919313907623
-65.4088363647460938 -84.9508514404296875 5.14844560623168945 49 1645020401.7786026 0.731441795825958252 0.681306660175323486 0.0122162047773599625 -0.0257864352315664291
-64.968231201171875 -79.835174560546875 5.55552148818969727 50 1645020402.88074708 0.738150894641876221 0.673305869102478027 0.0227196589112281799 -0.0357255637645721436
-64.5459671020507812 -74.6320724487304688 5.94559907913208008 51 1645020404.47779179 0.731134951114654541 0.681421756744384766 0.0185473952442407608 -0.0276065319776535034
-64.3642425537109375 -70.9322052001953125 6.17210769653320312 52 1645020406.57539511 0.723572492599487305 0.688922524452209473 0.0255941562354564667 -0.0342571847140789032
-64.0081329345703125 -67.3922500610351562 6.48257732391357422 53 1645020408.57586145 0.752173125743865967 0.656996369361877441 0.0297678988426923752 -0.0412941686809062958
-62.1298713684082031 -62.725616455078125 6.91805458068847656 54 1645020410.47547174 0.850921690464019775 0.522954165935516357 0.0215613190084695816 -0.0445678010582923889
-59.0375900268554688 -58.6690673828125 7.2438960075378418 55 1645020411.87546206 0.906617641448974609 0.418727338314056396 0.0173889193683862686 -0.0490862689912319183
-55.0563163757324219 -55.4537773132324219 7.47649002075195312 56 1645020413.07562113 0.951420307159423828 0.303689628839492798 0.0146611100062727928 -0.0485497117042541504
-50.4925308227539062 -53.3585090637207031 7.60291242599487305 57 1645020414.17537928 0.983681380748748779 0.176380500197410583 0.000701094861142337322 -0.0355018302798271179
-45.3106842041015625 -52.4303703308105469 7.4311833381652832 58 1645020415.27565289 0.998703420162200928 0.0430590361356735229 -0.0252850428223609924 -0.00990121066570281982
-40.2779006958007812 -52.7412261962890625 7.27129268646240234 59 1645020416.37781835 0.999060332775115967 -0.0425400733947753906 0.00768860755488276482 -0.00312037556432187557
-34.989593505859375 -52.4180374145507812 7.07956695556640625 60 1645020417.67598271 0.991654157638549805 0.123921424150466919 -0.0214911941438913345 -0.0283491667360067368
-31.3654537200927734 -48.8307304382324219 7.02818870544433594 61 1645020418.88037157 0.899456977844238281 0.434601038694381714 -0.0157632678747177124 -0.0430184602737426758
-29.4565620422363281 -43.88739013671875 7.16879081726074219 62 1645020419.97931147 0.78668212890625 0.61578136682510376 -0.009184311144053936 -0.0431293807923793793
-28.9938526153564453 -38.8097038269042969 7.42754650115966797 63 1645020420.98039865 0.736482977867126465 0.675236225128173828 0.000830231758300215006 -0.040597960352897644
-26.7331314086914062 -34.1791877746582031 7.55016231536865234 64 1645020422.17989874 0.906587898731231689 0.421123862266540527 -0.0168834179639816284 -0.021634446457028389
-21.6197242736816406 -33.5213623046875 7.21886062622070312 65 1645020423.47763968 0.998497366905212402 -0.0152958063408732414 -0.0415227711200714111 -0.0323250927031040192
-16.6646308898925781 -31.7073421478271484 7.13439321517944336 66 1645020425.0786283 0.950341284275054932 0.307348459959030151 -0.0150957424193620682 -0.0464808456599712372
-13.5439825057983398 -27.6003284454345703 7.11080074310302734 67 1645020426.27986765 0.898629605770111084 0.438390582799911499 -0.0157603267580270767 -0.00549081433564424515
-9.99589347839355469 -23.6660060882568359 6.8857264518737793 68 1645020427.27873421 0.927644014358520508 0.372273117303848267 -0.0187459830194711685 0.0231926999986171722
-5.75580692291259766 -20.9750461578369141 6.53847455978393555 69 1645020428.07994318 0.971602261066436768 0.231912732124328613 -0.0357479900121688843 0.0304570905864238739
-0.35173460841178894 -19.6345539093017578 6.11581754684448242 70 1645020428.88079643 0.995021522045135498 0.0903036966919898987 -0.0409597493708133698 0.00998686812818050385
4.65229415893554688 -19.228729248046875 5.81427288055419922 71 1645020429.58071303 0.999239206314086914 0.0184560362249612808 -0.0329633057117462158 0.00968327838927507401
10.2714805603027344 -19.3850517272949219 5.49359226226806641 72 1645020430.38158536 0.999251306056976318 -0.0215234067291021347 -0.0313544236123561859 0.00710126524791121483
15.5972499847412109 -19.5774250030517578 5.1968226432800293 73 1645020431.17875242 0.999246716499328613 -0.014314739964902401 -0.033918336033821106 0.0122754527255892754
20.6579399108886719 -19.3937263488769531 4.94779348373413086 74 1645020431.97989845 0.999309957027435303 0.0210783872753381729 -0.0275645498186349869 0.013249632902443409
26.1701164245605469 -18.7052879333496094 4.6774897575378418 75 1645020432.87948132 0.996753871440887451 0.0756572932004928589 -0.0253700148314237595 0.0106801539659500122
31.4996623992919922 -17.9605083465576172 4.39633512496948242 76 1645020433.78232241 0.998506247997283936 0.0336324796080589294 -0.0354913361370563507 0.0243833828717470169
36.4590377807617188 -19.0008125305175781 4.11347246170043945 77 1645020434.68076992 0.983572661876678467 -0.172754004597663879 -0.0458899959921836853 0.0251983292400836945
39.9355354309082031 -21.5562210083007812 3.93109369277954102 78 1645020435.48299623 0.934301853179931641 -0.354067087173461914 -0.0368252210319042206 0.0189860370010137558
42.8101425170898438 -25.72540283203125 3.78822851181030273 79 1645020436.48065448 0.865918993949890137 -0.499062478542327881 -0.0288100447505712509 0.0170570909976959229
43.7104034423828125 -28.9618091583251953 3.72557187080383301 80 1645020437.1821208 0.76351398229598999 -0.644496321678161621 -0.0359342284500598907 0.0194840915501117706
43.2732734680175781 -31.1983299255371094 3.70920324325561523 81 1645020437.68002653 0.618705153465270996 -0.783492803573608398 -0.0542523078620433807 0.0199904777109622955
41.9482345581054688 -32.8946151733398438 3.70622038841247559 82 1645020438.18038011 0.447596043348312378 -0.892948031425476074 -0.0473565720021724701 0.00767727987840771675
39.4560661315917969 -34.4567947387695312 3.7763984203338623 83 1645020438.87993574 0.275048166513442993 -0.961006224155426025 -0.0196235403418540955 0.0207471400499343872
34.5646629333496094 -36.2265777587890625 3.92921566963195801 84 1645020439.98420858 0.140885055065155029 -0.989791452884674072 -0.010605749674141407 0.0187557972967624664
29.5005035400390625 -37.2303428649902344 4.13821268081665039 85 1645020440.98445153 0.0895165130496025085 -0.995615124702453613 -0.00732282223179936409 0.0261472370475530624
24.1506118774414062 -37.9815330505371094 4.41552257537841797 86 1645020441.98150826 0.0542652606964111328 -0.997976183891296387 -0.0118437418714165688 0.0309611856937408447
19.1420860290527344 -38.3309288024902344 4.69332504272460938 87 1645020442.88217402 0.0225964672863483429 -0.999267339706420898 -0.00921178609132766724 0.029484013095498085
14.0403289794921875 -38.3519020080566406 4.98633241653442383 88 1645020443.78247285 -0.00915609020739793777 -0.999501705169677734 -0.00522531755268573761 0.0297519303858280182
8.86704921722412109 -38.049835205078125 5.27052974700927734 89 1645020444.68362522 -0.0425248965620994568 -0.99854356050491333 -0.00577325420454144478 0.0326969996094703674
3.72628378868103027 -37.3884048461914062 5.55909299850463867 90 1645020445.57987905 -0.0724736824631690979 -0.996830224990844727 -0.000172264015418477356 0.0328183136880397797
-1.46232831478118896 -36.55145263671875 5.86668539047241211 91 1645020446.48297429 -0.0763674601912498474 -0.996562302112579346 -0.00108755531255155802 0.0321002379059791565
-6.65763664245605469 -35.9665336608886719 6.19700431823730469 92 1645020447.38183451 -0.0607596747577190399 -0.997578859329223633 -0.0107610877603292465 0.032075975090265274
-11.7188053131103516 -35.3450698852539062 6.63350868225097656 93 1645020448.27935457 -0.0796490535140037537 -0.995467543601989746 -0.0298426933586597443 0.0425413511693477631
-22.9224376678466797 -32.0113563537597656 7.41000652313232422 94 1645020450.38035154 -0.200650990009307861 -0.978650391101837158 -0.0268552843481302261 0.0355167314410209656
-26.9954109191894531 -28.9870033264160156 7.87207984924316406 95 1645020451.48208714 -0.368499279022216797 -0.928476393222808838 -0.00910391286015510559 0.0453533828258514404
-29.3149223327636719 -25.2742156982421875 8.17281341552734375 96 1645020452.48048425 -0.525752663612365723 -0.849906086921691895 -0.0174966137856245041 0.0306211076676845551
-30.818511962890625 -20.348846435546875 8.40532970428466797 97 1645020453.5818994 -0.616186320781707764 -0.786941766738891602 -0.0320659652352333069 -0.00296140625141561031
-32.0088958740234375 -15.3993825912475586 8.54664897918701172 98 1645020454.57751107 -0.610305905342102051 -0.791948139667510986 -0.0163079965859651566 0.00888289231806993484
-33.5104446411132812 -10.0885419845581055 8.68096923828125 99 1645020455.57996702 -0.602548062801361084 -0.79788517951965332 -0.0173816550523042679 0.00360315758734941483
-34.2637710571289062 -4.88460159301757812 8.77623748779296875 100 1645020456.57822919 -0.703467607498168945 -0.710136771202087402 -0.0180642958730459213 -0.0226454772055149078
-31.3517074584960938 -0.617517530918121338 8.80181694030761719 101 1645020457.87837219 -0.93953251838684082 -0.341842144727706909 -0.00185726594645529985 -0.0204719286412000656
-28.3966846466064453 -0.000417877570725977421 8.78730392456054688 102 1645020458.57799745 -0.997935831546783447 -0.058460727334022522 0.00854483246803283691 -0.0251674465835094452
-26.2634296417236328 -0.666584193706512451 8.72670173645019531 103 1645020459.07765627 -0.987652301788330078 0.15217272937297821 0.0263548549264669418 -0.026301603764295578
-24.609771728515625 -2.10037589073181152 8.68638706207275391 104 1645020459.57714748 -0.947622597217559814 0.31917157769203186 0.0118167689070105553 0.00111283350270241499
-20.1774749755859375 -5.35020828247070312 8.59996414184570312 105 1645020460.67955971 -0.961102485656738281 0.276113808155059814 0.00482548680156469345 0.00446267426013946533
-15.3937549591064453 -7.37877941131591797 8.52782535552978516 106 1645020461.57776809 -0.986003696918487549 0.166362941265106201 0.000548990385141223669 0.0109448833391070366
-10.4496440887451172 -8.55945491790771484 8.46140480041503906 107 1645020462.37863421 -0.993763625621795654 0.110913127660751343 0.00642826035618782043 0.00952772609889507294
-5.13044881820678711 -9.40053939819335938 8.2403411865234375 108 1645020463.17769837 -0.99717104434967041 0.0693404823541641235 0.0281738676130771637 -0.0069269547238945961
0.060107596218585968 -9.65092277526855469 7.87716007232666016 109 1645020463.9795022 -0.998559117317199707 -0.00754004158079624176 0.0530013740062713623 0.00370135507546365261
5.65729808807373047 -8.9342803955078125 7.39076805114746094 110 1645020464.88149333 -0.997151970863342285 -0.0590614639222621918 0.0459795854985713959 -0.00924963690340518951
11.1313991546630859 -7.99533700942993164 6.94257211685180664 111 1645020465.68161774 -0.994657039642333984 -0.093663334846496582 0.0377837195992469788 -0.0213750042021274567
16.5644626617431641 -6.4228358268737793 6.66603422164916992 112 1645020466.47938681 -0.984785735607147217 -0.171652242541313171 0.0257938317954540253 -0.00819934811443090439
21.1521072387695312 -3.84632039070129395 6.49961233139038086 113 1645020467.28019714 -0.95523226261138916 -0.295313388109207153 0.0165077503770589828 0.00699031166732311249
25.1067714691162109 -0.386740267276763916 6.4946746826171875 114 1645020468.08034563 -0.934834957122802734 -0.355035483837127686 0.000389802968129515648 0.00576268928125500679
29.123931884765625 3.32811665534973145 6.49502086639404297 115 1645020468.88099408 -0.930692911148071289 -0.365790009498596191 0.000302163360174745321 0.00288128736428916454
33.1773147583007812 7.17331743240356445 6.50051307678222656 116 1645020469.67888832 -0.928157448768615723 -0.37210497260093689 0.00235173595137894154 0.00749299908056855202
37.2246131896972656 11.113316535949707 6.52542829513549805 117 1645020470.480407 -0.926053524017333984 -0.377083033323287964 -0.00180247891694307327 0.0151645475998520851
41.2607650756835938 15.0892581939697266 6.54773807525634766 118 1645020471.27925086 -0.925090432167053223 -0.379421383142471313 0.0055516841821372509 0.014707283116877079
45.2662200927734375 19.0417346954345703 6.60254955291748047 119 1645020472.07887197 -0.925711154937744141 -0.377522736787796021 8.39650965644977987e-05 0.0231394227594137192
49.2993125915527344 23.0780582427978516 6.56834983825683594 120 1645020472.87884617 -0.92420804500579834 -0.381530702114105225 0.00701200449839234352 0.0149883609265089035
53.2678985595703125 27.1177940368652344 6.60084104537963867 121 1645020473.67888737 -0.923243701457977295 -0.384130567312240601 -0.00479263439774513245 0.00646920735016465187
57.2182731628417969 31.1392383575439453 6.73085784912109375 122 1645020474.48163223 -0.922801852226257324 -0.384963482618331909 -0.0145204616710543633 0.00539044663310050964
61.0872154235839844 35.070465087890625 6.92478847503662109 123 1645020475.27889013 -0.923445641994476318 -0.383307069540023804 -0.0158586390316486359 0.00850803125649690628
64.915191650390625 39.01922607421875 7.10930156707763672 124 1645020476.07950687 -0.920516014099121094 -0.390145868062973022 -0.0173715110868215561 0.0116052562370896339
68.0585250854492188 42.9689102172851562 7.26071405410766602 125 1645020476.8808217 -0.885520219802856445 -0.46420624852180481 -0.00133017729967832565 0.0190976690500974655
70.0142059326171875 47.6228675842285156 7.43061399459838867 126 1645020477.78047752 -0.809119224548339844 -0.587147355079650879 -0.0156151475384831429 0.0184459034353494644
70.8348464965820312 52.7611923217773438 7.56199932098388672 127 1645020478.68245029 -0.75238502025604248 -0.658488988876342773 -0.0114496443420648575 0.0133379288017749786
71.6435165405273438 57.8920364379882812 7.67152070999145508 128 1645020479.58039665 -0.777092158794403076 -0.629210889339447021 -0.0147649394348263741 0.00186158774886280298
74.3907852172851562 62.5519523620605469 7.71308803558349609 129 1645020480.68135977 -0.895254194736480713 -0.445442050695419312 0.00307811656966805458 0.0095807025209069252
77.9095916748046875 66.2938156127929688 7.71528196334838867 130 1645020481.68267226 -0.926153957843780518 -0.377061456441879272 0.00359895965084433556 0.00711397500708699226
81.6912460327148438 69.9161834716796875 7.72854518890380859 131 1645020482.68229628 -0.922459721565246582 -0.385644406080245972 0.00635634735226631165 0.0174936559051275253
85.235443115234375 73.9600830078125 7.76995420455932617 132 1645020483.88373899 -0.907496631145477295 -0.420037031173706055 -0.00014383418601937592 0.00433270726352930069
87.9415664672851562 78.2781829833984375 7.81680583953857422 133 1645020485.18333626 -0.80433952808380127 -0.59308701753616333 0.0187835097312927246 0.0305428076535463333
87.3270950317382812 81.1760940551757812 7.85431003570556641 134 1645020485.88421917 -0.614237129688262939 -0.788838982582092285 0.0138722499832510948 0.0159178879112005234
84.4499588012695312 85.495269775390625 7.87729120254516602 135 1645020486.98737788 -0.466350764036178589 -0.884480953216552734 0.0111285494640469551 0.00930468086153268814
81.162017822265625 89.7135391235351562 7.895416259765625 136 1645020487.98538637 -0.421640753746032715 -0.906439602375030518 0.0191194955259561539 0.0148593885824084282
77.2904281616210938 93.3657913208007812 7.92133235931396484 137 1645020488.88638425 -0.339055180549621582 -0.940257608890533447 0.0276880450546741486 0.0138073451817035675
72.6589126586914062 96.29071044921875 7.95049715042114258 138 1645020489.78816009 -0.250788271427154541 -0.967799901962280273 0.0128035377711057663 0.0174540840089321136
68.0350494384765625 98.2396774291992188 7.92108678817749023 139 1645020490.58670712 -0.183885976672172546 -0.982915222644805908 0.00270727649331092834 0.0075016142800450325
62.7855567932128906 99.6846389770507812 7.8328251838684082 140 1645020491.49063802 -0.113394558429718018 -0.993319690227508545 0.0132871391251683235 -0.0167668741196393967
57.7452850341796875 100.403488159179688 7.75041294097900391 141 1645020492.589288 -0.0759859085083007812 -0.997100770473480225 0.00046514126006513834 -0.00399277498945593834
53.6469612121582031 103.361335754394531 7.72066593170166016 142 1645020493.98586249 -0.431747227907180786 -0.90181887149810791 -0.00730561325326561928 -0.0162396784871816635
53.8929786682128906 108.415069580078125 7.70576858520507812 143 1645020495.28441644 -0.810882329940795898 -0.584937036037445068 -0.00709328940138220787 -0.0163756757974624634
56.8670730590820312 113.039535522460938 7.78985738754272461 144 1645020496.48617196 -0.891856849193572998 -0.451834768056869507 -0.018878718838095665 -0.00896271038800477982
60.4656410217285156 117.060455322265625 7.72841596603393555 145 1645020497.48519826 -0.922687232494354248 -0.385406345129013062 -0.00063448265427723527 -0.0104793738573789597
64.560394287109375 120.343017578125 7.69207668304443359 146 1645020498.48787093 -0.959262073040008545 -0.282220035791397095 0.00869138259440660477 -0.00962077267467975616
67.5189437866210938 121.087249755859375 7.71564054489135742 147 1645020499.18775535 -0.995861649513244629 -0.090333595871925354 -0.00847188849002122879 -0.00525283301249146461
70.0434112548828125 120.63818359375 7.72633123397827148 148 1645020499.78839636 -0.994523525238037109 0.104187771677970886 -0.00188209931366145611 -0.0080209728330373764
72.0133743286132812 119.409584045410156 7.70326805114746094 149 1645020500.28990912 -0.957335472106933594 0.288269758224487305 0.0156199159100651741 -0.0128580285236239433
73.30340576171875 117.500938415527344 7.68948507308959961 150 1645020500.78588223 -0.890705406665802002 0.454525351524353027 0.00217626197263598442 0.0067728203721344471
75.8172531127929688 113.162857055664062 7.65606307983398438 151 1645020501.78633308 -0.879358828067779541 0.475491344928741455 -0.0138611700385808945 0.0210679750889539719
79.4749069213867188 109.679428100585938 7.64148616790771484 152 1645020502.68628311 -0.947838723659515381 0.317547529935836792 -0.00921323150396347046 0.0260842889547348022
84.3551559448242188 107.575233459472656 7.66256046295166016 153 1645020503.58827305 -0.984024345874786377 0.176727637648582458 -0.00549858249723911285 0.0208130683749914169
89.0650482177734375 105.580947875976562 7.67177677154541016 154 1645020504.48634768 -0.964437544345855713 0.263527244329452515 0.0165291130542755127 -0.0118491547182202339
91.8234329223632812 101.234710693359375 7.66494894027709961 155 1645020505.48655057 -0.837813854217529297 0.545866310596466064 -0.000105000748590100557 0.0098958062008023262
93.971954345703125 96.4287109375 7.61902666091918945 156 1645020506.48974061 -0.851249873638153076 0.524470686912536621 -0.00910729821771383286 0.0148724783211946487
96.9608917236328125 92.1216049194335938 7.61058902740478516 157 1645020507.38707709 -0.908998966217041016 0.415887326002120972 -0.0130680408328771591 0.0242446474730968475
101.428550720214844 88.850372314453125 7.60809659957885742 158 1645020508.28722906 -0.96176612377166748 0.273268371820449829 -0.00761084631085395813 0.0165055021643638611
105.94964599609375 85.6628189086914062 7.65309238433837891 159 1645020509.18855619 -0.947263240814208984 0.320164263248443604 -0.00970606133341789246 0.00964251440018415451
109.826057434082031 82.5021209716796875 7.6803741455078125 160 1645020509.99171877 -0.945313453674316406 0.325863391160964966 -0.00632870476692914963 0.0124682513996958733
113.982841491699219 79.6219635009765625 7.69441890716552734 161 1645020510.88903761 -0.963556289672851562 0.2669239342212677 0.00404330622404813766 0.0171634908765554428
116.664154052734375 78.97406005859375 7.67041826248168945 162 1645020511.4902029 -0.99575197696685791 0.0878099054098129272 0.00946972798556089401 0.0260324664413928986
119.813125610351562 79.5136260986328125 7.66589164733886719 163 1645020512.28961134 -0.99513322114944458 -0.0961019918322563171 0.0038554586935788393 0.0214353278279304504
124.560554504394531 81.2152099609375 7.60505819320678711 164 1645020513.48853898 -0.994843482971191406 -0.0989475250244140625 0.0173708647489547729 -0.0139298569411039352
129.385269165039062 78.8855133056640625 7.57140493392944336 165 1645020514.78510475 -0.953149795532226562 0.302292466163635254 0.00419947877526283264 -0.0103465244174003601
133.0169677734375 75.37408447265625 7.57182645797729492 166 1645020515.78466368 -0.921041786670684814 0.389435321092605591 -0.00432209204882383347 -0.00185964175034314394
136.656951904296875 71.795196533203125 7.55049610137939453 167 1645020516.68555379 -0.922103941440582275 0.386722475290298462 0.010241200216114521 -0.00807455554604530334
139.427978515625 67.5996246337890625 7.56595039367675781 168 1645020517.68496776 -0.835271954536437988 0.549061179161071777 0.0215895026922225952 -0.01966070756316185
139.543930053710938 65.1116180419921875 7.58152055740356445 169 1645020518.28572702 -0.706155121326446533 0.707183241844177246 0.0304706264287233353 -0.0175592359155416489
138.921966552734375 63.7320060729980469 7.56272315979003906 170 1645020518.68563581 -0.562760233879089355 0.824544787406921387 0.0577735826373100281 -0.00943504180759191513
137.844268798828125 62.912841796875 7.57677364349365234 171 1645020519.0848372 -0.399721682071685791 0.915349841117858887 0.0484615899622440338 -0.00294552743434906006
136.670547485351562 62.6530990600585938 7.61394834518432617 172 1645020519.4845314 -0.230226263403892517 0.972747504711151123 0.0272267423570156097 -0.00410117395222187042
135.346054077148438 62.8547019958496094 7.64811134338378906 173 1645020519.98521566 -0.0277983397245407104 0.999479234218597412 0.0163412410765886307 -0.001238833530806005
134.064071655273438 63.4953575134277344 7.6760711669921875 174 1645020520.48536849 0.154091551899909973 0.987948298454284668 0.0136578641831874847 -0.00523579632863402367
131.600006103515625 65.5338897705078125 7.69087362289428711 175 1645020521.38412476 0.323613405227661133 0.946182966232299805 0.00265753618441522121 -0.00225417781621217728
127.495414733886719 69.088104248046875 7.68818569183349609 176 1645020522.58443689 0.355594724416732788 0.934624016284942627 0.00551243359223008156 8.36852705106139183e-05
123.738143920898438 72.4417724609375 7.67573404312133789 177 1645020523.58462 0.356578707695007324 0.934258520603179932 0.0022305722814053297 0.00277363392524421215
119.105079650878906 75.1828536987304688 7.63547039031982422 178 1645020524.78422594 0.155474454164505005 0.987367212772369385 -0.029245791956782341 0.00885073933750391006
117.034896850585938 74.9999465942382812 7.63060855865478516 179 1645020525.28511429 -0.0176122169941663742 0.999734938144683838 -0.0124882999807596207 0.00799267087131738663
114.867622375488281 73.9930191040039062 7.65564107894897461 180 1645020525.88539934 -0.209869444370269775 0.977684438228607178 -0.00855121202766895294 -0.00385118019767105579
111.467391967773438 70.9809646606445312 7.67750072479248047 181 1645020526.88640809 -0.382897794246673584 0.923780381679534912 -0.00422045215964317322 -0.00110941636376082897
109.425148010253906 67.404449462890625 7.65395784378051758 182 1645020527.78781295 -0.539210140705108643 0.842118203639984131 -0.00324639608152210712 0.00887823570519685745
108.984596252441406 64.102020263671875 7.65851068496704102 183 1645020528.58639789 -0.683642029762268066 0.729719758033752441 -0.00738642457872629166 0.00938693992793560028
109.74896240234375 61.6304588317871094 7.69437360763549805 184 1645020529.18584871 -0.808501303195953369 0.588304996490478516 -0.0138970557600259781 0.00545618264004588127
112.060630798339844 58.5653800964355469 7.70051383972167969 185 1645020529.98977804 -0.898373723030090332 0.439205259084701538 0.00269233784638345242 -0.00401216465979814529
115.521705627441406 54.733856201171875 7.69668483734130859 186 1645020531.18981028 -0.915494382381439209 0.401121586561203003 0.0292745716869831085 0.0107007585465908051
118.633621215820312 50.3067398071289062 7.71773004531860352 187 1645020532.48910785 -0.864273726940155029 0.503000915050506592 0.00389154418371617794 -0.00242390390485525131
118.438331604003906 45.2627830505371094 7.61789083480834961 188 1645020533.78947973 -0.565509498119354248 0.824140369892120361 0.0264352001249790192 0.0171127039939165115
117.09368896484375 44.2730255126953125 7.63729953765869141 189 1645020534.29042029 -0.355025529861450195 0.934613466262817383 0.0176942255347967148 0.0118918037042021751
115.892448425292969 44.0436782836914062 7.60470008850097656 190 1645020534.69385028 -0.185647234320640564 0.982012093067169189 0.0284352395683526993 0.0194616951048374176
114.831207275390625 44.3324508666992188 7.59935331344604492 191 1645020535.08624673 0.00334744318388402462 0.999600589275360107 0.0217527449131011963 0.017727091908454895
113.874565124511719 45.0235137939453125 7.60219812393188477 192 1645020535.49140787 0.191578298807144165 0.981300115585327148 0.0158407930284738541 0.00984550174325704575
112.268997192382812 46.783447265625 7.61501312255859375 193 1645020536.19001842 0.367116421461105347 0.930167019367218018 0.00384867796674370766 0.000254390499321743846
108.581916809082031 50.4337921142578125 7.62335538864135742 194 1645020537.39066195 0.393395274877548218 0.919341802597045898 0.007012923713773489 -0.00126645236741751432
105.241615295410156 54.3989830017089844 7.62641477584838867 195 1645020538.38624787 0.436151772737503052 0.899848997592926025 0.00607705535367131233 0.00255213258787989616
102.809814453125 58.9492378234863281 7.63944292068481445 196 1645020539.48658991 0.576784670352935791 0.816696405410766602 0.00982412230223417282 0.0151631878688931465
102.34814453125 64.2030868530273438 7.65443992614746094 197 1645020540.88649487 0.646973252296447754 0.762337863445281982 -0.0115061337128281593 -0.0115842530503869057
99.3007354736328125 68.2506027221679688 7.69202375411987305 198 1645020542.08675551 0.403993308544158936 0.914665818214416504 0.0109899621456861496 -0.00742100877687335014
95.6996002197265625 71.7554473876953125 7.71436214447021484 199 1645020543.08565164 0.385167449712753296 0.922804534435272217 0.0087971370667219162 -0.000686684565152972937
92.2928390502929688 75.42877197265625 7.79382419586181641 200 1645020543.98670197 0.404813140630722046 0.914364516735076904 0.00280915736220777035 -0.00748299853876233101
83.7033157348632812 84.5623245239257812 7.87543773651123047 201 1645020546.08698201 0.392803966999053955 0.919620633125305176 -0.00107419805135577917 -0.00131215166766196489
74.6271209716796875 93.8881301879882812 7.9468235969543457 202 1645020548.08776212 0.384132623672485352 0.92325669527053833 0.00256608123891055584 -0.00570864975452423096
65.8213424682617188 103.32867431640625 7.92187833786010742 203 1645020550.18608618 0.41274571418762207 0.910845518112182617 0.00109003554098308086 -0.000474442844279110432
62.6009292602539062 107.785057067871094 7.86590099334716797 204 1645020551.18680024 0.483413606882095337 0.875391602516174316 -0.000912804913241416216 5.36948355147615075e-05
61.3329505920410156 111.601715087890625 7.84684944152832031 205 1645020551.98853445 0.641729056835174561 0.766583681106567383 -0.00153805373702198267 0.0230419803410768509
66.7063140869140625 118.174613952636719 7.7606658935546875 206 1645020554.08575583 0.974787890911102295 0.221913725137710571 0.00403764611110091209 0.0229469910264015198
75.1513824462890625 115.748489379882812 7.69185066223144531 207 1645020556.0861156 0.935827434062957764 -0.352271586656570435 0.00875480286777019501 -0.00742485327646136284
82.7578277587890625 107.099822998046875 7.64736270904541016 208 1645020558.09006572 0.899189114570617676 -0.43741685152053833 0.00794717762619256973 -0.00789397116750478745
92.5764999389648438 97.2349929809570312 7.61883020401000977 209 1645020560.19032025 0.922223985195159912 -0.386594653129577637 -0.000367336469935253263 -0.00688054738566279411
102.917312622070312 86.6928329467773438 7.59793329238891602 210 1645020562.28937483 0.926537692546844482 -0.375961124897003174 0.0018638980109244585 -0.0133291482925415039
108.7080078125 79.3743133544921875 7.7021942138671875 211 1645020563.79157615 0.846304357051849365 -0.532060146331787109 -0.0115666454657912254 0.0233918968588113785
109.088325500488281 76.2766647338867188 7.74750900268554688 212 1645020564.39085245 0.722382187843322754 -0.690965652465820312 -0.0226156450808048248 0.014796682633459568
107.80743408203125 65.1693344116210938 7.67231941223144531 213 1645020566.490412 0.767588913440704346 -0.640565633773803711 0.0123370196670293808 -0.0181874856352806091
115.168197631835938 56.0897064208984375 7.76685953140258789 214 1645020568.49108148 0.932650983333587646 -0.360733360052108765 0.00552042527124285698 0.0017527630552649498
122.197189331054688 49.6800994873046875 7.71600961685180664 215 1645020570.49377799 0.922746658325195312 -0.385242640972137451 0.000630303286015987396 0.0112369470298290253
125.871627807617188 45.9324951171875 7.74063301086425781 216 1645020571.49213529 0.919074952602386475 -0.393591850996017456 -0.001855107257142663 0.0195767544209957123
129.424362182617188 42.0308341979980469 8.14976692199707031 217 1645020572.69252777 0.915004253387451172 -0.39915427565574646 0.056931663304567337 0.0142060788348317146
133.244461059570312 38.4095726013183594 8.53826045989990234 218 1645020573.89108682 0.930281341075897217 -0.364984065294265747 0.0264966487884521484 -0.0257132705301046371
136.946914672851562 34.6606864929199219 8.58838081359863281 219 1645020574.99296021 0.923238933086395264 -0.382130682468414307 0.0237047616392374039 -0.032311905175447464
140.9149169921875 30.8632545471191406 8.53439998626708984 220 1645020575.99494767 0.933896422386169434 -0.355391383171081543 0.0152131179347634315 -0.0360966436564922333
145.050094604492188 27.5267448425292969 8.60745906829833984 221 1645020576.89401484 0.949684441089630127 -0.312051653861999512 0.00866926182061433792 -0.0254580527544021606
149.388916015625 23.9669551849365234 8.62322998046875 222 1645020577.79399252 0.935568332672119141 -0.352858096361160278 0.00442784558981657028 -0.0135435499250888824
153.265777587890625 20.2771949768066406 8.44960212707519531 223 1645020578.59503651 0.928306281566619873 -0.370992451906204224 -0.00156991265248507261 -0.02468867227435112
157.426162719726562 16.3815975189208984 8.21693897247314453 224 1645020579.39649224 0.928730130195617676 -0.369576334953308105 -0.0148758199065923691 -0.0255414023995399475
161.077407836914062 12.8890161514282227 8.03216934204101562 225 1645020580.09486818 0.926778137683868408 -0.374846100807189941 -0.00635115662589669228 -0.023073958232998848
164.82666015625 9.43797111511230469 7.81786918640136719 226 1645020580.79668975 0.931777536869049072 -0.362159192562103271 -0.00805755797773599625 -0.0237993188202381134
168.536911010742188 5.85442066192626953 7.62990903854370117 227 1645020581.49604273 0.920307636260986328 -0.390936523675918579 -0.00473182974383234978 -0.013418959453701973
172.068115234375 2.07543039321899414 7.44126367568969727 228 1645020582.19769359 0.915121614933013916 -0.401728332042694092 -0.0108068948611617088 -0.0324041284620761871
175.725845336914062 -1.59415721893310547 7.22584199905395508 229 1645020582.89620018 0.920922219753265381 -0.38863334059715271 -0.00876347441226243973 -0.0280989464372396469
179.345916748046875 -5.37418508529663086 7.07812833786010742 230 1645020583.59694004 0.917357146739959717 -0.397487252950668335 -0.0026664522010833025 -0.0212750658392906189
182.90142822265625 -9.07766342163085938 6.95132684707641602 231 1645020584.29718781 0.920675814151763916 -0.38960188627243042 0.00968151353299617767 -0.0217412747442722321
186.517837524414062 -12.675745964050293 6.89899301528930664 232 1645020584.99642062 0.925844371318817139 -0.377015948295593262 0.0124529134482145309 -0.0227185096591711044
190.290267944335938 -16.0815143585205078 6.88559865951538086 233 1645020585.70065427 0.937289237976074219 -0.347134977579116821 0.0179637353867292404 -0.0257575232535600662
194.18682861328125 -19.2268390655517578 6.86208200454711914 234 1645020586.39924598 0.945841372013092041 -0.324150562286376953 0.0105303674936294556 -0.014127989299595356
198.06256103515625 -22.4355297088623047 6.72530794143676758 235 1645020587.09406304 0.939892113208770752 -0.340834558010101318 -0.00376474787481129169 -0.0205038841813802719
202.00762939453125 -25.6414375305175781 6.6472630500793457 236 1645020587.79788423 0.944413602352142334 -0.327946364879608154 -0.00076848943717777729 -0.0230973679572343826
205.962783813476562 -28.7246685028076172 6.61430692672729492 237 1645020588.49218059 0.947307586669921875 -0.319292515516281128 0.00126001110766083002 -0.0256720669567584991
210.56768798828125 -32.1035423278808594 6.62150812149047852 238 1645020589.2913959 0.951983511447906494 -0.304364025592803955 0.00750948302447795868 -0.0321485437452793121
215.381317138671875 -35.1700935363769531 6.61762905120849609 239 1645020590.09260321 0.964100122451782227 -0.263601064682006836 0.00216934154741466045 -0.0319480225443840027
220.458786010742188 -37.6517295837402344 6.6225895881652832 240 1645020590.89143467 0.978099465370178223 -0.207018256187438965 -0.00473861722275614738 -0.0210336558520793915
225.61016845703125 -39.8708648681640625 6.62912988662719727 241 1645020591.68999887 0.978622496128082275 -0.205195620656013489 0.000735467532649636269 -0.0138639127835631371
230.147613525390625 -42.1272506713867188 6.62154150009155273 242 1645020592.48826122 0.972947955131530762 -0.23063892126083374 -0.00106656958814710379 -0.0132976910099387169
234.291519165039062 -44.9983634948730469 6.60368013381958008 243 1645020593.39033103 0.935428202152252197 -0.353468865156173706 -0.00476417457684874535 -0.00334588787518441677
237.1904296875 -49.7145614624023438 6.50044965744018555 244 1645020594.38995981 0.852692723274230957 -0.521286070346832275 -0.00311249075457453728 -0.0341513864696025848
239.130661010742188 -54.7811203002929688 6.4255523681640625 245 1645020595.28993869 0.797681212425231934 -0.603065848350524902 -0.00371663970872759819 -0.00156057334970682859
239.877090454101562 -60.015869140625 6.31816339492797852 246 1645020596.08932805 0.73664933443069458 -0.676147758960723877 -0.0131118930876255035 -0.000189626996871083975
240.254989624023438 -65.53350830078125 6.27606391906738281 247 1645020596.8906939 0.730230927467346191 -0.682775974273681641 -0.016892584040760994 0.0171569418162107468
240.501296997070312 -71.14971923828125 6.27379512786865234 248 1645020597.69325209 0.720633208751678467 -0.69307178258895874 -0.010361403226852417 0.0152305429801344872
241.326080322265625 -76.699005126953125 6.2533116340637207 249 1645020598.48883152 0.792746782302856445 -0.609535455703735352 0.0015799438115209341 -0.00407397979870438576
243.380599975585938 -81.96636962890625 6.20831680297851562 250 1645020599.29029799 0.829085588455200195 -0.55896449089050293 -0.00972717907279729843 0.00901298411190509796
245.436294555664062 -87.2664566040039062 6.17858457565307617 251 1645020600.08971643 0.823465168476104736 -0.56719893217086792 -0.0120941940695047379 0.00664450135082006454
247.679092407226562 -92.4756317138671875 6.17254209518432617 252 1645020600.889117 0.839068293571472168 -0.543958604335784912 -0.00446617463603615761 0.0073105483315885067
250.280364990234375 -97.5218124389648438 6.16181373596191406 253 1645020601.68831396 0.859214246273040771 -0.511575937271118164 -0.00513495737686753273 0.00381994340568780899
253.944122314453125 -101.834709167480469 6.13395929336547852 254 1645020602.48997831 0.928940355777740479 -0.370156258344650269 -0.00662144506350159645 0.00321749225258827209
258.39337158203125 -105.309707641601562 6.09055519104003906 255 1645020603.29028201 0.943983972072601318 -0.328560352325439453 -0.00894161872565746307 0.0293662957847118378
262.7979736328125 -108.904754638671875 6.07409286499023438 256 1645020604.08947396 0.937305986881256104 -0.347507178783416748 -0.00791484303772449493 0.0251720231026411057
267.101104736328125 -112.492988586425781 6.04056930541992188 257 1645020604.88889885 0.942161738872528076 -0.333942532539367676 -0.0150319170206785202 0.0242411401122808456
271.211456298828125 -115.678962707519531 5.99943780899047852 258 1645020605.6908803 0.946842312812805176 -0.320920705795288086 -0.0110083203762769699 0.0194502342492341995
275.704803466796875 -118.481697082519531 5.98044633865356445 259 1645020606.58911395 0.969888985157012939 -0.243218615651130676 -0.0102331964299082756 0.00744125619530677795
280.242462158203125 -120.720626831054688 6.03951644897460938 260 1645020607.8905797 0.968685507774353027 -0.246620580554008484 0.0208660122007131577 0.0197810083627700806
284.60809326171875 -123.230354309082031 5.90271377563476562 261 1645020609.79133606 0.963180243968963623 -0.26681971549987793 -0.0330148227512836456 0.00105194398202002048
289.09210205078125 -126.05584716796875 5.91443014144897461 262 1645020611.19131756 0.960045397281646729 -0.279833585023880005 0.000260029977653175592 -0.00244125956669449806
293.298614501953125 -128.9388427734375 5.73347234725952148 263 1645020612.19139218 0.953980326652526855 -0.298976689577102661 -0.0142058618366718292 -0.0182381942868232727
297.601409912109375 -132.031234741210938 5.31766939163208008 264 1645020613.09035492 0.951577067375183105 -0.303699463605880737 -0.0359803438186645508 -0.0311959106475114822
301.91497802734375 -135.264923095703125 4.84784364700317383 265 1645020613.99114108 0.946035325527191162 -0.320139020681381226 -0.0372114032506942749 -0.0338159650564193726
306.472686767578125 -138.164154052734375 4.37183427810668945 266 1645020614.89147377 0.962969422340393066 -0.26507684588432312 -0.0364513620734214783 -0.0330984890460968018
311.248321533203125 -140.941452026367188 3.89726471900939941 267 1645020615.79269838 0.961794614791870117 -0.268862009048461914 -0.0412704497575759888 -0.0310016293078660965
315.463836669921875 -143.7974853515625 3.43782234191894531 268 1645020616.59280539 0.948371410369873047 -0.312421083450317383 -0.0462202876806259155 -0.0291268359869718552
319.28924560546875 -147.3018798828125 2.91834425926208496 269 1645020617.39249682 0.925363838672637939 -0.374537020921707153 -0.0410224646329879761 -0.0417243018746376038
322.656524658203125 -151.192855834960938 2.38776969909667969 270 1645020618.19391179 0.90106278657913208 -0.429502278566360474 -0.043549463152885437 -0.0414373911917209625
325.976959228515625 -155.613784790039062 1.83610093593597412 271 1645020619.09400296 0.889019489288330078 -0.453797131776809692 -0.04697466641664505 -0.038806430995464325
328.84979248046875 -160.282760620117188 1.27824568748474121 272 1645020620.09292626 0.866390466690063477 -0.494027674198150635 -0.039508964866399765 -0.0611820518970489502
330.873870849609375 -165.15118408203125 1.00155949592590332 273 1645020621.29349971 0.809009671211242676 -0.587252318859100342 0.0206970907747745514 -0.0144821051508188248
330.955718994140625 -168.788665771484375 0.951698839664459229 274 1645020622.09348464 0.683092355728149414 -0.730223417282104492 0.000896429235581308603 -0.0125620542094111443
329.90936279296875 -171.108245849609375 0.864515125751495361 275 1645020622.59519219 0.525539398193359375 -0.850572884082794189 -0.00789938308298587799 -0.0164822302758693695
327.626312255859375 -173.274810791015625 0.717170774936676025 276 1645020623.19429064 0.352030396461486816 -0.935719311237335205 -0.00864065345376729965 -0.0207186434417963028
323.057220458984375 -175.937759399414062 0.465786904096603394 277 1645020624.09270549 0.245577260851860046 -0.969071447849273682 -0.0022717062383890152 -0.0242318063974380493
318.2384033203125 -178.1693115234375 0.186880037188529968 278 1645020624.89197206 0.209654495120048523 -0.977440297603607178 0.00456186896190047264 -0.0251913219690322876
313.017913818359375 -180.475784301757812 -0.125932216644287109 279 1645020625.69135308 0.207239285111427307 -0.977724313735961914 0.0147077692672610283 -0.0298442821949720383
308.304229736328125 -182.569595336914062 -0.398286700248718262 280 1645020626.39354873 0.204837292432785034 -0.977884054183959961 0.0163008756935596466 -0.0389709733426570892
303.498687744140625 -184.645034790039062 -0.634502053260803223 281 1645020627.09285831 0.200873523950576782 -0.979053497314453125 0.0227979738265275955 -0.0241734255105257034
298.664306640625 -186.6353759765625 -0.832898974418640137 282 1645020627.79007959 0.190759241580963135 -0.981102585792541504 0.0252840649336576462 -0.0202319994568824768
293.778900146484375 -188.5653076171875 -1.02808594703674316 283 1645020628.49189067 0.183275535702705383 -0.982429385185241699 0.0178210083395242691 -0.0304131880402565002
288.917816162109375 -190.398345947265625 -1.18676650524139404 284 1645020629.19104862 0.177706211805343628 -0.983645081520080566 0.0198722556233406067 -0.0216316860169172287
284.0150146484375 -192.17999267578125 -1.35611450672149658 285 1645020629.89101768 0.169598937034606934 -0.985073506832122803 0.0196336656808853149 -0.0219301600009202957
279.08807373046875 -193.87628173828125 -1.50762271881103516 286 1645020630.59298563 0.162747487425804138 -0.986242532730102539 0.0197914540767669678 -0.0211467016488313675
274.1839599609375 -195.490219116210938 -1.64626944065093994 287 1645020631.29164672 0.149418339133262634 -0.988552093505859375 0.0163260269910097122 -0.0131286997348070145
269.231903076171875 -197.127777099609375 -1.82430315017700195 288 1645020631.99649501 0.151854395866394043 -0.98825913667678833 0.00917805172502994537 -0.0141395730897784233
264.2989501953125 -198.723419189453125 -1.98894357681274414 289 1645020632.69677663 0.158344164490699768 -0.987085402011871338 0.0159523021429777145 -0.0183036439120769501
259.336395263671875 -200.17706298828125 -2.15844249725341797 290 1645020633.39248705 0.137412548065185547 -0.99022829532623291 0.0141281178221106529 -0.0191340669989585876
254.29852294921875 -201.5078125 -2.33564162254333496 291 1645020634.09393907 0.125260084867477417 -0.991868257522583008 0.0106937382370233536 -0.019821997731924057
249.267913818359375 -202.768081665039062 -2.50944042205810547 292 1645020634.79243851 0.128469184041023254 -0.99136507511138916 0.013588443398475647 -0.0225004963576793671
244.281646728515625 -204.184371948242188 -2.66597676277160645 293 1645020635.49205422 0.138871908187866211 -0.990099072456359863 0.0114900935441255569 -0.0169238671660423279
239.2847900390625 -205.590927124023438 -2.83961176872253418 294 1645020636.19196725 0.127291545271873474 -0.991698980331420898 0.00695308903232216835 -0.0167823322117328644
234.273910522460938 -206.819625854492188 -2.96604418754577637 295 1645020636.89195681 0.115975849330425262 -0.993128418922424316 0.00951911695301532745 -0.0124461129307746887
229.231674194335938 -207.941436767578125 -3.11162257194519043 296 1645020637.59316921 0.1029348224401474 -0.99447333812713623 0.0128150759264826775 -0.0162148512899875641
224.1741943359375 -209.021987915039062 -3.27733731269836426 297 1645020638.29295135 0.0997541993856430054 -0.994678139686584473 0.0148979593068361282 -0.0210354570299386978
219.109344482421875 -210.086288452148438 -3.45189476013183594 298 1645020638.99352431 0.10009273886680603 -0.994706213474273682 0.011255284771323204 -0.0203551780432462692
214.053573608398438 -211.089218139648438 -3.59305500984191895 299 1645020639.69264913 0.0960418954491615295 -0.995281994342803955 0.00869354326277971268 -0.0106821572408080101
208.949615478515625 -211.963348388671875 -3.74974584579467773 300 1645020640.39297199 0.0739248320460319519 -0.997102141380310059 0.00511734606698155403 -0.0172103196382522583
203.813278198242188 -212.585861206054688 -3.89197993278503418 301 1645020641.09402966 0.050111725926399231 -0.998551368713378906 0.00602535111829638481 -0.0186462104320526123
