# .PCD v0.7 - Point Cloud Data file format
VERSION 0.7
FIELDS x y z intensity t qx qy qz qw
SIZE 4 4 4 4 8 4 4 4 4
TYPE F F F F F F F F F
COUNT 1 1 1 1 1 1 1 1 1
WIDTH 277
HEIGHT 1
VIEWPOINT 0 0 0 1 0 0 0
POINTS 277
DATA ascii
-35.6968841552734375 -149.759475708007812 -0.772162079811096191 19 1645019795.77195477 0.999114096164703369 -0.0241410303860902786 0.029466697946190834 0.0178881697356700897
-36.0755348205566406 -149.380935668945312 -0.723506689071655273 20 1645019795.87188148 0.999197721481323242 -0.0222699567675590515 0.0272229425609111786 0.019154893234372139
-39.8157157897949219 -145.724822998046875 -0.293738365173339844 21 1645019796.87273026 0.999450325965881348 -0.0115080531686544418 0.0273621808737516403 0.0147614870220422745
-43.4250564575195312 -142.07745361328125 0.114712774753570557 22 1645019797.87205505 0.9993438720703125 -0.0260224342346191406 0.0228005293756723404 0.0107167409732937813
-46.8644638061523438 -138.310455322265625 0.55131685733795166 23 1645019798.8727212 0.998663961887359619 -0.0458048209547996521 0.0207536835223436356 0.0118933683261275291
-50.1354904174804688 -134.422988891601562 0.958060979843139648 24 1645019799.87253928 0.997398138046264648 -0.0672965943813323975 0.0223217345774173737 0.0130340838804841042
-53.2984466552734375 -130.336135864257812 1.33625125885009766 25 1645019800.87358761 0.995750010013580322 -0.0888720676302909851 0.0194768998771905899 0.0142927598208189011
-54.8874931335449219 -127.986976623535156 1.53484773635864258 26 1645019801.37175798 0.462520092725753784 0.885634958744049072 0.00381727493368089199 -0.0413680821657180786
-57.551544189453125 -123.767547607421875 1.91344118118286133 27 1645019802.27353883 0.489262312650680542 0.8709259033203125 0.000852668483275920153 -0.0459319166839122772
-59.9545135498046875 -119.186386108398438 2.34052586555480957 28 1645019803.27349448 0.535234272480010986 0.84321296215057373 0.00466089695692062378 -0.0499445647001266479
-61.7170219421386719 -114.317588806152344 2.79947209358215332 29 1645019804.27433515 0.5914573073387146 0.804658770561218262 0.00930313579738140106 -0.0511468686163425446
-62.8198890686035156 -109.318588256835938 3.22289347648620605 30 1645019805.27452159 0.641197562217712402 0.765778243541717529 0.0159835256636142731 -0.0468385070562362671
-63.384124755859375 -104.178840637207031 3.60018444061279297 31 1645019806.27511668 0.677008211612701416 0.734894275665283203 0.015084889717400074 -0.0369153767824172974
-63.6518707275390625 -98.9843673706054688 3.99976968765258789 32 1645019807.27438474 0.692544519901275635 0.719980239868164062 0.01927899569272995 -0.0404832139611244202
-63.7896003723144531 -93.7851715087890625 4.42814016342163086 33 1645019808.27437735 0.69588547945022583 0.716585755348205566 0.0220562387257814407 -0.0419740639626979828
-64.0086212158203125 -88.7305145263671875 4.94516372680664062 34 1645019809.27448058 0.693139016628265381 0.717200636863708496 0.0456987917423248291 -0.0556163899600505829
-64.2460556030273438 -83.6463394165039062 5.25687980651855469 35 1645019810.27543044 0.689932644367218018 0.722168982028961182 0.0277833379805088043 -0.041145816445350647
-64.420745849609375 -78.5631027221679688 5.66385412216186523 36 1645019811.27465725 0.703203320503234863 0.709660947322845459 0.0282580871134996414 -0.0329839549958705902
-63.9841651916503906 -73.4775390625 6.04384469985961914 37 1645019812.27515602 0.753748774528503418 0.655753254890441895 0.028644852340221405 -0.0320935957133769989
-62.613616943359375 -68.5808181762695312 6.43136453628540039 38 1645019813.37520599 0.811787545680999756 0.582443594932556152 0.018595302477478981 -0.0376117527484893799
-60.5860061645507812 -63.9259605407714844 6.80630159378051758 39 1645019814.97739458 0.844659924507141113 0.53287971019744873 0.0119204288348555565 -0.0494648590683937073
-57.1980018615722656 -60.0133857727050781 7.09070634841918945 40 1645019816.57512808 0.928791344165802002 0.367367267608642578 0.00327104493044316769 -0.0487573519349098206
-52.5127830505371094 -57.2736282348632812 7.32432413101196289 41 1645019817.87681413 0.972091972827911377 0.227836474776268005 0.0133609501644968987 -0.0543062686920166016
-47.7300300598144531 -54.9967422485351562 7.46115303039550781 42 1645019818.97628117 0.974280655384063721 0.22297203540802002 -0.00623477809131145477 -0.0319648608565330505
-42.9016914367675781 -52.8097457885742188 7.34101533889770508 43 1645019820.17649841 0.985659897327423096 0.167613252997398376 -0.0165937021374702454 -0.0102478824555873871
-37.9352798461914062 -51.6899299621582031 7.15723609924316406 44 1645019821.37956524 0.991442441940307617 0.125784337520599365 -0.0246023684740066528 -0.0247975755482912064
-33.7424697875976562 -48.3243789672851562 7.13546228408813477 45 1645019822.47996831 0.911995530128479004 0.408928662538528442 -0.0122006954625248909 -0.0298779495060443878
-31.4218654632568359 -43.7463836669921875 7.23325967788696289 46 1645019823.48087049 0.828628420829772949 0.557960867881774902 0.00103271612897515297 -0.0453166477382183075
-30.4010009765625 -38.5432319641113281 7.49147748947143555 47 1645019824.48116279 0.746689915657043457 0.663829147815704346 -0.002400936558842659 -0.0421819128096103668
-29.6638011932373047 -33.1233749389648438 7.76611661911010742 48 1645019825.47966146 0.747598350048065186 0.662407875061035156 -0.0083468044176697731 -0.0473593845963478088
-29.3921146392822266 -28.0615749359130859 8.01599597930908203 49 1645019826.37950206 0.711730778217315674 0.700995385646820068 -0.003701050765812397 -0.0450670085847377777
-30.0543365478515625 -22.9476108551025391 8.31127834320068359 50 1645019827.28034973 0.635350823402404785 0.771318733692169189 0.00998520664870738983 -0.0360134206712245941
-31.5640602111816406 -17.8439884185791016 8.47813701629638672 51 1645019828.18209314 0.606972455978393555 0.794413208961486816 0.0217371992766857147 -0.00442173751071095467
-33.0307998657226562 -12.9046669006347656 8.60292625427246094 52 1645019829.08179641 0.587042391300201416 0.809497594833374023 0.00760936643928289413 -0.00607729190960526466
-34.6410064697265625 -8.10724353790283203 8.71955680847167969 53 1645019830.0793674 0.600304663181304932 0.799548506736755371 0.0186712443828582764 -0.00280877994373440742
-34.2052726745605469 -2.92385554313659668 8.79135608673095703 54 1645019831.28018045 0.805662095546722412 0.592059552669525146 0.0104662962257862091 0.0162647347897291183
-30.7303028106689453 -0.148828789591789246 8.79714584350585938 55 1645019832.37979364 0.974866271018981934 0.221700459718704224 0.000820164044853299856 0.0220006424933671951
-28.6442928314208984 -0.0856386944651603699 8.79172801971435547 56 1645019832.87926817 0.999474227428436279 0.0264951754361391068 -0.00686338916420936584 0.0173817332834005356
-26.1712589263916016 -0.929461359977722168 8.73291683197021484 57 1645019833.48045182 0.986762762069702148 -0.161001682281494141 -0.015635201707482338 0.0115442434325814247
-21.6235237121582031 -4.09042978286743164 8.62125778198242188 58 1645019834.57858443 0.953256428241729736 -0.302068114280700684 -0.00474208919331431389 0.00587835302576422691
-17.0389251708984375 -6.75294351577758789 8.54242515563964844 59 1645019835.47912788 0.974147439002990723 -0.225721538066864014 -0.0050925547257065773 -0.0077855745330452919
-12.1188316345214844 -8.24215888977050781 8.48713207244873047 60 1645019836.28369141 0.991853892803192139 -0.127185195684432983 -0.0052667548879981041 -0.00469481060281395912
-7.08040475845336914 -9.33477210998535156 8.32674217224121094 61 1645019837.07951117 0.995462596416473389 -0.0928381234407424927 -0.0196004956960678101 -0.00714705372229218483
-1.68926000595092773 -9.51683616638183594 8.02964210510253906 62 1645019837.98168731 0.999234497547149658 -0.0054097520187497139 -0.0381486564874649048 0.00676708947867155075
3.66702842712402344 -9.21110916137695312 7.56165170669555664 63 1645019838.87880635 0.998234927654266357 0.0387859456241130829 -0.0445790216326713562 0.00594691885635256767
9.06159687042236328 -8.42308712005615234 7.11679744720458984 64 1645019839.77752066 0.995989084243774414 0.0816751271486282349 -0.0327003784477710724 0.0162958074361085892
14.1053085327148438 -7.11533641815185547 6.77650642395019531 65 1645019840.58206391 0.990007996559143066 0.138979643583297729 -0.0223309751600027084 0.00837829522788524628
19.0983219146728516 -5.09975337982177734 6.55695295333862305 66 1645019841.37763333 0.976501286029815674 0.215109169483184814 -0.0131591958925127983 -0.000284048554021865129
23.79071044921875 -2.0198369026184082 6.48255538940429688 67 1645019842.17530799 0.943642497062683105 0.330321401357650757 -0.010288710705935955 -0.0179108809679746628
27.4151744842529297 1.46803152561187744 6.48618173599243164 68 1645019842.87665272 0.927908599376678467 0.3727988600730896 0.000529620680026710033 -0.00252575427293777466
30.9976634979248047 5.04342937469482422 6.49856138229370117 69 1645019843.58087039 0.922387659549713135 0.386175870895385742 -0.00055098638404160738 -0.00830071792006492615
34.4979782104492188 8.68104076385498047 6.50279855728149414 70 1645019844.27945638 0.920410037040710449 0.390870481729507446 -0.000771716178860515356 -0.0080617191269993782
38.0245246887207031 12.2523164749145508 6.54001092910766602 71 1645019844.97545099 0.924251735210418701 0.381515651941299438 0.000333692354615777731 -0.0142981940880417824
41.6430282592773438 15.8244504928588867 6.55390501022338867 72 1645019845.67880893 0.926598191261291504 0.375703245401382446 -0.00500359246507287025 -0.0154214287176728249
45.7741584777832031 19.7776565551757812 6.61585855484008789 73 1645019846.47542214 0.929940879344940186 0.366833984851837158 0.00470110122114419937 -0.0249132458120584488
49.4508132934570312 23.2940673828125 6.56700944900512695 74 1645019847.17571378 0.928643465042114258 0.370625346899032593 -0.00696356361731886864 -0.014478844590485096
53.0394020080566406 26.8274955749511719 6.59743499755859375 75 1645019847.87968922 0.925604641437530518 0.378286361694335938 0.00466164201498031616 -0.0115627888590097427
56.9455108642578125 31.0067977905273438 6.72174358367919922 76 1645019848.68201661 0.916608154773712158 0.399451255798339844 0.0136477435007691383 -0.00905284937471151352
60.7797660827636719 35.0875473022460938 6.91967153549194336 77 1645019849.47579002 0.918502688407897949 0.394939184188842773 0.0171609185636043549 -0.00901763793081045151
64.5537338256835938 39.0364723205566406 7.10001754760742188 78 1645019850.2768364 0.919811606407165527 0.391935259103775024 0.0153383435681462288 -0.00990565214306116104
67.981170654296875 42.680755615234375 7.25623416900634766 79 1645019851.07659483 0.907832324504852295 0.418617546558380127 0.0014544931473210454 -0.0244478210806846619
70.1992340087890625 47.2062911987304688 7.41353702545166016 80 1645019851.97947407 0.815896332263946533 0.577918291091918945 0.00794389192014932632 -0.016138911247253418
71.0368881225585938 52.3106346130371094 7.55304861068725586 81 1645019852.98003221 0.751464784145355225 0.659538626670837402 0.00903461966663599014 -0.0150946406647562981
71.688140869140625 57.46478271484375 7.67017650604248047 82 1645019853.97744513 0.763013958930969238 0.645932197570800781 0.0240921452641487122 -0.000945370818953961134
73.7854080200195312 62.1270256042480469 7.71408748626708984 83 1645019854.97676063 0.877414047718048096 0.479723036289215088 0.00249764369800686836 0.00204866519197821617
77.3097991943359375 65.7193984985351562 7.71474885940551758 84 1645019855.9753015 0.926006555557250977 0.377368748188018799 -0.0088473539799451828 -0.00514342775568366051
81.3342208862304688 69.2840805053710938 7.7315831184387207 85 1645019857.07828093 0.933707177639007568 0.35733795166015625 0.00151109369471669197 -0.0223212707787752151
85.3029022216796875 72.96746826171875 7.77740049362182617 86 1645019858.27773833 0.938870012760162354 0.344205260276794434 0.00630994886159896851 -0.00245366501621901989
89.4443511962890625 75.016754150390625 7.77664804458618164 87 1645019859.27760243 0.985674202442169189 0.168345972895622253 -0.00862563308328390121 0.00562605820596218109
92.0974960327148438 75.029022216796875 7.77493000030517578 88 1645019859.87757325 0.999627590179443359 -0.0261434204876422882 -0.00469605950638651848 0.00625222595408558846
96.9504241943359375 73.121795654296875 7.72236204147338867 89 1645019860.97586036 0.982487618923187256 -0.186098113656044006 -0.00424322579056024551 -0.00822029635310173035
102.117225646972656 71.3290023803710938 7.73803567886352539 90 1645019861.97643328 0.989816367626190186 -0.140606522560119629 0.0124078011140227318 -0.0184246152639389038
107.447189331054688 71.54559326171875 7.72050142288208008 91 1645019862.97993636 0.992797553539276123 0.112232901155948639 -0.0157867036759853363 -0.0388274267315864563
112.062591552734375 74.1467132568359375 7.71039819717407227 92 1645019863.97770834 0.959790408611297607 0.279541313648223877 -0.0109424516558647156 -0.0232228729873895645
116.28155517578125 77.2458953857421875 7.67316246032714844 93 1645019864.87914014 0.949263930320739746 0.313882589340209961 -0.00850943382829427719 -0.0174142103642225266
120.703529357910156 80.4370651245117188 7.65779399871826172 94 1645019865.87850165 0.961345434188842773 0.275213122367858887 -0.0036817754153162241 0.00768963387235999107
125.698280334472656 81.0612640380859375 7.59176254272460938 95 1645019866.97902083 0.997527360916137695 -0.065794825553894043 -0.0137215321883559227 0.020540483295917511
129.836410522460938 78.2240676879882812 7.57435083389282227 96 1645019868.07953763 0.941853463649749756 -0.335907071828842163 -0.00121497793588787317 0.00877790618687868118
133.725234985351562 74.546783447265625 7.57507467269897461 97 1645019869.07959008 0.927693068981170654 -0.373289346694946289 0.00294541637413203716 0.0056495247408747673
137.363571166992188 70.9461593627929688 7.5596923828125 98 1645019869.98059416 0.918479561805725098 -0.395179212093353271 -0.00843872968107461929 0.0125486645847558975
139.258575439453125 67.4616241455078125 7.57314300537109375 99 1645019870.78166461 0.820083200931549072 -0.571603953838348389 -0.0192336384207010269 0.0190410930663347244
139.281173706054688 65.2889404296875 7.59148216247558594 100 1645019871.28078341 0.702851235866546631 -0.710552871227264404 -0.0273679792881011963 0.0191246941685676575
138.42913818359375 63.4876327514648438 7.57586812973022461 101 1645019871.78099394 0.537942111492156982 -0.841612637042999268 -0.0475007407367229462 0.00707639055326581001
137.01611328125 62.4741058349609375 7.60001134872436523 102 1645019872.28288269 0.352348595857620239 -0.935299813747406006 -0.0321610905230045319 0.00550849316641688347
135.498046875 62.2107467651367188 7.63382101058959961 103 1645019872.78356552 0.145435303449630737 -0.988960087299346924 -0.0282744131982326508 0.00265149632468819618
134.099212646484375 62.6057052612304688 7.66681337356567383 104 1645019873.27942204 -0.0531600899994373322 -0.998457670211791992 -0.0156420320272445679 0.00340101681649684906
132.682952880859375 63.5508804321289062 7.67458009719848633 105 1645019873.78367376 -0.24475647509098053 -0.96947246789932251 -0.0137260193005204201 -0.00538925081491470337
128.882400512695312 67.3579177856445312 7.68765449523925781 106 1645019875.08265233 -0.382037520408630371 -0.924116909503936768 -0.00728125125169754028 0.00149145058821886778
125.21014404296875 70.9139175415039062 7.68463706970214844 107 1645019876.08270884 -0.371062129735946655 -0.928596138954162598 -0.00356639642268419266 0.00306888832710683346
121.400276184082031 74.3802566528320312 7.67863941192626953 108 1645019876.98016262 -0.359442085027694702 -0.93316274881362915 -0.00239646900445222855 0.00170765561051666737
113.263671875 81.5493316650390625 7.69824075698852539 109 1645019878.68288612 -0.353162288665771484 -0.935527205467224121 0.00724807148799300194 0.00356304971501231194
109.197288513183594 85.19415283203125 7.68289661407470703 110 1645019879.47921705 -0.365967839956283569 -0.930602967739105225 0.00675434339791536331 0.000171259802300482988
105.112617492675781 89.0710906982421875 7.67468023300170898 111 1645019880.2823658 -0.38879808783531189 -0.92122340202331543 -0.0111388657242059708 0.00770801445469260216
101.625411987304688 92.681915283203125 7.66955852508544922 112 1645019880.98092055 -0.397161722183227539 -0.917703032493591309 -0.00905662216246128082 -0.00129504979122430086
98.2228469848632812 96.3897781372070312 7.66182279586791992 113 1645019881.68042207 -0.410633832216262817 -0.911719858646392822 -0.0107731111347675323 -0.00553601887077093124
95.0594863891601562 100.297615051269531 7.66241073608398438 114 1645019882.37848592 -0.434761226177215576 -0.900526881217956543 -0.00578935304656624794 -0.000684006954543292522
91.5927886962890625 103.958580017089844 7.67161083221435547 115 1645019883.07701182 -0.345355063676834106 -0.937988638877868652 0.0300448760390281677 0.0021260532084852457
87.4674301147460938 106.812744140625 7.68724441528320312 116 1645019883.78245568 -0.304075628519058228 -0.952646732330322266 -0.000697079172823578119 0.00130154669750481844
82.919952392578125 110.243309020996094 7.67880105972290039 117 1645019884.57837749 -0.329459428787231445 -0.944158077239990234 -0.00371360708959400654 -0.00286308722570538521
78.7811737060546875 113.787208557128906 7.68227434158325195 118 1645019885.38162255 -0.355378568172454834 -0.934700489044189453 -0.00610092282295227051 0.00197699107229709625
74.5483779907226562 117.3863525390625 7.68835115432739258 119 1645019886.2788837 -0.325132042169570923 -0.945596516132354736 0.0114585282281041145 -0.00224639289081096649
70.2307586669921875 119.130119323730469 7.70276260375976562 120 1645019887.18137503 -0.117917433381080627 -0.992848694324493408 0.0184509344398975372 0.00254896795377135277
67.5731353759765625 118.802879333496094 7.7343597412109375 121 1645019887.78018045 0.0875351428985595703 -0.995779514312744141 0.0274222325533628464 0.00297262473031878471
63.84759521484375 116.931838989257812 7.76929950714111328 122 1645019888.68001914 0.263485074043273926 -0.964142203330993652 0.0312252193689346313 -0.00551636610180139542
61.1772804260253906 114.188362121582031 7.80292940139770508 123 1645019889.47924829 0.439562499523162842 -0.897311747074127197 0.0378941558301448822 -0.0134334918111562729
60.3812065124511719 111.624649047851562 7.84644174575805664 124 1645019890.07869267 0.603115975856781006 -0.796828210353851318 0.030741717666387558 -0.0192581713199615479
60.6304855346679688 108.83074951171875 7.87093019485473633 125 1645019890.67890668 0.754690408706665039 -0.655364990234375 0.0196904707700014114 -0.0234809573739767075
61.9370231628417969 106.304031372070312 7.8748927116394043 126 1645019891.28091669 0.859108388423919678 -0.51106339693069458 0.0216697119176387787 -0.0166553463786840439
65.1545639038085938 102.316505432128906 7.90349531173706055 127 1645019892.27955294 0.914343118667602539 -0.403872311115264893 0.0138853807002305984 -0.0259032398462295532
68.9794158935546875 98.9321365356445312 7.93747138977050781 128 1645019893.18087006 0.935167074203491211 -0.353989779949188232 0.00607967423275113106 -0.0108066685497760773
73.1582794189453125 95.4021224975585938 7.94509315490722656 129 1645019894.08113599 0.940896987915039062 -0.338450491428375244 0.00754738133400678635 -0.0103495102375745773
77.5084304809570312 91.76031494140625 7.93465805053710938 130 1645019894.98634124 0.935039699077606201 -0.35449102520942688 -0.00149347353726625443 0.00588640011847019196
81.2534408569335938 88.2455978393554688 7.89541482925415039 131 1645019895.78249049 0.923993706703186035 -0.382378935813903809 -0.00404526339843869209 0.00236403266899287701
85.2387619018554688 84.30267333984375 7.86775875091552734 132 1645019896.68383765 0.92392277717590332 -0.382575362920761108 -0.00134415598586201668 -0.00101908121723681688
88.8177490234375 80.7159271240234375 7.8433833122253418 133 1645019897.48316741 0.92136383056640625 -0.388687282800674438 -0.00120990420691668987 0.00306094717234373093
97.7471542358398438 71.7859039306640625 7.71805286407470703 134 1645019899.48505807 0.93034207820892334 -0.366686999797821045 0.00131754321046173573 -0.00160764064639806747
103.099273681640625 66.273529052734375 7.69498777389526367 135 1645019900.78589821 0.916971921920776367 -0.398377418518066406 0.0090838531032204628 -0.0193767007440328598
106.867355346679688 62.3598709106445312 7.69568157196044922 136 1645019901.7853651 0.917705655097961426 -0.397158205509185791 0.0052713579498231411 -0.00733856670558452606
110.491775512695312 58.4776153564453125 7.6961369514465332 137 1645019902.88563466 0.921809077262878418 -0.387176990509033203 0.000325271132169291377 -0.0190237164497375488
114.899085998535156 55.8989143371582031 7.76943778991699219 138 1645019904.28523827 0.973365724086761475 -0.228762403130531311 0.0127245169132947922 -0.00806377921253442764
119.670951843261719 53.4984397888183594 7.66472768783569336 139 1645019905.88601017 0.963833212852478027 -0.266049772500991821 -0.00234249234199523926 0.015412110835313797
123.701416015625 50.1100311279296875 7.69088554382324219 140 1645019907.28566122 0.931959450244903564 -0.362538456916809082 0.00113568478263914585 0.00401818333193659782
127.364227294921875 46.4062080383300781 7.68901491165161133 141 1645019908.78567505 0.920565128326416016 -0.390037477016448975 -0.00193898787256330252 0.0206606965512037277
131.074737548828125 42.7191009521484375 8.19969940185546875 142 1645019910.18694711 0.926577329635620117 -0.372189134359359741 0.0534079186618328094 0.00878914352506399155
134.680145263671875 38.9856338500976562 8.57149124145507812 143 1645019911.88615465 0.913774967193603516 -0.404521971940994263 0.0236212406307458878 -0.028624286875128746
136.327926635742188 35.6289443969726562 8.54610157012939453 144 1645019913.0872941 0.825429439544677734 -0.563119053840637207 0.00857183150947093964 -0.0385973304510116577
136.47998046875 32.7291717529296875 8.45136165618896484 145 1645019913.98353767 0.71417003870010376 -0.69882357120513916 0.000670772627927362919 -0.0400782376527786255
135.479843139648438 29.9132862091064453 8.24465751647949219 146 1645019914.98810077 0.566266894340515137 -0.822439014911651611 -0.000270801072474569082 -0.05418366938829422
133.544815063476562 27.5344963073730469 8.01653766632080078 147 1645019916.08774328 0.413145571947097778 -0.909596920013427734 -0.0174027197062969208 -0.0405128262937068939
129.667160034179688 24.2036857604980469 7.6166534423828125 148 1645019917.49020743 0.345772325992584229 -0.937557578086853027 -0.0225632283836603165 -0.0303018148988485336
125.861473083496094 20.5013618469238281 7.22803735733032227 149 1645019918.6862731 0.378911077976226807 -0.924567162990570068 -0.0230866540223360062 -0.0326957367360591888
121.97369384765625 16.7445011138916016 6.8143610954284668 150 1645019919.89052916 0.373491615056991577 -0.9267234206199646 -0.0195988919585943222 -0.0361050553619861603
118.233978271484375 13.1979188919067383 6.44882678985595703 151 1645019921.08686376 0.367966443300247192 -0.929057776927947998 -0.0163094047456979752 -0.0344432182610034943
114.42449951171875 9.48728275299072266 6.08165168762207031 152 1645019922.28868175 0.374945521354675293 -0.926186919212341309 -0.021381571888923645 -0.0337113067507743835
110.779052734375 5.818359375 5.69228029251098633 153 1645019923.38664937 0.384081751108169556 -0.9223518967628479 -0.0274384971708059311 -0.0315492711961269379
107.042793273925781 1.9268639087677002 5.29166030883789062 154 1645019924.48607135 0.393312603235244751 -0.91850745677947998 -0.026252157986164093 -0.0309845004230737686
103.418952941894531 -1.9904026985168457 4.91115522384643555 155 1645019925.58630133 0.400458037853240967 -0.915473222732543945 -0.0254448149353265762 -0.0299125909805297852
99.910980224609375 -5.90702009201049805 4.56197357177734375 156 1645019926.68184638 0.407297015190124512 -0.912616133689880371 -0.023212142288684845 -0.0264970548450946808
96.3154296875 -9.98379325866699219 4.2444300651550293 157 1645019927.78380752 0.409178793430328369 -0.911922812461853027 -0.0195161271840333939 -0.0242607779800891876
92.9493484497070312 -13.696319580078125 3.96501040458679199 158 1645019928.78566599 0.402252376079559326 -0.915058434009552002 -0.0155571689829230309 -0.0248805396258831024
89.4952468872070312 -17.3404617309570312 3.68858790397644043 159 1645019929.78447914 0.396282881498336792 -0.91761857271194458 -0.00932004395872354507 -0.029140278697013855
85.9586868286132812 -20.9393520355224609 3.40580964088439941 160 1645019930.78213024 0.38261789083480835 -0.923345386981964111 -0.00861607491970062256 -0.0310267210006713867
82.2928695678710938 -24.5925464630126953 3.04600906372070312 161 1645019931.7822361 0.374809861183166504 -0.926437795162200928 -0.0192061364650726318 -0.029354587197303772
78.5076065063476562 -28.2192516326904297 2.79694581031799316 162 1645019932.78246808 0.370477557182312012 -0.928604543209075928 -0.0157821401953697205 -0.0138157792389392853
74.8230667114257812 -31.7231636047363281 2.63200712203979492 163 1645019933.78224206 0.366969883441925049 -0.929953873157501221 -0.0207517147064208984 -0.00939399190247058868
70.9026260375976562 -35.4767112731933594 2.46143245697021484 164 1645019934.88217926 0.370736032724380493 -0.928364813327789307 -0.0246282853186130524 -0.00932617858052253723
67.1601486206054688 -39.2311592102050781 2.30368494987487793 165 1645019935.98240042 0.383654087781906128 -0.923194229602813721 -0.0222873874008655548 -0.00502030458301305771
63.6185302734375 -42.9392814636230469 2.2178654670715332 166 1645019937.08239365 0.395337671041488647 -0.91844707727432251 -0.0124732460826635361 -0.00273465365171432495
59.6739768981933594 -46.2996635437011719 2.21575927734375 167 1645019938.28207541 0.320641577243804932 -0.947194993495941162 0.00325457635335624218 -0.000114560411020647734
55.314117431640625 -49.0375099182128906 2.25188946723937988 168 1645019939.48217916 0.265371859073638916 -0.964120566844940186 0.0067241378128528595 0.00203068810515105724
50.8550605773925781 -51.3962287902832031 2.30231690406799316 169 1645019940.5821743 0.228081583976745605 -0.973623931407928467 0.00418408913537859917 0.00421622209250926971
46.0934257507324219 -53.4280014038085938 2.39828228950500488 170 1645019941.68253231 0.189882859587669373 -0.981724739074707031 0.00857964716851711273 0.00934814848005771637
40.9886970520019531 -55.1732635498046875 2.55322837829589844 171 1645019942.88212442 0.151590511202812195 -0.988214790821075439 0.014058147557079792 0.0159441139549016953
35.8048095703125 -56.538299560546875 2.75902867317199707 172 1645019943.98364449 0.113121561706066132 -0.993202865123748779 0.0124834608286619186 0.0244070477783679962
30.6723060607910156 -57.6319313049316406 3.0027472972869873 173 1645019944.98345613 0.0942642688751220703 -0.995105206966400146 0.00927785132080316544 0.0281751174479722977
25.3682804107666016 -58.5476188659667969 3.27795314788818359 174 1645019946.08301663 0.079558148980140686 -0.996406316757202148 0.00825772527605295181 0.0278700180351734161
20.1050567626953125 -59.2777175903320312 3.58984827995300293 175 1645019947.28292966 0.0582370758056640625 -0.997698307037353516 0.000990867731161415577 0.0347213111817836761
14.9133005142211914 -59.6607589721679688 3.94096946716308594 176 1645019948.38375378 0.0226756427437067032 -0.999065637588500977 -0.00148892903234809637 0.0367626957595348358
9.47768306732177734 -59.6386184692382812 4.29670476913452148 177 1645019949.48422408 -0.0131974946707487106 -0.999376356601715088 -0.000318224221700802445 0.0327503681182861328
4.38652467727661133 -59.2580947875976562 4.61555099487304688 178 1645019950.48467565 -0.0478727295994758606 -0.998354852199554443 0.00153992208652198315 0.0315177291631698608
-0.588573634624481201 -58.6426658630371094 4.95597505569458008 179 1645019951.48313594 -0.059667196124792099 -0.997442185878753662 0.00687756994739174843 0.0387509502470493317
-5.93833398818969727 -58.0933113098144531 5.33194398880004883 180 1645019952.58395052 -0.0509199127554893494 -0.997878789901733398 0.00668074097484350204 0.0400056988000869751
-11.1372509002685547 -57.6726608276367188 5.67343854904174805 181 1645019953.6847229 -0.040127534419298172 -0.998598635196685791 0.00577402161434292793 0.0340173467993736267
-16.4160270690917969 -57.3212890625 6.01984834671020508 182 1645019954.98477507 -0.0291324816644191742 -0.99909210205078125 0.00990815367549657822 0.0294640772044658661
-21.4569778442382812 -57.1112709045410156 6.31551504135131836 183 1645019956.38659382 -0.0210833735764026642 -0.999276041984558105 0.00816910527646541595 0.0305972620844841003
-26.6716632843017578 -56.9320755004882812 6.65221881866455078 184 1645019957.78572369 -0.0107362344861030579 -0.999285101890563965 0.0145144453272223473 0.0332171246409416199
-31.8197708129882812 -56.9530105590820312 6.91211462020874023 185 1645019959.18736053 0.000885867630131542683 -0.99955517053604126 0.00983852799981832504 0.0281401779502630234
-36.8432159423828125 -57.056854248046875 7.19237899780273438 186 1645019960.88871622 0.00645462889224290848 -0.998996853828430176 0.00554958125576376915 0.0439645014703273773
-42.2472381591796875 -57.0817184448242188 7.25851345062255859 187 1645019962.99030161 -0.0090298941358923912 -0.999777793884277344 -0.00909107830375432968 -0.016738181933760643
-48.3781585693359375 -56.4819221496582031 7.39228916168212891 188 1645019965.08527684 -0.058215949684381485 -0.998152017593383789 -0.0172096528112888336 0.00270098284818232059
-53.0240211486816406 -57.4528388977050781 7.28678464889526367 189 1645019966.38747048 0.173442482948303223 -0.984236240386962891 -0.0271689798682928085 -0.0214130543172359467
-55.3950576782226562 -59.5017852783203125 7.10409259796142578 190 1645019967.18741179 0.363635838031768799 -0.931063055992126465 -0.0239748973399400711 -0.0177709124982357025
-57.6418266296386719 -63.5755233764648438 6.77946901321411133 191 1645019968.18723345 0.5395851731300354 -0.841138243675231934 -0.0312255844473838806 -0.0189546495676040649
-58.7794418334960938 -70.1697845458984375 6.25731563568115234 192 1645019969.4897325 0.68157726526260376 -0.730633556842803955 -0.0272437036037445068 -0.0297464020550251007
-58.9704132080078125 -75.2500839233398438 5.82459735870361328 193 1645019970.3887651 0.692366957664489746 -0.720518887042999268 -0.0310290995985269547 -0.0227545648813247681
-59.10430908203125 -80.5759201049804688 5.39029693603515625 194 1645019971.28891921 0.69367903470993042 -0.718979179859161377 -0.0361959412693977356 -0.023837067186832428
-59.5254554748535156 -85.81756591796875 4.9854731559753418 195 1645019972.18704438 0.672943294048309326 -0.73896491527557373 -0.0287334918975830078 -0.0158917456865310669
-59.9109077453613281 -97.2171554565429688 4.03693580627441406 196 1645019974.18937564 0.709065437316894531 -0.703870534896850586 -0.0365287959575653076 -0.0214042793959379196
-57.7006607055664062 -112.0201416015625 2.688018798828125 197 1645019976.29054546 0.803727626800537109 -0.592821776866912842 -0.0482234284281730652 -0.0160861965268850327
-54.7099609375 -119.440948486328125 1.90526294708251953 198 1645019977.2893219 0.839873969554901123 -0.540275871753692627 -0.0502967461943626404 -0.0135604925453662872
-45.1088752746582031 -133.77642822265625 0.656754255294799805 199 1645019979.38885331 0.916141986846923828 -0.398956805467605591 -0.0368911437690258026 -0.01250454131513834
-38.5450515747070312 -140.171096801757812 -0.0793552100658416748 200 1645019980.49052858 0.925836145877838135 -0.375889509916305542 -0.0379006415605545044 -0.00990029238164424896
-34.9436683654785156 -143.659698486328125 -0.453057259321212769 201 1645019981.09020877 0.926047682762145996 -0.37560802698135376 -0.0335095636546611786 -0.015212484635412693
-30.7075614929199219 -147.73602294921875 -0.912195444107055664 202 1645019981.78951216 0.92478567361831665 -0.378232806921005249 -0.0361996181309223175 -0.0200259145349264145
-27.0526752471923828 -151.238052368164062 -1.33484447002410889 203 1645019982.39144802 0.927176058292388916 -0.371729105710983276 -0.03791799396276474 -0.0269112531095743179
-23.3695430755615234 -154.698410034179688 -1.75244438648223877 204 1645019982.98940825 0.929847657680511475 -0.365293145179748535 -0.0368355661630630493 -0.0242357160896062851
-19.6910915374755859 -158.162460327148438 -2.11388325691223145 205 1645019983.58854628 0.928881645202636719 -0.368126451969146729 -0.0329318679869174957 -0.0240268297493457794
-15.9905986785888672 -161.632461547851562 -2.49512052536010742 206 1645019984.18979859 0.929366946220397949 -0.36630171537399292 -0.0373258590698242188 -0.0265870820730924606
-12.2637224197387695 -165.093185424804688 -2.91626834869384766 207 1645019984.79145145 0.926400423049926758 -0.373748183250427246 -0.0424315966665744781 -0.0171485841274261475
-8.61053085327148438 -168.537139892578125 -3.28215551376342773 208 1645019985.38752699 0.928001344203948975 -0.370565414428710938 -0.0366843864321708679 -0.0122059164568781853
-4.90807580947875977 -172.023361206054688 -3.61255550384521484 209 1645019985.99236822 0.929105758666992188 -0.368279159069061279 -0.0322355553507804871 -0.00968850776553153992
-0.70323258638381958 -176.027572631835938 -3.96520280838012695 210 1645019986.68690109 0.928569436073303223 -0.37024766206741333 -0.0226526465266942978 -0.0127405356615781784
2.95096659660339355 -179.47314453125 -4.24425792694091797 211 1645019987.2895124 0.928457081317901611 -0.370437771081924438 -0.0240376032888889313 -0.0128653710708022118
7.15276098251342773 -183.453460693359375 -4.5257411003112793 212 1645019987.99299502 0.929138422012329102 -0.369105815887451172 -0.0189156290143728256 -0.0102432966232299805
11.3003168106079102 -187.38031005859375 -4.72050762176513672 213 1645019988.69121313 0.928757548332214355 -0.369641959667205811 -0.0221711769700050354 -0.0168141685426235199
15.3357124328613281 -191.214096069335938 -4.89850378036499023 214 1645019989.38919353 0.926018297672271729 -0.373962193727493286 -0.039941251277923584 -0.0323585495352745056
19.2273883819580078 -194.910064697265625 -5.02361106872558594 215 1645019990.08803248 0.926453471183776855 -0.376132845878601074 -0.00855079386383295059 -0.0116177825257182121
23.1634559631347656 -198.611557006835938 -5.15759944915771484 216 1645019990.78691339 0.930953145027160645 -0.364892929792404175 -0.00837487634271383286 -0.0104535846039652824
27.4000644683837891 -201.994796752929688 -5.29169225692749023 217 1645019991.49258375 0.94995647668838501 -0.311310708522796631 -0.0252011846750974655 -0.00576121686026453972
31.6686630249023438 -205.0240478515625 -5.33744287490844727 218 1645019992.19094777 0.95325082540512085 -0.30198216438293457 -0.00706878071650862694 0.00834756437689065933
35.9516372680664062 -207.951370239257812 -5.31582164764404297 219 1645019992.88881516 0.959051370620727539 -0.28315010666847229 0.00521008344367146492 0.00439769076183438301
40.5357894897460938 -210.344573974609375 -5.29968595504760742 220 1645019993.59027457 0.977485477924346924 -0.21100027859210968 0.000184644624823704362 -0.000981525518000125885
45.3548851013183594 -212.019088745117188 -5.29056978225708008 221 1645019994.28969407 0.989425182342529297 -0.145020753145217896 0.0020978760439902544 0.00156104716006666422
50.3205413818359375 -213.176971435546875 -5.29720306396484375 222 1645019994.98926163 0.993350625038146973 -0.114732325077056885 -0.00340888788923621178 0.00890853442251682281
55.3110198974609375 -214.124465942382812 -5.29878902435302734 223 1645019995.688344 0.995636403560638428 -0.091838546097278595 -0.00194898142945021391 0.0164331942796707153
60.3719100952148438 -214.848114013671875 -5.30523109436035156 224 1645019996.38845086 0.998012065887451172 -0.0619284138083457947 0.0010791724780574441 0.0116466553881764412
65.4535675048828125 -215.212753295898438 -5.31408309936523438 225 1645019997.08922982 0.999525547027587891 -0.0297582391649484634 0.000433142820838838816 0.00793525762856006622
70.5283355712890625 -215.25103759765625 -5.32015752792358398 226 1645019997.78823709 0.999972164630889893 0.000113231079012621194 -0.00198645005002617836 0.00718738976866006851
75.6029205322265625 -215.117828369140625 -5.30620527267456055 227 1645019998.48888159 0.999892830848693848 0.0136449346318840981 0.00223404844291508198 0.00480829644948244095
80.66351318359375 -214.850433349609375 -5.27344608306884766 228 1645019999.18863273 0.999612927436828613 0.0261535868048667908 0.00405408395454287529 0.00857758987694978714
85.7245407104492188 -214.540191650390625 -5.25839328765869141 229 1645019999.8903563 0.999595820903778076 0.0255735442042350769 0.000643839826807379723 0.012398391030728817
90.7522811889648438 -214.264389038085938 -5.26062154769897461 230 1645020000.58834219 0.999598681926727295 0.023099556565284729 0.00426157284528017044 0.0158331561833620071
95.854461669921875 -214.036285400390625 -5.27684593200683594 231 1645020001.29093504 0.999720394611358643 0.0190032720565795898 -0.00156873930245637894 0.0139853153377771378
100.953956604003906 -213.878662109375 -5.29679679870605469 232 1645020001.99102402 0.999867022037506104 0.0139769213274121284 -0.00122784683480858803 0.00831127818673849106
106.058120727539062 -213.744979858398438 -5.32250118255615234 233 1645020002.69104624 0.999912858009338379 0.00706239743158221245 -0.00126932526472955942 0.0110833803191781044
111.168716430664062 -213.662094116210938 -5.33475780487060547 234 1645020003.39133763 0.999967098236083984 0.00405563646927475929 -0.00496082007884979248 0.00497761601582169533
116.256752014160156 -213.560638427734375 -5.34711456298828125 235 1645020004.09117866 0.999959230422973633 0.00763251911848783493 0.00162871764041483402 0.00454228231683373451
121.337684631347656 -213.21246337890625 -5.36702728271484375 236 1645020004.78806019 0.998976588249206543 0.0450675152242183685 -8.32916384752024896e-07 0.00383720430545508862
126.408378601074219 -212.551803588867188 -5.38871049880981445 237 1645020005.48877168 0.998055398464202881 0.0598115734755992889 -0.00112092937342822552 0.0175138320773839951
131.471221923828125 -212.117034912109375 -5.38285160064697266 238 1645020006.18803596 0.999438464641571045 0.0253183413296937943 0.00225314474664628506 0.0218324363231658936
136.54827880859375 -212.034439086914062 -5.35721921920776367 239 1645020006.88776612 0.999872803688049316 0.000698659627232700586 0.0102298688143491745 0.0122180534526705742
141.633941650390625 -211.899093627929688 -5.32215166091918945 240 1645020007.58623171 0.999838829040527344 0.0159041173756122589 -0.00230689952149987221 0.00800378154963254929
146.664596557617188 -211.572021484375 -5.31638097763061523 241 1645020008.28740931 0.999555587768554688 0.0257733575999736786 0.00239353696815669537 0.0147848520427942276
151.689910888671875 -211.364974975585938 -5.26164579391479492 242 1645020008.9868288 0.999760031700134277 0.0118297766894102097 0.00661139609292149544 0.01721184141933918
156.721817016601562 -211.295028686523438 -5.19501304626464844 243 1645020009.68881392 0.999844670295715332 0.00258268555626273155 0.00921648088842630386 0.014797392301261425
161.723800659179688 -211.28375244140625 -5.12823295593261719 244 1645020010.38796425 0.999834239482879639 -0.00388954486697912216 0.00967289227992296219 0.0149276396259665489
167.41717529296875 -211.305709838867188 -5.00663614273071289 245 1645020011.18772411 0.999853968620300293 -0.00356914266012609005 0.0147037869319319725 0.00794521719217300415
173.062728881835938 -211.124282836914062 -4.86382198333740234 246 1645020011.98559809 0.999542474746704102 0.0244229454547166824 0.0169557575136423111 0.00555269606411457062
178.64178466796875 -210.634552001953125 -4.69653654098510742 247 1645020012.78681922 0.998876035213470459 0.0445452667772769928 0.0143688991665840149 0.00747946230694651604
184.204498291015625 -210.056625366210938 -4.53504276275634766 248 1645020013.58650208 0.99898684024810791 0.0411942265927791595 0.0145977502688765526 0.0107350992038846016
189.774093627929688 -209.58575439453125 -4.37915706634521484 249 1645020014.3864193 0.999221622943878174 0.0359982401132583618 0.0141530372202396393 0.00774220982566475868
195.30322265625 -209.033065795898438 -4.20037603378295898 250 1645020015.1865766 0.998208105564117432 0.0565621741116046906 0.0194941405206918716 0.00111720385029911995
200.758132934570312 -208.03338623046875 -4.0247492790222168 251 1645020015.98646808 0.994629263877868652 0.0998675078153610229 0.0264747701585292816 0.00617951666936278343
206.162857055664062 -206.52032470703125 -3.90099930763244629 252 1645020016.79025984 0.989671051502227783 0.142125383019447327 0.0175927486270666122 0.00649132765829563141
211.461227416992188 -204.7764892578125 -3.76263523101806641 253 1645020017.58725619 0.989377319812774658 0.143941208720207214 0.0148966182023286819 0.0138376364484429359
216.80303955078125 -203.231796264648438 -3.59111332893371582 254 1645020018.38780355 0.99094998836517334 0.130885124206542969 0.0238089375197887421 0.017896873876452446
222.225250244140625 -201.860504150390625 -3.42871809005737305 255 1645020019.18846726 0.991971254348754883 0.125621050596237183 0.0130087947472929955 0.00656736921519041061
227.592193603515625 -200.580841064453125 -3.26314520835876465 256 1645020019.98747945 0.993908584117889404 0.10836484283208847 0.0194360185414552689 0.0050004962831735611
233.006393432617188 -199.349365234375 -3.08581852912902832 257 1645020020.78934717 0.994040191173553467 0.107366077601909637 0.0183251369744539261 0.00455855345353484154
238.411102294921875 -198.15655517578125 -2.91454362869262695 258 1645020021.58792305 0.994727611541748047 0.101464048027992249 0.0139446621760725975 0.00525098992511630058
243.793731689453125 -197.031204223632812 -2.74808192253112793 259 1645020022.38796115 0.994729936122894287 0.0976983979344367981 0.0302220378071069717 0.00734554929658770561
249.252349853515625 -195.943084716796875 -2.5966944694519043 260 1645020023.19143701 0.994326293468475342 0.102968730032444 0.020153924822807312 0.0175067540258169174
254.601593017578125 -195.232666015625 -2.40779972076416016 261 1645020023.98903441 0.998175919055938721 0.0567892640829086304 0.0195375196635723114 0.00617688940837979317
259.942413330078125 -194.464584350585938 -2.20646262168884277 262 1645020024.78872347 0.996887743473052979 0.0747029110789299011 0.0243666619062423706 0.0063731735572218895
265.307861328125 -193.529464721679688 -2.0120091438293457 263 1645020025.58823776 0.995577573776245117 0.0903557315468788147 0.0241863448172807693 0.00872835982590913773
270.68731689453125 -192.446044921875 -1.85450196266174316 264 1645020026.38851666 0.994245469570159912 0.105827078223228455 0.0160692073404788971 0.00428109429776668549
276.024017333984375 -191.116363525390625 -1.68881869316101074 265 1645020027.1891849 0.991934001445770264 0.123975157737731934 0.0220092311501502991 0.0145829971879720688
281.3231201171875 -189.683547973632812 -1.48958218097686768 266 1645020027.98812485 0.990082383155822754 0.139166951179504395 0.01917264424264431 0.00137100787833333015
286.58428955078125 -188.008880615234375 -1.32560348510742188 267 1645020028.78942871 0.987261772155761719 0.157722786068916321 0.0206926893442869186 0.0030938189011067152
291.786163330078125 -186.14691162109375 -1.14672255516052246 268 1645020029.59032345 0.984391272068023682 0.175083175301551819 0.0173221323639154434 0.00442697620019316673
296.904815673828125 -184.08917236328125 -0.975569248199462891 269 1645020030.39103913 0.981801629066467285 0.188854783773422241 0.0178785789757966995 0.00893341004848480225
301.862701416015625 -181.8717041015625 -0.779364645481109619 270 1645020031.19028926 0.977247476577758789 0.210502550005912781 0.0243292320519685745 0.00917411409318447113
306.704833984375 -179.542587280273438 -0.533670246601104736 271 1645020031.98938394 0.97425466775894165 0.222652450203895569 0.0331310927867889404 0.0124914404004812241
311.480560302734375 -177.136795043945312 -0.241662099957466125 272 1645020032.78998041 0.971946656703948975 0.232794791460037231 0.0333153903484344482 0.0040462864562869072
316.08258056640625 -174.64471435546875 0.0431467145681381226 273 1645020033.5889709 0.967906534671783447 0.249448776245117188 0.029492940753698349 0.00790296029299497604
320.58203125 -171.846420288085938 0.323376208543777466 274 1645020034.49046636 0.952738165855407715 0.302757561206817627 0.0250394511967897415 -0.00095624173991382122
323.21588134765625 -168.648788452148438 0.520908355712890625 275 1645020035.29038286 0.876867890357971191 0.480251342058181763 0.0196230337023735046 -0.00873610936105251312
324.02734375 -165.63031005859375 0.633829355239868164 276 1645020035.89403915 0.773754537105560303 0.633015334606170654 0.0196904521435499191 -0.0144157158210873604
323.69732666015625 -162.339752197265625 1.03231632709503174 277 1645020036.59114146 0.618880808353424072 0.783432304859161377 0.0310877878218889236 -0.0474758036434650421
321.33160400390625 -157.779052734375 1.6972421407699585 278 1645020037.79323196 0.504240989685058594 0.860794425010681152 0.0483614616096019745 -0.0493467077612876892
318.64276123046875 -153.200851440429688 2.30612492561340332 279 1645020039.09230518 0.489460647106170654 0.870247304439544678 0.0319958142936229706 -0.0455427654087543488
315.425079345703125 -149.072601318359375 2.87171244621276855 280 1645020040.39296174 0.418348550796508789 0.906325042247772217 0.0395358055830001831 -0.0446800775825977325
311.606048583984375 -145.622055053710938 3.43345904350280762 281 1645020041.69196367 0.338693022727966309 0.938989162445068359 0.0323238857090473175 -0.0504136942327022552
307.342254638671875 -142.576522827148438 3.95174431800842285 282 1645020042.99221015 0.29669150710105896 0.953722059726715088 0.0251536332070827484 -0.0419010929763317108
303.030548095703125 -139.988265991210938 4.40429258346557617 283 1645020044.1943748 0.261971712112426758 0.963784694671630859 0.024823162704706192 -0.0432860590517520905
298.32977294921875 -137.656204223632812 4.8443145751953125 284 1645020045.39725709 0.226196542382240295 0.972733676433563232 0.0325351394712924957 -0.0395702943205833435
293.49310302734375 -135.137832641601562 5.2592473030090332 285 1645020046.59443116 0.251552373170852661 0.966981112957000732 0.0265854671597480774 -0.0310190040618181229
288.916107177734375 -132.543716430664062 5.57231998443603516 286 1645020047.69359851 0.247804999351501465 0.968380928039550781 0.0188352074474096298 -0.0218246523290872574
284.282623291015625 -130.019882202148438 5.76270627975463867 287 1645020048.89849806 0.266780227422714233 0.963173329830169678 0.0312397461384534836 -0.0122284954413771629
279.906463623046875 -126.978889465332031 5.95108604431152344 288 1645020050.09555769 0.309104174375534058 0.950858056545257568 0.00994567852467298508 -0.0149881178513169289
275.76080322265625 -124.106025695800781 6.0464930534362793 289 1645020051.09704781 0.285281002521514893 0.958341002464294434 -0.00787620898336172104 -0.011630592867732048
271.080108642578125 -121.117584228515625 6.1104731559753418 290 1645020052.09673834 0.28180268406867981 0.959403276443481445 -0.00763416523113846779 -0.00861931033432483673
266.63800048828125 -118.067314147949219 6.14883136749267578 291 1645020052.99923921 0.307480871677398682 0.951474189758300781 -0.00457733636721968651 -0.0114632658660411835
262.65606689453125 -114.968170166015625 6.20187616348266602 292 1645020053.79349303 0.33049127459526062 0.943707764148712158 -0.00846084114164113998 -0.0109360069036483765
258.661865234375 -111.403984069824219 6.21359062194824219 293 1645020054.59909797 0.368373662233352661 0.929581522941589355 -0.0104963555932044983 -0.0082986876368522644
254.797470092773438 -107.499221801757812 6.21871662139892578 294 1645020055.39343214 0.395933002233505249 0.918174624443054199 -0.011592373251914978 -0.00761639419943094254
250.957794189453125 -103.359954833984375 6.23887729644775391 295 1645020056.19507074 0.40494459867477417 0.914277374744415283 -0.00619488907977938652 -0.0088518485426902771
