# .PCD v0.7 - Point Cloud Data file format
VERSION 0.7
FIELDS x y z intensity t qx qy qz qw
SIZE 4 4 4 4 8 4 4 4 4
TYPE F F F F F F F F F
COUNT 1 1 1 1 1 1 1 1 1
WIDTH 279
HEIGHT 1
VIEWPOINT 0 0 0 1 0 0 0
POINTS 279
DATA ascii
152.212356567382812 108.039825439453125 -56.6153373718261719 74 1645008824.55379868 0.675105392932891846 0.725502967834472656 -0.110724650323390961 -0.0749549493193626404
151.784149169921875 113.313621520996094 -56.7727088928222656 75 1645008825.14880037 0.67607879638671875 0.724287509918212891 -0.111465729773044586 -0.0768142640590667725
151.37335205078125 118.5650634765625 -56.8975601196289062 76 1645008825.75229216 0.676550626754760742 0.724016785621643066 -0.106096848845481873 -0.0825978443026542664
151.01373291015625 123.71636962890625 -56.9655418395996094 77 1645008826.35018253 0.676911234855651855 0.722778677940368652 -0.107517555356025696 -0.0884431824088096619
150.677078247070312 129.298126220703125 -56.8465576171875 78 1645008827.05111051 0.677039802074432373 0.721081972122192383 -0.0795107707381248474 -0.123838327825069427
150.226211547851562 134.8377685546875 -56.9397315979003906 79 1645008827.75384998 0.674118399620056152 0.724583268165588379 -0.0994026586413383484 -0.103259682655334473
149.822555541992188 140.175552368164062 -56.9231948852539062 80 1645008828.44740915 0.677035510540008545 0.723001360893249512 -0.0985208526253700256 -0.095841534435749054
149.41107177734375 145.399826049804688 -56.8692169189453125 81 1645008829.15150237 0.67016136646270752 0.73008120059967041 -0.0958172976970672607 -0.0931892246007919312
148.560089111328125 150.39501953125 -56.6544151306152344 82 1645008829.85088849 0.634534597396850586 0.761616170406341553 -0.0814574360847473145 -0.10330229252576828
147.389266967773438 155.88018798828125 -56.2659797668457031 83 1645008830.64795899 0.621347725391387939 0.773356497287750244 -0.0686866492033004761 -0.105493128299713135
146.061447143554688 161.146896362304688 -55.7810554504394531 84 1645008831.44741225 0.598202526569366455 0.791228294372558594 -0.0688687488436698914 -0.10662369430065155
144.40557861328125 166.162185668945312 -55.1826057434082031 85 1645008832.24631786 0.555197656154632568 0.820085406303405762 -0.068525753915309906 -0.120497830212116241
141.7498779296875 170.982681274414062 -54.3345451354980469 86 1645008833.04591513 0.472310394048690796 0.870782196521759033 -0.0546312779188156128 -0.125206634402275085
138.731048583984375 174.933837890625 -53.4089431762695312 87 1645008833.74848223 0.434267818927764893 0.892281115055084229 -0.038699023425579071 -0.117252804338932037
135.46221923828125 178.819427490234375 -52.4277420043945312 88 1645008834.44648361 0.403209030628204346 0.90587913990020752 -0.0325133875012397766 -0.125492587685585022
131.863723754882812 182.552032470703125 -51.3300819396972656 89 1645008835.14535427 0.372930765151977539 0.918432116508483887 -0.0352496616542339325 -0.127132013440132141
128.033798217773438 186.122772216796875 -50.1699905395507812 90 1645008835.84675002 0.354142814874649048 0.925951182842254639 -0.0305156540125608444 -0.127538591623306274
124.191230773925781 189.603134155273438 -48.9798202514648438 91 1645008836.54580712 0.349672406911849976 0.926843881607055664 -0.032816816121339798 -0.13271293044090271
120.332283020019531 193.011489868164062 -47.7642478942871094 92 1645008837.24605823 0.348693907260894775 0.927205502986907959 -0.0304577331990003586 -0.133322238922119141
116.569580078125 196.244552612304688 -46.5898704528808594 93 1645008837.94638586 0.33878636360168457 0.931756079196929932 -0.0241067744791507721 -0.128348439931869507
112.516334533691406 199.7752685546875 -45.3368644714355469 94 1645008838.74622297 0.349261283874511719 0.927537858486175537 -0.0223690159618854523 -0.131109505891799927
108.765762329101562 203.310470581054688 -44.1709213256835938 95 1645008839.54755783 0.365250170230865479 0.921853601932525635 -0.0273343417793512344 -0.126613825559616089
105.091361999511719 206.969970703125 -43.0018539428710938 96 1645008840.34542704 0.368714779615402222 0.919262409210205078 -0.0349347665905952454 -0.133362829685211182
101.056922912597656 210.694671630859375 -41.7476234436035156 97 1645008841.14508033 0.348459243774414062 0.9268912672996521 -0.0325715802609920502 -0.135601550340652466
97.2926864624023438 213.999908447265625 -40.574951171875 98 1645008841.84585667 0.343644559383392334 0.929479539394378662 -0.0294039137661457062 -0.130811557173728943
93.4599075317382812 217.414230346679688 -39.3599967956542969 99 1645008842.54512286 0.349823057651519775 0.926810979843139648 -0.0311935637146234512 -0.132936686277389526
89.6317977905273438 220.904800415039062 -38.1436271667480469 100 1645008843.24569821 0.356907814741134644 0.923997938632965088 -0.0301497448235750198 -0.133924081921577454
85.7970504760742188 224.457626342773438 -36.896240234375 101 1645008843.94651818 0.36012837290763855 0.922410964965820312 -0.0256869308650493622 -0.137134015560150146
81.9708709716796875 228.018203735351562 -35.630523681640625 102 1645008844.64585853 0.357223808765411377 0.924026191234588623 -0.0214004162698984146 -0.134568661451339722
78.1736679077148438 231.56005859375 -34.3253059387207031 103 1645008845.34625506 0.356825262308120728 0.92179340124130249 -0.0193895883858203888 -0.150321885943412781
74.345794677734375 235.095901489257812 -33.0546035766601562 104 1645008846.0474689 0.356798350811004639 0.923215150833129883 -0.0187161341309547424 -0.141486436128616333
70.5707473754882812 238.582992553710938 -31.7678184509277344 105 1645008846.74648857 0.358698487281799316 0.922409772872924805 -0.018370896577835083 -0.141979187726974487
66.7765274047851562 242.037429809570312 -30.4338054656982422 106 1645008847.44861913 0.351303756237030029 0.925100445747375488 -0.0185393113642930984 -0.142937600612640381
62.9885787963867188 245.467132568359375 -29.0940284729003906 107 1645008848.14843249 0.34886014461517334 0.925781130790710449 -0.018612956628203392 -0.144497275352478027
59.2121963500976562 248.898468017578125 -27.7196617126464844 108 1645008848.84934068 0.352879583835601807 0.923433363437652588 -0.0201478749513626099 -0.149468719959259033
55.4838180541992188 252.30645751953125 -26.3205661773681641 109 1645008849.54773331 0.350816279649734497 0.92375636100769043 -0.0213415827602148056 -0.152140408754348755
51.7786140441894531 255.676681518554688 -24.9066085815429688 110 1645008850.24828529 0.351934194564819336 0.922271609306335449 -0.0186429154127836227 -0.158776089549064636
48.1000785827636719 259.006500244140625 -23.4880580902099609 111 1645008850.95101118 0.348520874977111816 0.924174249172210693 -0.0154739702120423317 -0.155549541115760803
44.4350967407226562 262.332977294921875 -22.0636539459228516 112 1645008851.65042639 0.347573250532150269 0.924288034439086914 -0.0193638596683740616 -0.156555265188217163
40.7315292358398438 265.584564208984375 -20.6318016052246094 113 1645008852.34746623 0.332777202129364014 0.928887724876403809 -0.0218971967697143555 -0.161082178354263306
36.871917724609375 268.712005615234375 -19.1242694854736328 114 1645008853.0518415 0.327700644731521606 0.930563390254974365 -0.0184400323778390884 -0.162246927618980408
33.0608711242675781 271.779998779296875 -17.6495800018310547 115 1645008853.74626493 0.304060429334640503 0.938461005687713623 -0.023807138204574585 -0.162084653973579407
28.9493923187255859 274.409637451171875 -16.1091861724853516 116 1645008854.44671202 0.258533656597137451 0.951719880104064941 -0.0114002740010619164 -0.165105044841766357
24.6438770294189453 276.656341552734375 -14.5358648300170898 117 1645008855.14688754 0.219281598925590515 0.96157306432723999 -0.00763394869863986969 -0.165029078722000122
20.1994190216064453 278.70361328125 -12.9120292663574219 118 1645008855.84750104 0.200399860739707947 0.965125799179077148 0.000609295384492725134 -0.168438941240310669
15.8157367706298828 280.712066650390625 -11.2942399978637695 119 1645008856.54667473 0.214031621813774109 0.960762858390808105 0.0105786733329296112 -0.176106050610542297
11.4723062515258789 282.957275390625 -9.69956016540527344 120 1645008857.24806857 0.249297872185707092 0.954200506210327148 0.015066368505358696 -0.164696574211120605
7.36845970153808594 285.519439697265625 -8.11733150482177734 121 1645008857.94491148 0.265941888093948364 0.949179768562316895 0.00389982806518673897 -0.168278098106384277
3.32355546951293945 288.218658447265625 -6.53987693786621094 122 1645008858.64519954 0.285456329584121704 0.943596899509429932 -0.00422131503000855446 -0.167695581912994385
-0.653267979621887207 291.003509521484375 -4.99528646469116211 123 1645008859.34472108 0.287956476211547852 0.943522632122039795 -0.00972188357263803482 -0.163559049367904663
-4.65576553344726562 293.67913818359375 -3.42537593841552734 124 1645008860.04584527 0.281684577465057373 0.94121706485748291 0.005059004295617342 -0.186383098363876343
-8.73709583282470703 296.32769775390625 -1.81898903846740723 125 1645008860.75105977 0.279049515724182129 0.944228172302246094 -0.00972078833729028702 -0.174556702375411987
-12.6934385299682617 299.104522705078125 -0.243087396025657654 126 1645008861.44502187 0.29927295446395874 0.939359903335571289 -0.0119687812402844429 -0.167019039392471313
-16.5956821441650391 301.96893310546875 1.35682010650634766 127 1645008862.1452899 0.302882552146911621 0.93852996826171875 -0.00796265527606010437 -0.16540941596031189
-20.5029716491699219 304.816314697265625 2.94582319259643555 128 1645008862.84606552 0.293159335851669312 0.940287292003631592 -0.00801558326929807663 -0.172780811786651611
-24.5468215942382812 307.47760009765625 4.54125738143920898 129 1645008863.54545498 0.267521888017654419 0.948745787143707275 -0.0145048350095748901 -0.16763991117477417
-28.7841567993164062 309.844696044921875 6.18732070922851562 130 1645008864.24453688 0.238717526197433472 0.955586373805999756 -0.00149149424396455288 -0.172818824648857117
-33.0394401550292969 312.058563232421875 7.89644479751586914 131 1645008864.94537568 0.218439310789108276 0.96004784107208252 -0.0108447764068841934 -0.174570202827453613
-37.4242095947265625 314.069488525390625 9.57328033447265625 132 1645008865.64442992 0.203788742423057556 0.963453888893127441 0.00158429064322263002 -0.173851117491722107
-41.8261489868164062 315.994537353515625 11.2808904647827148 133 1645008866.34440207 0.196092501282691956 0.964088499546051025 -0.000891975709237158298 -0.179109811782836914
-46.28924560546875 317.84454345703125 12.9782495498657227 134 1645008867.04472899 0.198301136493682861 0.964857041835784912 0.0104643842205405235 -0.172098889946937561
-50.7288818359375 319.629547119140625 14.7178077697753906 135 1645008867.74709535 0.19171491265296936 0.964667677879333496 0.0274406783282756805 -0.178629875183105469
-55.0991783142089844 321.4693603515625 16.4822349548339844 136 1645008868.44533992 0.190162345767021179 0.965062320232391357 0.0147968996316194534 -0.17964974045753479
-59.9220695495605469 323.453155517578125 18.5115108489990234 137 1645008869.24509645 0.190564751625061035 0.964310050010681152 0.0188698507845401764 -0.182852655649185181
-64.7775650024414062 325.301849365234375 20.5567512512207031 138 1645008870.14634252 0.16463218629360199 0.968805909156799316 0.0174668077379465103 -0.184407815337181091
-69.5859909057617188 326.454742431640625 22.5218143463134766 139 1645008871.14759374 0.0900011807680130005 0.978615760803222656 0.0278881099075078964 -0.182847514748573303
-74.2951202392578125 326.108551025390625 24.3318691253662109 140 1645008872.14589357 -0.0900164768099784851 0.978037536144256592 0.0448797866702079773 -0.182552546262741089
-76.9853057861328125 324.645233154296875 25.2702865600585938 141 1645008872.74905252 -0.261817187070846558 0.947528243064880371 0.0628513619303703308 -0.172312617301940918
-79.0268783569335938 322.1954345703125 26.2007694244384766 142 1645008873.44879365 -0.440630227327346802 0.877993941307067871 0.0687432661652565002 -0.173913881182670593
-80.7055816650390625 317.284881591796875 27.1870613098144531 143 1645008874.7459662 -0.596689999103546143 0.779637634754180908 0.0870483443140983582 -0.168963849544525146
-81.6139144897460938 312.193115234375 27.8061237335205078 144 1645008876.0454669 -0.626157939434051514 0.758534848690032959 0.0949291735887527466 -0.153425887227058411
-81.9198226928710938 306.90362548828125 28.2077732086181641 145 1645008877.34756231 -0.690664052963256836 0.700563788414001465 0.103151880204677582 -0.146810337901115417
-81.2623519897460938 301.53338623046875 28.2943592071533203 146 1645008878.6473527 -0.74650949239730835 0.641580462455749512 0.110512562096118927 -0.137422740459442139
-80.1680755615234375 296.568359375 28.1736431121826172 147 1645008879.84689426 -0.779782533645629883 0.604246258735656738 0.112213164567947388 -0.119305841624736786
-78.5126876831054688 291.5091552734375 27.8297481536865234 148 1645008881.04772949 -0.805107831954956055 0.571089684963226318 0.118214108049869537 -0.108089305460453033
-76.763824462890625 286.750762939453125 27.4335880279541016 149 1645008882.14703298 -0.80875474214553833 0.564101576805114746 0.119547039270401001 -0.115817412734031677
-75.2895660400390625 281.670013427734375 27.1193275451660156 150 1645008883.24829817 -0.785850822925567627 0.595130681991577148 0.118860773742198944 -0.1188698410987854
-73.8250961303710938 276.889007568359375 26.7058773040771484 151 1645008884.24888587 -0.801582932472229004 0.574861347675323486 0.132655829191207886 -0.09696207195520401
-72.1946182250976562 272.1678466796875 26.1325778961181641 152 1645008885.44953394 -0.785017490386962891 0.596498489379882812 0.131024003028869629 -0.103777766227722168
-71.3127670288085938 267.064697265625 25.8154659271240234 153 1645008886.65022612 -0.75832664966583252 0.633887767791748047 0.113896384835243225 -0.100769825279712677
-70.4066848754882812 262.16485595703125 25.3952217102050781 154 1645008887.64885497 -0.771668612957000732 0.618285298347473145 0.12207377701997757 -0.0857255309820175171
-69.0110549926757812 256.835296630859375 24.7688579559326172 155 1645008888.65044165 -0.789846718311309814 0.595863759517669678 0.12554466724395752 -0.0729864761233329773
-67.7716293334960938 251.591629028320312 24.1527919769287109 156 1645008889.54913282 -0.773899197578430176 0.615170836448669434 0.123776525259017944 -0.085581555962562561
-66.9266357421875 246.535888671875 23.7282142639160156 157 1645008890.34870672 -0.747079670429229736 0.646825432777404785 0.120887324213981628 -0.0942078977823257446
-66.6043853759765625 241.154632568359375 23.4042377471923828 158 1645008891.14996338 -0.712576627731323242 0.6849709153175354 0.120745092630386353 -0.0920325517654418945
-66.7211532592773438 235.516006469726562 23.2048206329345703 159 1645008891.94507837 -0.691750049591064453 0.707603096961975098 0.114190883934497833 -0.0879781469702720642
-66.9800491333007812 230.360061645507812 23.0975246429443359 160 1645008892.64950681 -0.677457153797149658 0.719827175140380859 0.113806769251823425 -0.0997427403926849365
-67.4155197143554688 225.179550170898438 23.0509834289550781 161 1645008893.34789777 -0.663265764713287354 0.734090805053710938 0.107325166463851929 -0.0983386114239692688
-68.0288162231445312 219.9517822265625 23.0389003753662109 162 1645008894.04474902 -0.642037808895111084 0.748477041721343994 0.118990503251552582 -0.115805111825466156
-69.1126861572265625 214.8304443359375 23.2114219665527344 163 1645008894.74427247 -0.598439931869506836 0.784198522567749023 0.117782667279243469 -0.11414702981710434
-71.1340560913085938 209.646499633789062 23.7359695434570312 164 1645008895.55000114 -0.529637813568115234 0.834026157855987549 0.0976369902491569519 -0.119796328246593475
-73.5282669067382812 205.042373657226562 24.3743057250976562 165 1645008896.343822 -0.497367799282073975 0.854456782341003418 0.0882003903388977051 -0.121447853744029999
-76.365997314453125 200.257766723632812 25.1592655181884766 166 1645008897.24594355 -0.470276415348052979 0.868991434574127197 0.0836437717080116272 -0.129219740629196167
-79.3081588745117188 195.905380249023438 25.9901561737060547 167 1645008898.14341617 -0.44479680061340332 0.882453978061676025 0.0800099968910217285 -0.130495786666870117
-82.5255584716796875 191.591323852539062 26.9305152893066406 168 1645008899.14272809 -0.429198384284973145 0.889568150043487549 0.0756781026721000671 -0.136857867240905762
-85.5327682495117188 187.65277099609375 27.8314933776855469 169 1645008900.14366388 -0.430397838354110718 0.889887750148773193 0.0730927437543869019 -0.132343888282775879
-88.0630569458007812 183.22711181640625 28.5838069915771484 170 1645008901.4441874 -0.505960702896118164 0.848226785659790039 0.0884529799222946167 -0.129194393754005432
-90.103057861328125 178.31488037109375 29.1419639587402344 171 1645008902.94483733 -0.554113209247589111 0.818401873111724854 0.102359779179096222 -0.112691298127174377
-90.1428146362304688 173.26806640625 29.0654106140136719 172 1645008904.44681311 -0.736449301242828369 0.659131646156311035 0.120367549359798431 -0.0932711884379386902
-88.4350967407226562 168.447601318359375 28.3343582153320312 173 1645008905.64585924 -0.815194487571716309 0.550691008567810059 0.151892334222793579 -0.0955301523208618164
-86.705963134765625 163.421066284179688 27.6064338684082031 174 1645008906.84440517 -0.799812495708465576 0.576732337474822998 0.13864484429359436 -0.0919640809297561646
-85.3056182861328125 158.161880493164062 26.9840583801269531 175 1645008907.94328713 -0.777905046939849854 0.604206621646881104 0.141657501459121704 -0.0986470580101013184
-84.3013763427734375 153.071792602539062 26.5020771026611328 176 1645008908.94315982 -0.760777473449707031 0.627275824546813965 0.137517631053924561 -0.0939763113856315613
-83.36541748046875 147.914901733398438 26.0574932098388672 177 1645008909.94256806 -0.750083565711975098 0.634362161159515381 0.149517998099327087 -0.112265989184379578
-82.5047149658203125 142.725936889648438 25.6284866333007812 178 1645008910.94311404 -0.749538898468017578 0.635874271392822266 0.146545156836509705 -0.111264787614345551
-81.6812591552734375 137.373870849609375 25.2918777465820312 179 1645008911.94270873 -0.749191641807556152 0.636718094348907471 0.136526241898536682 -0.12108892947435379
-80.7843856811523438 132.212112426757812 24.9534587860107422 180 1645008912.8425107 -0.747987329959869385 0.635217547416687012 0.141142785549163818 -0.130737796425819397
-80.0943527221679688 127.0687255859375 24.6767482757568359 181 1645008913.7436223 -0.723651111125946045 0.662516891956329346 0.143030866980552673 -0.130163773894309998
-79.8053665161132812 121.580718994140625 24.4796733856201172 182 1645008914.74295688 -0.711259603500366211 0.67533564567565918 0.148312166333198547 -0.126629769802093506
-79.7061386108398438 116.240608215332031 24.3449859619140625 183 1645008915.64327168 -0.700848758220672607 0.690821826457977295 0.132843047380447388 -0.118020832538604736
-79.6420974731445312 110.949417114257812 24.3632678985595703 184 1645008916.54297042 -0.70158231258392334 0.692017257213592529 0.113372437655925751 -0.126653328537940979
-79.4943923950195312 105.807533264160156 24.3585262298583984 185 1645008917.44350576 -0.708198845386505127 0.684301614761352539 0.116300225257873535 -0.12907351553440094
-79.21783447265625 100.578514099121094 24.3333072662353516 186 1645008918.3425312 -0.715749979019165039 0.674775838851928711 0.121240764856338501 -0.132967069745063782
-78.9416351318359375 95.5313568115234375 24.3355846405029297 187 1645008919.24293303 -0.712836563587188721 0.68001323938369751 0.118191510438919067 -0.124405860900878906
-78.5681304931640625 90.1271286010742188 24.3603439331054688 188 1645008920.24235439 -0.711771368980407715 0.679534733295440674 0.12731403112411499 -0.124117404222488403
-78.3007354736328125 84.8851547241210938 24.3839626312255859 189 1645008921.34274912 -0.709086298942565918 0.683938980102539062 0.113907001912593842 -0.128254786133766174
-78.2660598754882812 79.8569107055664062 24.4952735900878906 190 1645008922.44172597 -0.688899874687194824 0.704297006130218506 0.11417233943939209 -0.127856865525245667
-78.4499053955078125 74.6672439575195312 24.7144584655761719 191 1645008923.64268708 -0.679639935493469238 0.714877963066101074 0.101131938397884369 -0.129658788442611694
-78.3710784912109375 69.3119354248046875 24.8283863067626953 192 1645008924.84121943 -0.712072491645812988 0.682555317878723145 0.107205525040626526 -0.124811738729476929
-78.0725173950195312 64.0675048828125 24.7409477233886719 193 1645008926.04227495 -0.713463664054870605 0.684074223041534424 0.115522012114524841 -0.0983195081353187561
-77.6057052612304688 58.9389152526855469 24.3856105804443359 194 1645008927.34293461 -0.734930634498596191 0.652008354663848877 0.154946297407150269 -0.103700146079063416
-76.3243942260742188 56.0423545837402344 23.8079700469970703 195 1645008928.24385858 -0.84738922119140625 0.49598240852355957 0.17013251781463623 -0.0835935622453689575
-74.4979400634765625 54.516082763671875 23.0422744750976562 196 1645008928.94406939 -0.928956389427185059 0.318985670804977417 0.181669846177101135 -0.0477935895323753357
-71.9215164184570312 53.7338371276855469 21.9101047515869141 197 1645008929.64295864 -0.97103506326675415 0.129431471228599548 0.200559794902801514 -0.0106872152537107468
-67.1455078125 53.8298683166503906 19.8731689453125 198 1645008930.64467454 -0.979990124702453613 -0.0194586608558893204 0.198091581463813782 -0.000648777815513312817
-62.0518836975097656 54.0887527465820312 17.7462234497070312 199 1645008931.6446867 -0.980286717414855957 -0.00788945890963077545 0.1971711665391922 -0.0099618230015039444
-57.2487754821777344 53.9035797119140625 15.764256477355957 200 1645008932.54526043 -0.97981727123260498 0.0214864332228899002 0.198614686727523804 -0.00697896303609013557
-52.2259864807128906 53.8023338317871094 13.7183046340942383 201 1645008933.44458461 -0.981155335903167725 0.00749234156683087349 0.193065300583839417 -0.0019745691679418087
-47.4050216674804688 53.8235359191894531 11.7297191619873047 202 1645008934.24563336 -0.980418026447296143 -0.00218894192948937416 0.196914151310920715 -0.000726764148566871881
-42.3828201293945312 54.0025291442871094 9.66438961029052734 203 1645008935.04687905 -0.980594754219055176 -0.0141598302870988846 0.195520773530006409 -0.00223792530596256256
-37.2220420837402344 54.2765579223632812 7.55228614807128906 204 1645008935.84552765 -0.980806827545166016 -0.0223139580339193344 0.193612873554229736 -0.00584113970398902893
-32.5698776245117188 54.5234642028808594 5.67922639846801758 205 1645008936.54729772 -0.981917023658752441 -0.0217827651649713516 0.187950015068054199 -0.00626719556748867035
-27.8497180938720703 54.7099647521972656 3.84163284301757812 206 1645008937.24666667 -0.981825172901153564 -0.0136409560218453407 0.189224272966384888 -0.00523509271442890167
-22.5025386810302734 54.6890449523925781 1.79137909412384033 207 1645008938.04808235 -0.982068896293640137 0.00955515354871749878 0.188249886035919189 -0.00337919476442039013
-17.508270263671875 54.5549850463867188 -0.102356262505054474 208 1645008938.84368086 -0.983102500438690186 0.0124595342203974724 0.182630822062492371 0.0004946140106767416
-12.3198318481445312 54.4048576354980469 -2.07241606712341309 209 1645008939.74442124 -0.982308864593505859 0.0144464746117591858 0.186690300703048706 0.00271048163995146751
-7.35720491409301758 55.2760047912597656 -3.98568153381347656 210 1645008940.749228 -0.968376398086547852 -0.152655258774757385 0.191274091601371765 0.0485570132732391357
-4.48528623580932617 57.5151596069335938 -5.13732051849365234 211 1645008941.54715014 -0.924676060676574707 -0.324819505214691162 0.185895070433616638 0.0700678378343582153
-3.19263219833374023 59.5943031311035156 -5.656951904296875 212 1645008942.14495158 -0.848348855972290039 -0.486532330513000488 0.182045981287956238 0.102224104106426239
-3.03249406814575195 61.5164260864257812 -5.78707170486450195 213 1645008942.64531183 -0.740338981151580811 -0.638974547386169434 0.175244793295860291 0.113573387265205383
-3.72741794586181641 64.0606689453125 -5.67686843872070312 214 1645008943.34371543 -0.605498969554901123 -0.771326422691345215 0.14861375093460083 0.127830132842063904
-5.79796934127807617 68.9798736572265625 -5.20862770080566406 215 1645008944.44353557 -0.53777158260345459 -0.825590252876281738 0.114749826490879059 0.126629084348678589
-7.68182563781738281 73.9825057983398438 -4.7634577751159668 216 1645008945.34447742 -0.580156445503234863 -0.799136638641357422 0.101730041205883026 0.120208762586116791
-8.67362117767333984 79.3047943115234375 -4.59749984741210938 217 1645008946.14696574 -0.654405772686004639 -0.739997565746307373 0.11156231164932251 0.108215302228927612
-8.71154212951660156 84.3179473876953125 -4.71220684051513672 218 1645008946.84512949 -0.718051493167877197 -0.678593218326568604 0.120111897587776184 0.0973984375596046448
-7.74196577072143555 89.9084548950195312 -5.16156435012817383 219 1645008947.64498687 -0.773098111152648926 -0.612744808197021484 0.135722324252128601 0.0918833091855049133
-5.9940485954284668 95.1872177124023438 -5.83910846710205078 220 1645008948.44563127 -0.82086944580078125 -0.54737389087677002 0.139959812164306641 0.0834652110934257507
-3.34746575355529785 99.8562469482421875 -6.76634693145751953 221 1645008949.24642324 -0.876968204975128174 -0.451163679361343384 0.148468673229217529 0.0730423852801322937
0.326925903558731079 103.557685852050781 -8.06291103363037109 222 1645008950.04598618 -0.926557719707489014 -0.332175195217132568 0.164432764053344727 0.0641272738575935364
4.40409564971923828 106.679222106933594 -9.50724029541015625 223 1645008950.84453368 -0.941842973232269287 -0.28669506311416626 0.163901433348655701 0.0622422397136688232
8.82246875762939453 108.950401306152344 -11.0508670806884766 224 1645008951.64485025 -0.970424056053161621 -0.169608026742935181 0.168770775198936462 0.0320419967174530029
13.9724817276000977 110.005264282226562 -12.8851327896118164 225 1645008952.54606247 -0.980929672718048096 -0.0710169747471809387 0.178737029433250427 0.0280465949326753616
18.9734630584716797 110.136955261230469 -14.6005477905273438 226 1645008953.44534183 -0.983601510524749756 0.0141349639743566513 0.178832247853279114 0.0186363905668258667
23.6080722808837891 109.389350891113281 -16.4028568267822266 227 1645008954.34531975 -0.975821137428283691 0.112562201917171478 0.187142908573150635 -0.0089644845575094223
28.0346488952636719 107.18487548828125 -18.2514820098876953 228 1645008955.24709845 -0.94690316915512085 0.256937384605407715 0.189959615468978882 -0.0356776416301727295
31.8162498474121094 103.680381774902344 -19.6792678833007812 229 1645008956.14741111 -0.916806280612945557 0.369097799062728882 0.14719797670841217 -0.0395704209804534912
35.2623672485351562 99.9540252685546875 -20.8035678863525391 230 1645008957.047014 -0.903953492641448975 0.399594724178314209 0.143293231725692749 -0.0515674017369747162
38.6191177368164062 95.8458099365234375 -21.8921051025390625 231 1645008958.04534149 -0.893529713153839111 0.421526134014129639 0.142762035131454468 -0.0594924353063106537
41.6238937377929688 91.9400482177734375 -22.8463306427001953 232 1645008959.04709554 -0.889767169952392578 0.430588096380233765 0.136640295386314392 -0.0650978833436965942
44.8000984191894531 88.1681976318359375 -23.8404769897460938 233 1645008960.14359498 -0.921682536602020264 0.363319128751754761 0.132403343915939331 -0.0311426613479852676
49.6932258605957031 87.3210906982421875 -25.3582172393798828 234 1645008961.44484305 -0.985282242298126221 -0.0580550990998744965 0.156383216381072998 0.0373207777738571167
51.2110404968261719 88.3732757568359375 -25.81072998046875 235 1645008961.94467282 -0.950106263160705566 -0.258963942527770996 0.158362105488777161 0.0718139484524726868
52.0661582946777344 89.90704345703125 -26.051055908203125 236 1645008962.44283319 -0.874477863311767578 -0.452689886093139648 0.147465646266937256 0.0928128883242607117
52.2291030883789062 91.5419921875 -26.0769004821777344 237 1645008962.94395161 -0.768640398979187012 -0.616458892822265625 0.130066350102424622 0.110693685710430145
51.7163772583007812 93.3163833618164062 -25.9028244018554688 238 1645008963.54359674 -0.642983615398406982 -0.751914143562316895 0.0952716320753097534 0.110093146562576294
50.1470184326171875 96.5319442749023438 -25.3467121124267578 239 1645008964.64292336 -0.503741800785064697 -0.851615250110626221 0.0640820562839508057 0.129958376288414001
46.8908309936523438 99.9117813110351562 -24.3383941650390625 240 1645008965.9437418 -0.340385645627975464 -0.929547548294067383 0.0412266403436660767 0.135570243000984192
43.49822998046875 101.45819091796875 -23.3173580169677734 241 1645008967.04459548 -0.168350666761398315 -0.974876999855041504 0.02044660784304142 0.144411996006965637
34.108489990234375 103.712623596191406 -20.4011020660400391 242 1645008969.14385986 -0.175901398062705994 -0.971986353397369385 0.0215127263218164444 0.15439683198928833
24.5255680084228516 107.677520751953125 -16.8305091857910156 243 1645008971.1440351 -0.141836732625961304 -0.970071732997894287 0.0233526062220335007 0.195698261260986328
14.572052001953125 108.510978698730469 -13.1411514282226562 244 1645008973.04252386 0.029851377010345459 -0.985166311264038086 -0.017009783536195755 0.168127685785293579
6.1076045036315918 105.857498168945312 -10.1453142166137695 245 1645008974.64220905 0.211993828415870667 -0.962135553359985352 -0.0356065407395362854 0.167588680982589722
0.212905153632164001 100.990257263183594 -8.06242656707763672 246 1645008975.94240928 0.385939866304397583 -0.907804250717163086 -0.0584675334393978119 0.153373584151268005
-3.63449287414550781 93.9521026611328125 -6.67004919052124023 247 1645008977.2429378 0.551932096481323242 -0.818699657917022705 -0.0817413628101348877 0.135720983147621155
-5.84126710891723633 82.3079910278320312 -5.67255258560180664 248 1645008979.24460077 0.674909234046936035 -0.722199201583862305 -0.095851995050907135 0.117210410535335541
-4.07804155349731445 73.2583999633789062 -5.9577794075012207 249 1645008981.23980594 0.790788412094116211 -0.592970848083496094 -0.110452130436897278 0.104113176465034485
-0.0118391159921884537 64.9383697509765625 -7.0040431022644043 250 1645008983.24447966 0.872876346111297607 -0.470028132200241089 -0.107058502733707428 0.0754908770322799683
3.32418012619018555 61.2669601440429688 -8.0285491943359375 251 1645008984.24225831 0.916535854339599609 -0.366911232471466064 -0.14280526340007782 0.0703191831707954407
7.29236268997192383 58.4791946411132812 -9.35372829437255859 252 1645008985.14623833 0.952222228050231934 -0.263077497482299805 -0.150050044059753418 0.039345230907201767
12.0082778930664062 56.6222496032714844 -10.9402046203613281 253 1645008986.04009914 0.974638879299163818 -0.150867611169815063 -0.163063928484916687 0.0269851461052894592
16.8035507202148438 55.5484504699707031 -12.500762939453125 254 1645008986.83948565 0.984018445014953613 -0.0902591273188591003 -0.151626035571098328 0.0238852221518754959
21.9675197601318359 54.8256378173828125 -14.1260595321655273 255 1645008987.63950539 0.987952828407287598 -0.0549483932554721832 -0.143709450960159302 0.016657685860991478
26.7565288543701172 54.2572097778320312 -15.5754261016845703 256 1645008988.33926725 0.988168418407440186 -0.0615443848073482513 -0.14029926061630249 0.0071831229142844677
31.6268024444580078 53.4093971252441406 -17.0114727020263672 257 1645008989.03829265 0.985251903533935547 -0.0950106829404830933 -0.14207613468170166 0.00812574103474617004
36.4956092834472656 52.2471084594726562 -18.4251956939697266 258 1645008989.73968673 0.98278433084487915 -0.125900387763977051 -0.134096920490264893 0.0173803195357322693
41.2693595886230469 50.6718482971191406 -19.7331943511962891 259 1645008990.43951941 0.977499663829803467 -0.167046397924423218 -0.12705036997795105 0.0211674943566322327
45.8882293701171875 48.6896553039550781 -20.9660797119140625 260 1645008991.1395278 0.96902698278427124 -0.21125108003616333 -0.124577820301055908 0.0289834421128034592
50.2773895263671875 46.2867202758789062 -22.0604534149169922 261 1645008991.83941102 0.959253549575805664 -0.255729079246520996 -0.114080958068370819 0.0376939401030540466
54.4152908325195312 43.5324058532714844 -23.0537338256835938 262 1645008992.53927803 0.948951303958892822 -0.292082637548446655 -0.109561741352081299 0.0466406866908073425
58.31982421875 40.4764595031738281 -23.9402961730957031 263 1645008993.23910832 0.936043024063110352 -0.331304848194122314 -0.106579862534999847 0.0519736632704734802
62.4729270935058594 36.7209625244140625 -24.8196067810058594 264 1645008994.04070425 0.925049781799316406 -0.361426979303359985 -0.100582055747509003 0.0594697929918766022
66.3954849243164062 32.8923377990722656 -25.5612716674804688 265 1645008994.83916497 0.919610142707824707 -0.375406175851821899 -0.0964926406741142273 0.0638478100299835205
70.2033309936523438 29.0253238677978516 -26.2764377593994141 266 1645008995.63978696 0.914823234081268311 -0.386490106582641602 -0.0969906523823738098 0.0657012313604354858
73.8626937866210938 25.1403427124023438 -26.9355030059814453 267 1645008996.43896365 0.911458492279052734 -0.396309107542037964 -0.0902265757322311401 0.0635738074779510498
77.26873779296875 21.49725341796875 -27.4877586364746094 268 1645008997.23894262 0.912574410438537598 -0.394067287445068359 -0.0903498157858848572 0.0612848028540611267
80.7615127563476562 17.8508377075195312 -28.0295658111572266 269 1645008998.1400125 0.913700520992279053 -0.391327351331710815 -0.0878439322113990784 0.0655570253729820251
84.5094757080078125 13.9062538146972656 -28.6119174957275391 270 1645008999.13939023 0.912947773933410645 -0.393672704696655273 -0.0835286900401115417 0.0676102563738822937
88.2330551147460938 9.9251861572265625 -29.1977653503417969 271 1645009000.14022422 0.90951615571975708 -0.400149017572402954 -0.0926567241549491882 0.0638425126671791077
91.0111618041992188 5.7111668586730957 -29.5585365295410156 272 1645009001.237988 0.859882533550262451 -0.499764561653137207 -0.0747364833950996399 0.0724697411060333252
92.9189529418945312 -0.530891478061676025 -29.6063385009765625 273 1645009002.64307332 0.751708149909973145 -0.649675428867340088 -0.0605372488498687744 0.0958747565746307373
92.3982620239257812 -7.04494285583496094 -28.9840450286865234 274 1645009003.94130874 0.618194639682769775 -0.774827718734741211 -0.0544062256813049316 0.120488017797470093
90.8074417114257812 -10.2258596420288086 -28.3736953735351562 275 1645009004.64119482 0.462058484554290771 -0.873285412788391113 -0.0280629042536020279 0.151944130659103394
87.01123046875 -13.5959901809692383 -27.0668087005615234 276 1645009005.64068365 0.290191173553466797 -0.945863902568817139 -0.0183517932891845703 0.144200503826141357
78.7132110595703125 -17.5212574005126953 -24.5093612670898438 277 1645009007.44087172 0.115324564278125763 -0.985981523990631104 0.0156949814409017563 0.119559139013290405
76.9244155883789062 -17.2941322326660156 -24.0562973022460938 278 1645009007.9399519 -0.0597089491784572601 -0.99144589900970459 0.0267550200223922729 0.112933538854122162
75.8344879150390625 -16.3979377746582031 -23.8994846343994141 279 1645009008.34162807 -0.247212409973144531 -0.963508546352386475 0.0602715238928794861 0.0830938667058944702
74.8592758178710938 -14.9075241088867188 -23.8360462188720703 280 1645009008.84114265 -0.420730501413345337 -0.900236427783966064 0.0853751823306083679 0.0726034268736839294
72.8870010375976562 -10.1571769714355469 -23.7611312866210938 281 1645009009.94203997 -0.553437530994415283 -0.822443962097167969 0.100915499031543732 0.0843141376972198486
71.0241241455078125 -5.07043266296386719 -23.7037162780761719 282 1645009010.84066582 -0.542838394641876221 -0.825218439102172852 0.128554031252861023 0.088401496410369873
68.3832855224609375 -0.164156898856163025 -23.5770244598388672 283 1645009011.64308167 -0.481176137924194336 -0.863646090030670166 0.124618679285049438 0.0839948728680610657
65.253387451171875 4.16747379302978516 -23.1728610992431641 284 1645009012.34190416 -0.44617190957069397 -0.885834157466888428 0.0909069180488586426 0.0892432034015655518
61.8995170593261719 8.60889244079589844 -22.6091156005859375 285 1645009013.04435515 -0.433375090360641479 -0.891655623912811279 0.0870489329099655151 0.0977688506245613098
58.303009033203125 12.9815139770507812 -21.9426937103271484 286 1645009013.74235582 -0.407999217510223389 -0.903701961040496826 0.0816055014729499817 0.100994765758514404
54.6134185791015625 17.2263717651367188 -21.2200126647949219 287 1645009014.44284034 -0.407878071069717407 -0.902797698974609375 0.0881405547261238098 0.104033917188644409
50.9531402587890625 21.3054885864257812 -20.4695014953613281 288 1645009015.14332247 -0.375593900680541992 -0.915176689624786377 0.0914291366934776306 0.114111900329589844
46.7055282592773438 24.6965007781982422 -19.5174999237060547 289 1645009015.84396863 -0.286657154560089111 -0.947363853454589844 0.0781928300857543945 0.119227796792984009
42.2584953308105469 27.619873046875 -18.4665946960449219 290 1645009016.5429883 -0.269225746393203735 -0.952859342098236084 0.0737468674778938293 0.118903249502182007
37.8751411437988281 29.9983329772949219 -17.3473339080810547 291 1645009017.24227285 -0.225260406732559204 -0.964688777923583984 0.0613383129239082336 0.12194620817899704
33.1698799133300781 32.0222663879394531 -16.0811824798583984 292 1645009018.04524231 -0.161708459258079529 -0.977287650108337402 0.0506970025599002838 0.127236053347587585
28.0879402160644531 32.7300605773925781 -14.616912841796875 293 1645009019.04484868 0.0119008589535951614 -0.989415585994720459 0.0375660434365272522 0.139656633138656616
25.8028030395507812 31.8612461090087891 -13.9405059814453125 294 1645009019.64367867 0.192232996225357056 -0.973322570323944092 0.0134052718058228493 0.124538958072662354
24.2518787384033203 30.2692184448242188 -13.4700441360473633 295 1645009020.24337697 0.375897020101547241 -0.919970810413360596 -0.0109886247664690018 0.110608994960784912
23.3754863739013672 28.1542186737060547 -13.1720981597900391 296 1645009020.84334016 0.540298044681549072 -0.834040641784667969 -0.0387617796659469604 0.104650594294071198
22.9862995147705078 23.7885608673095703 -12.9448394775390625 297 1645009021.84391356 0.683511972427368164 -0.721436560153961182 -0.0613064542412757874 0.0926397591829299927
23.9493904113769531 18.4269161224365234 -13.0404109954833984 298 1645009022.9420476 0.808328151702880859 -0.58091813325881958 -0.0722379758954048157 0.062620699405670166
26.0394496917724609 15.5096769332885742 -13.4699249267578125 299 1645009023.64374018 0.904814183712005615 -0.414320170879364014 -0.0935114845633506775 0.0300945546478033066
30.3920173645019531 12.8431987762451172 -14.4960060119628906 300 1645009024.64414954 0.96120220422744751 -0.249170452356338501 -0.113788530230522156 0.0325058326125144958
34.8502578735351562 9.92048549652099609 -15.5835914611816406 301 1645009025.63771033 0.9486350417137146 -0.292879313230514526 -0.111611224710941315 0.0430841743946075439
38.77191162109375 6.74740839004516602 -16.505096435546875 302 1645009026.54035568 0.932365655899047852 -0.34191739559173584 -0.104975640773773193 0.0526007823646068573
42.4133834838867188 3.04642057418823242 -17.3104591369628906 303 1645009027.43897676 0.910810291767120361 -0.395864993333816528 -0.101524017751216888 0.0583813227713108063
45.850128173828125 -1.0097428560256958 -18.0194721221923828 304 1645009028.33828497 0.908839285373687744 -0.402013570070266724 -0.099111609160900116 0.0507261268794536591
49.7308311462402344 -4.70108413696289062 -18.8013744354248047 305 1645009029.24086952 0.932241141796112061 -0.347188830375671387 -0.0923822745680809021 0.043033204972743988
54.0527191162109375 -7.71625804901123047 -19.6019878387451172 306 1645009030.14020896 0.961923897266387939 -0.259006589651107788 -0.0832601487636566162 0.0261877849698066711
58.9366569519042969 -9.38015079498291016 -20.5122928619384766 307 1645009031.03883648 0.99036109447479248 -0.104885734617710114 -0.0903311818838119507 -0.00491888821125030518
64.0102081298828125 -9.49935245513916016 -21.5897979736328125 308 1645009031.93964124 0.994507730007171631 -0.0081897517666220665 -0.104232147336006165 -0.00478733563795685768
70.8390045166015625 -10.7323799133300781 -23.2088127136230469 309 1645009033.14000559 0.975568592548370361 -0.17641034722328186 -0.119667202234268188 0.0531515553593635559
74.5538558959960938 -13.2376079559326172 -23.9216232299804688 310 1645009033.93963742 0.927584588527679443 -0.346054434776306152 -0.104013577103614807 0.0949439704418182373
76.11651611328125 -15.6670188903808594 -24.0490093231201172 311 1645009034.54003358 0.841856598854064941 -0.517352700233459473 -0.0976458564400672913 0.118696831166744232
76.2927169799804688 -17.7306404113769531 -23.8470745086669922 312 1645009035.04262757 0.723777353763580322 -0.673482000827789307 -0.0736794397234916687 0.130918681621551514
75.5976104736328125 -19.8799152374267578 -23.4686946868896484 313 1645009035.63829446 0.578221559524536133 -0.802424728870391846 -0.0580728016793727875 0.13565380871295929
71.7688522338867188 -26.2812328338623047 -21.9074878692626953 314 1645009037.44060397 0.514882564544677734 -0.84610295295715332 -0.0419692955911159515 0.131317585706710815
70.1436767578125 -31.5046215057373047 -21.290283203125 315 1645009038.5411222 0.589315593242645264 -0.795590579509735107 -0.0688136592507362366 0.122504785656929016
68.49359130859375 -36.719818115234375 -20.6468524932861328 316 1645009039.53875756 0.554313778877258301 -0.819067776203155518 -0.0754237771034240723 0.127182960510253906
65.9325485229492188 -40.295867919921875 -19.8384590148925781 317 1645009040.43899989 0.353314846754074097 -0.923173308372497559 -0.0781687051057815552 0.129650726914405823
63.5235252380371094 -41.2196311950683594 -19.1682033538818359 318 1645009041.03668427 0.163398414850234985 -0.977869629859924316 -0.036997675895690918 0.125312134623527527
61.1119956970214844 -41.1460304260253906 -18.5364646911621094 319 1645009041.63684225 -0.0209234487265348434 -0.992501318454742432 -0.00605127541348338127 0.120277628302574158
58.7584190368652344 -40.127197265625 -17.9407577514648438 320 1645009042.23748708 -0.217710837721824646 -0.9690285325050354 0.0165037140250205994 0.115383587777614594
57.1321983337402344 -38.4279136657714844 -17.6066055297851562 321 1645009042.737993 -0.3985176682472229 -0.912331640720367432 0.042789120227098465 0.0836880505084991455
56.2962913513183594 -36.2627220153808594 -17.4972724914550781 322 1645009043.23620391 -0.559016585350036621 -0.823177337646484375 0.0726242810487747192 0.0678618550300598145
55.6230316162109375 -31.2862110137939453 -17.4886302947998047 323 1645009044.23448586 -0.637243211269378662 -0.759316623210906982 0.0930832624435424805 0.0932462960481643677
54.024169921875 -26.2632675170898438 -17.2266712188720703 324 1645009045.13550997 -0.551035523414611816 -0.823975801467895508 0.0840565785765647888 0.101775288581848145
50.4295806884765625 -20.0729827880859375 -16.4652652740478516 325 1645009046.23609543 -0.470277279615402222 -0.872647225856781006 0.0830276086926460266 0.102139443159103394
43.0088653564453125 -11.7426910400390625 -15.2611408233642578 326 1645009047.7371099 -0.336302131414413452 -0.936228930950164795 0.0687799751758575439 0.0751371756196022034
38.4388389587402344 -8.66705036163330078 -14.5101633071899414 327 1645009048.43683696 -0.281673043966293335 -0.955117464065551758 0.0383222848176956177 0.0833203792572021484
27.2774639129638672 -2.75875449180603027 -11.9342164993286133 328 1645009050.03569388 -0.11255260556936264 -0.985199332237243652 0.0297114085406064987 0.125822737812995911
12.4009199142456055 -1.9785759449005127 -7.40638446807861328 329 1645009052.03545856 0.0192722268402576447 -0.988903164863586426 -0.00285931769758462906 0.147278383374214172
4.58267402648925781 -2.39917325973510742 -4.8938145637512207 330 1645009053.13515353 0.0175108835101127625 -0.98723989725112915 0.00562304118648171425 0.158174201846122742
0.259871929883956909 -2.51965451240539551 -3.54072856903076172 331 1645009053.735425 0.0099205654114484787 -0.988218069076538086 0.00824823323637247086 0.152507781982421875
-4.72780609130859375 -2.60181927680969238 -1.9298933744430542 332 1645009054.4358201 0.00525669148191809654 -0.987335383892059326 0.0114014782011508942 0.15814933180809021
-9.78981208801269531 -2.67695903778076172 -0.335067838430404663 333 1645009055.13754296 0.00934595521539449692 -0.988006830215454102 0.0137820309028029442 0.153509482741355896
-14.8354721069335938 -2.77145767211914062 1.25699508190155029 334 1645009055.83705187 0.00264953263103961945 -0.988370835781097412 0.00516871502622961998 0.151951789855957031
-19.8245487213134766 -2.86171960830688477 2.94492959976196289 335 1645009056.53778553 -4.65802440885454416e-06 -0.986159920692443848 -0.00524656381458044052 0.16571393609046936
-24.7579517364501953 -2.89770746231079102 4.69160032272338867 336 1645009057.24001646 -0.000882401596754789352 -0.984898805618286133 -0.00379602215252816677 0.173087090253829956
-30.1018543243408203 -2.92317914962768555 6.60220766067504883 337 1645009058.03744197 -0.00392640382051467896 -0.985612392425537109 -0.00126860255841165781 0.168970942497253418
-34.9853744506835938 -3.02240300178527832 8.35492229461669922 338 1645009058.83887887 0.0224249698221683502 -0.985599279403686523 -0.00155139155685901642 0.167597010731697083
-39.2346076965332031 -4.21297788619995117 9.86315059661865234 339 1645009059.63791585 0.195627287030220032 -0.96807563304901123 -0.0135808149352669716 0.156125232577323914
-43.1024246215820312 -7.43458032608032227 11.2578306198120117 340 1645009060.64073944 0.344173043966293335 -0.924777328968048096 -0.0565461143851280212 0.152099773287773132
-47.2626609802246094 -10.5041208267211914 12.7056217193603516 341 1645009061.84025693 0.268172234296798706 -0.949827134609222412 -0.046543855220079422 0.154096633195877075
-51.7569961547851562 -12.6825971603393555 14.2915802001953125 342 1645009063.03968549 0.178128734230995178 -0.97070622444152832 -0.0266542099416255951 0.159025713801383972
-56.6207351684570312 -13.5908679962158203 15.9136886596679688 343 1645009064.03787374 0.0434684120118618011 -0.98581850528717041 -0.0116528365761041641 0.161668211221694946
-61.3893089294433594 -13.5213384628295898 17.4860305786132812 344 1645009064.93708253 -0.00930365268141031265 -0.986367464065551758 0.0150521043688058853 0.163603603839874268
-66.3211135864257812 -13.3013792037963867 19.1409626007080078 345 1645009065.93767118 -0.0379321910440921783 -0.986823856830596924 0.00152791081927716732 0.157281458377838135
-71.1698760986328125 -13.514521598815918 20.8161830902099609 346 1645009067.03689408 0.0871170386672019958 -0.982222855091094971 -9.0106950665358454e-05 0.166279628872871399
-75 -16.8763427734375 22.1131267547607422 347 1645009068.33818197 0.465747237205505371 -0.872542917728424072 -0.057141914963722229 0.13595283031463623
-75.6669692993164062 -19.9633750915527344 22.3483791351318359 348 1645009069.03849053 0.618226230144500732 -0.772041141986846924 -0.0857694968581199646 0.1199684739112854
-76.1933059692382812 -25.0717277526855469 22.5451736450195312 349 1645009070.03778172 0.668374359607696533 -0.729443669319152832 -0.0928881391882896423 0.112069033086299896
-76.2804641723632812 -30.1361122131347656 22.5964927673339844 350 1645009070.9385891 0.703305482864379883 -0.697809934616088867 -0.0981745645403862 0.093725450336933136
-75.9747467041015625 -35.3367767333984375 22.5577774047851562 351 1645009071.93800378 0.721043169498443604 -0.678408324718475342 -0.0979225039482116699 0.101341105997562408
-75.5285263061523438 -40.5269851684570312 22.4029293060302734 352 1645009073.0398984 0.721209347248077393 -0.674737632274627686 -0.114356942474842072 0.107278801500797272
