# .PCD v0.7 - Point Cloud Data file format
VERSION 0.7
FIELDS x y z intensity t qx qy qz qw
SIZE 4 4 4 4 8 4 4 4 4
TYPE F F F F F F F F F
COUNT 1 1 1 1 1 1 1 1 1
WIDTH 275
HEIGHT 1
VIEWPOINT 0 0 0 1 0 0 0
POINTS 275
DATA ascii
234.2440185546875 -41.2986373901367188 6.68759965896606445 9 1645019385.85297775 0.999898016452789307 6.49488065391778946e-05 -0.0126207964494824409 -0.00668619992211461067
234.242843627929688 -41.2988319396972656 6.68802118301391602 10 1645019385.95226789 0.999899864196777344 0.0001325449557043612 -0.0124417925253510475 -0.00674275914207100868
234.244461059570312 -41.3019790649414062 6.68777370452880859 11 1645019386.05340505 0.999894201755523682 0.000454159278888255358 -0.012963426299393177 -0.00658325990661978722
234.242584228515625 -41.3019905090332031 6.68773031234741211 12 1645019386.15415931 0.999897778034210205 0.000109621301817242056 -0.0125025119632482529 -0.00693319877609610558
234.24334716796875 -41.3009490966796875 6.68804693222045898 13 1645019386.25271678 0.99989551305770874 0.000311205105390399694 -0.012751137837767601 -0.00680361595004796982
234.245132446289062 -41.2994422912597656 6.68808603286743164 14 1645019386.35248399 0.999900162220001221 -0.00014771803398616612 -0.0123598622158169746 -0.00684335827827453613
234.242568969726562 -41.2989387512207031 6.68752193450927734 15 1645019386.45251179 0.999895036220550537 -5.91031312069389969e-05 -0.0126759922131896019 -0.0070200776681303978
234.244491577148438 -41.2991905212402344 6.68763971328735352 16 1645019386.55296421 0.999901115894317627 0.000173523672856390476 -0.0123115424066781998 -0.00678947102278470993
234.244857788085938 -41.3005828857421875 6.68736791610717773 17 1645019386.65395832 0.99989926815032959 0.000160258772666566074 -0.0124858524650335312 -0.00674681318923830986
234.245651245117188 -41.3001289367675781 6.68719863891601562 18 1645019386.75291777 0.999902307987213135 0.000114520698843989521 -0.0122212870046496391 -0.00678193662315607071
234.245361328125 -41.3010406494140625 6.68739461898803711 19 1645019386.85264277 0.999897599220275879 0.000567607290577143431 -0.0125687615945935249 -0.00682038022205233574
234.244537353515625 -41.3000946044921875 6.68632078170776367 20 1645019386.95358062 0.999901831150054932 0.00013201897672843188 -0.0122539326548576355 -0.00679690483957529068
234.55938720703125 -42.4383010864257812 6.64841222763061523 21 1645019388.65173769 0.982940137386322021 0.182046949863433838 -0.0167427137494087219 -0.0201825462281703949
235.470672607421875 -43.7543869018554688 6.63386821746826172 22 1645019389.45533729 0.933806717395782471 0.357212275266647339 -0.00715210475027561188 -0.0187962222844362259
238.031585693359375 -48.2301177978515625 6.56270647048950195 23 1645019391.25444627 0.925926685333251953 0.377489447593688965 0.000442337506683543324 -0.0127021372318267822
239.58294677734375 -53.3134841918945312 6.44970989227294922 24 1645019392.55488181 0.967701733112335205 0.252083688974380493 0.000564085610676556826 -0.00260655512101948261
240.198577880859375 -58.7578048706054688 6.33569240570068359 25 1645019393.65263247 0.983299314975738525 0.181735828518867493 -0.00818827841430902481 0.00524033419787883759
240.233856201171875 -59.2485542297363281 6.31939458847045898 26 1645019393.7525413 0.728271365165710449 -0.685148239135742188 -0.0128376316279172897 -0.00528290215879678726
240.376632690429688 -64.6284713745117188 6.27783584594726562 27 1645019394.85584188 0.71583932638168335 -0.698132991790771484 -0.00454810960218310356 0.012792002409696579
240.607894897460938 -69.6366424560546875 6.26601314544677734 28 1645019395.85518599 0.729622542858123779 -0.683735549449920654 -0.00712914438918232918 0.0102859726175665855
241.07928466796875 -74.7896041870117188 6.26349163055419922 29 1645019396.85300159 0.74436265230178833 -0.66769099235534668 -0.00182349095121026039 0.010470791719853878
242.127197265625 -80.1845779418945312 6.24515104293823242 30 1645019397.85475397 0.786200165748596191 -0.617915868759155273 0.000576954975258558989 0.00830451399087905884
243.810516357421875 -85.1766891479492188 6.2223200798034668 31 1645019398.75288844 0.818255901336669922 -0.574778616428375244 -0.00735941994935274124 0.00571669777855277061
245.91571044921875 -89.9192047119140625 6.19571638107299805 32 1645019399.65478754 0.844538271427154541 -0.535418987274169922 -0.00752655277028679848 0.00499096978455781937
248.428878784179688 -94.3830108642578125 6.17914581298828125 33 1645019400.55296445 0.868580937385559082 -0.495442003011703491 -0.00504405330866575241 0.00888704601675271988
251.289230346679688 -98.5985641479492188 6.14833688735961914 34 1645019401.45329762 0.888088762760162354 -0.459574103355407715 -0.00589244766160845757 0.00743151409551501274
254.522415161132812 -102.490966796875 6.12896919250488281 35 1645019402.35309839 0.905945360660552979 -0.423039913177490234 -0.0087910061702132225 0.014932701364159584
258.37237548828125 -106.38494873046875 6.12932252883911133 36 1645019403.3534615 0.928405642509460449 -0.37151634693145752 -0.00299570546485483646 0.00544176297262310982
262.415252685546875 -109.772109985351562 6.11255121231079102 37 1645019404.35638905 0.942815244197845459 -0.333255469799041748 -0.00136785104405134916 0.00619221245869994164
266.604095458984375 -112.837493896484375 6.07072210311889648 38 1645019405.35296893 0.953181982040405273 -0.30228734016418457 -0.00596570270135998726 0.00555266253650188446
271.243377685546875 -115.669013977050781 5.9992070198059082 39 1645019406.45413351 0.960758745670318604 -0.276185393333435059 -0.0138123407959938049 0.0217607542872428894
275.568206787109375 -118.236442565917969 5.98041439056396484 40 1645019407.5549705 0.967537224292755127 -0.252271562814712524 -0.0058536045253276825 0.0140178315341472626
280.021209716796875 -120.545089721679688 6.00917148590087891 41 1645019408.95576119 0.970457851886749268 -0.240307047963142395 0.0112647740170359612 0.0183628518134355545
283.715118408203125 -122.683921813964844 6.00633335113525391 42 1645019410.95583844 0.964980900287628174 -0.261462777853012085 0.016989169642329216 0.0126653341576457024
288.21795654296875 -125.406700134277344 5.92693328857421875 43 1645019413.05634952 0.96208566427230835 -0.272646069526672363 0.00694402772933244705 -0.00266729551367461681
292.3992919921875 -128.2099609375 5.77277231216430664 44 1645019414.35838175 0.952922999858856201 -0.301889955997467041 -0.0170125607401132584 -0.0226003602147102356
296.384521484375 -131.481613159179688 5.41963863372802734 45 1645019415.55734706 0.93921053409576416 -0.340075284242630005 -0.0324616469442844391 -0.034330565482378006
300.564178466796875 -134.567031860351562 4.98265171051025391 46 1645019416.65721083 0.955733239650726318 -0.290407001972198486 -0.0348397605121135712 -0.0319998376071453094
305.10888671875 -136.934280395507812 4.52721786499023438 47 1645019417.65847611 0.972742438316345215 -0.225588217377662659 -0.037842918187379837 -0.038079332560300827
309.9443359375 -139.478775024414062 4.06924629211425781 48 1645019418.6604991 0.964426219463348389 -0.259713232517242432 -0.0384999737143516541 -0.0308028366416692734
314.303680419921875 -142.357864379882812 3.60867047309875488 49 1645019419.5591712 0.95183718204498291 -0.301156014204025269 -0.0487848669290542603 -0.0305128991603851318
318.55645751953125 -145.838272094726562 3.09372282028198242 50 1645019420.45828056 0.936003148555755615 -0.348077923059463501 -0.0410350486636161804 -0.0324959568679332733
322.40716552734375 -149.681838989257812 2.54639005661010742 51 1645019421.35555577 0.915657639503479004 -0.398055881261825562 -0.045027468353509903 -0.0330920889973640442
325.652008056640625 -153.7822265625 2.03101348876953125 52 1645019422.25714087 0.89114147424697876 -0.449817538261413574 -0.0454814992845058441 -0.0382421426475048065
328.426605224609375 -158.101425170898438 1.54058969020843506 53 1645019423.25491285 0.871414482593536377 -0.487130999565124512 -0.0316582359373569489 -0.0483527891337871552
330.7398681640625 -162.801437377929688 1.0371631383895874 54 1645019424.45436907 0.834382891654968262 -0.549438357353210449 -0.0153740523383021355 -0.0410653017461299896
331.45086669921875 -167.329452514648438 0.989760756492614746 55 1645019425.65429521 0.727843403816223145 -0.685314953327178955 0.00677938433364033699 -0.0232687629759311676
330.578033447265625 -170.239486694335938 0.908800721168518066 56 1645019426.45582056 0.580994188785552979 -0.81367117166519165 0.00312608992680907249 -0.0193702150136232376
328.92523193359375 -172.421173095703125 0.789827406406402588 57 1645019427.0546298 0.428497105836868286 -0.903236567974090576 -0.00845623016357421875 -0.0219643134623765945
324.526275634765625 -175.592864990234375 0.548256158828735352 58 1645019428.05744457 0.279380351305007935 -0.960085928440093994 -0.00396222108975052834 -0.0128832096233963966
319.9263916015625 -177.868789672851562 0.277570664882659912 59 1645019428.85811281 0.207840755581855774 -0.977837622165679932 -0.00244313757866621017 -0.0250953324139118195
314.674407958984375 -179.9044189453125 -0.0295253284275531769 60 1645019429.65649199 0.193782880902290344 -0.980399847030639648 0.0159036256372928619 -0.0318020917475223541
309.865386962890625 -181.9263916015625 -0.29935881495475769 61 1645019430.35761023 0.199558541178703308 -0.979232668876647949 0.0204514879733324051 -0.0293522030115127563
304.99139404296875 -184.084381103515625 -0.561120033264160156 62 1645019431.0578723 0.207605034112930298 -0.977472960948944092 0.0202250126749277115 -0.0322143435478210449
300.11993408203125 -186.262832641601562 -0.772132456302642822 63 1645019431.75654435 0.210827618837356567 -0.976857542991638184 0.0262392032891511917 -0.0247507598251104355
295.202606201171875 -188.44500732421875 -0.95491945743560791 64 1645019432.45833898 0.202419087290763855 -0.978742480278015137 0.023253241553902626 -0.0234308391809463501
290.232574462890625 -190.441009521484375 -1.12891209125518799 65 1645019433.15852046 0.181861326098442078 -0.982898414134979248 0.0207828525453805923 -0.0201295502483844757
285.151824951171875 -192.194198608398438 -1.30356299877166748 66 1645019433.86143041 0.15892559289932251 -0.986928462982177734 0.0194239728152751923 -0.0183741133660078049
280.047332763671875 -193.735015869140625 -1.46521973609924316 67 1645019434.55839229 0.141632825136184692 -0.989544034004211426 0.0199185516685247421 -0.0186003930866718292
274.9522705078125 -195.305252075195312 -1.6219024658203125 68 1645019435.25853443 0.159718319773674011 -0.986898720264434814 0.0200141239911317825 -0.0109722530469298363
269.872528076171875 -197.096160888671875 -1.80112349987030029 69 1645019435.96113062 0.177146404981613159 -0.983829498291015625 0.017939884215593338 -0.0194122996181249619
264.84326171875 -198.851852416992188 -1.96392607688903809 70 1645019436.66195393 0.149786099791526794 -0.988496303558349609 0.012987394817173481 -0.0164455659687519073
259.739501953125 -200.348129272460938 -2.13769388198852539 71 1645019437.35896444 0.13416290283203125 -0.990728080272674561 0.0136513244360685349 -0.0164872724562883377
254.568038940429688 -201.696640014648438 -2.32282495498657227 72 1645019438.05668616 0.122633486986160278 -0.992220818996429443 0.0101732127368450165 -0.0188504159450531006
249.318374633789062 -203.0157470703125 -2.50371742248535156 73 1645019438.76039386 0.124462492763996124 -0.991847455501556396 0.0134682375937700272 -0.0237979553639888763
244.176895141601562 -204.379638671875 -2.66220664978027344 74 1645019439.45965815 0.127565145492553711 -0.991640686988830566 0.0132078137248754501 -0.0141928223893046379
239.02520751953125 -205.779922485351562 -2.84479093551635742 75 1645019440.15782547 0.130355790257453918 -0.991312742233276367 0.00711561273783445358 -0.0159929506480693817
233.851547241210938 -207.0333251953125 -2.97748374938964844 76 1645019440.85621524 0.115637212991714478 -0.993174314498901367 0.00927252881228923798 -0.0121177192777395248
228.652816772460938 -208.150466918945312 -3.12679958343505859 77 1645019441.55462956 0.103699415922164917 -0.994423747062683105 0.0122228395193815231 -0.0147789688780903816
223.395660400390625 -209.154327392578125 -3.30306744575500488 78 1645019442.25703359 0.0901672244071960449 -0.995627999305725098 0.0160818658769130707 -0.018334757536649704
218.098419189453125 -210.086196899414062 -3.48069620132446289 79 1645019442.9591608 0.0792842581868171692 -0.99668729305267334 0.0086675519123673439 -0.0159177202731370926
212.827484130859375 -210.881820678710938 -3.63025164604187012 80 1645019443.65528679 0.0709854811429977417 -0.997333705425262451 0.00831979047507047653 -0.0147406803444027901
207.54058837890625 -211.582534790039062 -3.78548526763916016 81 1645019444.35434365 0.060139387845993042 -0.998091161251068115 0.00554338842630386353 -0.0129040069878101349
202.236785888671875 -212.171188354492188 -3.93679094314575195 82 1645019445.05461025 0.0489321909844875336 -0.998717904090881348 0.00362904183566570282 -0.0124529460445046425
196.907684326171875 -212.6260986328125 -4.10486507415771484 83 1645019445.75498009 0.0420619696378707886 -0.998902499675750732 0.0115279257297515869 -0.0170782189816236496
191.59698486328125 -213.073287963867188 -4.27152204513549805 84 1645019446.45407319 0.0418225862085819244 -0.998937368392944336 0.0120922876521945 -0.0151244420558214188
186.303955078125 -213.508132934570312 -4.40873146057128906 85 1645019447.15415573 0.0406882911920547485 -0.999107539653778076 0.00867692567408084869 -0.00730352196842432022
180.978195190429688 -213.932144165039062 -4.57290124893188477 86 1645019447.85534382 0.038443494588136673 -0.999164283275604248 0.00566080817952752113 -0.0126778893172740936
175.671646118164062 -214.38214111328125 -4.74756193161010742 87 1645019448.55444813 0.0425589941442012787 -0.998978018760681152 0.00290108774788677692 -0.0149416672065854073
170.345977783203125 -214.909347534179688 -4.91012763977050781 88 1645019449.25482416 0.0476623550057411194 -0.998737573623657227 -0.00177840772084891796 -0.0157589036971330643
165.061004638671875 -215.367141723632812 -5.00573348999023438 89 1645019449.95485187 0.0381685420870780945 -0.999230921268463135 0.00214583659544587135 -0.00872415304183959961
159.781600952148438 -215.71575927734375 -5.08389949798583984 90 1645019450.65467858 0.0280727595090866089 -0.999566376209259033 0.00423050718382000923 -0.00781929120421409607
154.532730102539062 -216.005111694335938 -5.15976476669311523 91 1645019451.35438967 0.0243047773838043213 -0.999679267406463623 0.00123958464246243238 -0.00700839003548026085
149.288177490234375 -216.28546142578125 -5.23764467239379883 92 1645019452.05389476 0.0262991394847631454 -0.999631226062774658 -0.00192301243077963591 -0.00648307939991354942
144.078369140625 -216.573257446289062 -5.26982641220092773 93 1645019452.7546649 0.0236745681613683701 -0.99970698356628418 -0.00502883736044168472 0.000409134489018470049
138.889068603515625 -216.811965942382812 -5.27617931365966797 94 1645019453.45483518 0.0212261658161878586 -0.999764561653137207 0.00284935045056045055 -0.00348108867183327675
133.728652954101562 -217.14776611328125 -5.32564258575439453 95 1645019454.15394711 0.0298061873763799667 -0.999548494815826416 -0.00309144565835595131 0.00219124346040189266
128.549575805664062 -217.492095947265625 -5.33739519119262695 96 1645019454.85684061 0.0275085717439651489 -0.999608755111694336 -0.00502755586057901382 0.000612661009654402733
123.438911437988281 -217.783126831054688 -5.36144304275512695 97 1645019455.55529547 0.0242220070213079453 -0.999690830707550049 -0.00476922281086444855 0.00297467573545873165
118.272979736328125 -218.008377075195312 -5.39054298400878906 98 1645019456.25570488 0.0160343386232852936 -0.99986034631729126 -0.00464742677286267281 0.000761621224228292704
113.13140869140625 -218.128738403320312 -5.35948562622070312 99 1645019456.95802569 0.00867301598191261292 -0.999930977821350098 -0.000940797792281955481 0.00787071976810693741
108.019783020019531 -218.206085205078125 -5.34285831451416016 100 1645019457.65543556 0.00491223204880952835 -0.999968111515045166 -0.00628618756309151649 0.000397024996345862746
102.876564025878906 -218.37640380859375 -5.33196687698364258 101 1645019458.3563292 0.0122867850586771965 -0.999841630458831787 -0.0127870375290513039 -0.00151217612437903881
97.7612838745117188 -218.651321411132812 -5.32416534423828125 102 1645019459.05724406 0.0275926869362592697 -0.999479532241821289 -0.0167108401656150818 -0.00027612422127276659
92.67425537109375 -219.008773803710938 -5.29833507537841797 103 1645019459.75789213 0.0290006306022405624 -0.999379873275756836 -0.0185791086405515671 0.0073260236531496048
87.5595703125 -219.28662109375 -5.29608583450317383 104 1645019460.45789409 0.0183557216078042984 -0.99962693452835083 -0.0200867466628551483 0.00235626893118023872
82.4447479248046875 -219.45367431640625 -5.30605268478393555 105 1645019461.15587783 0.0117053892463445663 -0.999773979187011719 -0.0172303281724452972 -0.00425542192533612251
77.3219070434570312 -219.5284423828125 -5.31722784042358398 106 1645019461.85767961 -9.60854085860773921e-05 -0.999824285507202148 -0.0186960510909557343 -0.00135477771982550621
72.2126998901367188 -219.4100341796875 -5.28105926513671875 107 1645019462.55899835 -0.0149298738688230515 -0.999849200248718262 -0.00505710067227482796 0.00729079358279705048
67.1526718139648438 -219.169113159179688 -5.23686790466308594 108 1645019463.25832319 -0.0293018259108066559 -0.999550879001617432 0.000750488601624965668 0.0062364102341234684
62.1099014282226562 -218.769821166992188 -5.20141792297363281 109 1645019463.95616651 -0.0412875637412071228 -0.999104678630828857 0.00881473161280155182 0.00274485326372087002
57.058074951171875 -218.215362548828125 -5.17301702499389648 110 1645019464.6573925 -0.0592941939830780029 -0.998159050941467285 0.0121634490787982941 0.00384022272191941738
52.0106964111328125 -217.52911376953125 -5.16561031341552734 111 1645019465.35916448 -0.0762211307883262634 -0.997065722942352295 0.00697732903063297272 0.00124140980187803507
46.9932899475097656 -216.605224609375 -5.16906881332397461 112 1645019466.05835867 -0.10207800567150116 -0.994763076305389404 0.00504312431439757347 0.00101121212355792522
42.0687294006347656 -215.2398681640625 -5.18880605697631836 113 1645019466.75665784 -0.155316576361656189 -0.987851798534393311 0.0050207134336233139 -0.000610372575465589762
37.2985687255859375 -213.363510131835938 -5.2027745246887207 114 1645019467.45799112 -0.197282508015632629 -0.980320930480957031 0.00660412758588790894 0.00262750755064189434
32.6882247924804688 -211.127029418945312 -5.21742820739746094 115 1645019468.15697813 -0.236182719469070435 -0.971667647361755371 0.00890597421675920486 0.000599449733272194862
28.2811431884765625 -208.513076782226562 -5.22446203231811523 116 1645019468.85758281 -0.278633803129196167 -0.960352718830108643 0.00906400661915540695 0.0019150173757225275
24.1243171691894531 -205.593551635742188 -5.19157552719116211 117 1645019469.55794144 -0.316179573535919189 -0.94868391752243042 0.00144668982829898596 0.00521982694044709206
20.2058486938476562 -202.355636596679688 -5.12003564834594727 118 1645019470.2592864 -0.35402911901473999 -0.935044348239898682 0.00540065951645374298 0.0180634688585996628
16.4670619964599609 -198.956298828125 -5.0650629997253418 119 1645019470.95873332 -0.369695723056793213 -0.929135799407958984 -0.00167911313474178314 0.00537374056875705719
12.8760356903076172 -195.4716796875 -4.96456050872802734 120 1645019471.65911269 -0.382974356412887573 -0.923591017723083496 -0.0143493534997105598 0.0102156940847635269
8.73937892913818359 -191.571609497070312 -4.71342992782592773 121 1645019472.45865011 -0.363665491342544556 -0.931505680084228516 -0.00564957363530993462 0.00355469342321157455
4.61481189727783203 -187.816421508789062 -4.60636377334594727 122 1645019473.25934935 -0.366364806890487671 -0.929944515228271484 -0.016926812008023262 0.0263345744460821152
0.53390878438949585 -184.021896362304688 -4.29820489883422852 123 1645019474.06260371 -0.369209617376327515 -0.928687691688537598 -0.00987621024250984192 0.03355436772108078
-3.50243449211120605 -180.266204833984375 -4.03214216232299805 124 1645019474.8612349 -0.367822229862213135 -0.929497838020324707 -0.0122353807091712952 0.0243080873042345047
-7.47429037094116211 -176.608963012695312 -3.7047417163848877 125 1645019475.66149592 -0.36481165885925293 -0.930131852626800537 -0.0209254231303930283 0.0364595949649810791
-11.4690217971801758 -173.00408935546875 -3.38361215591430664 126 1645019476.46084929 -0.364941865205764771 -0.930366814136505127 -0.0218381974846124649 0.0275335516780614853
-15.3922863006591797 -169.518768310546875 -3.04918718338012695 127 1645019477.2607882 -0.358083009719848633 -0.932978570461273193 -0.0219805855304002762 0.0290591306984424591
-19.2342910766601562 -166.12603759765625 -2.7403714656829834 128 1645019478.0626533 -0.361756414175033569 -0.931390762329101562 -0.0277536734938621521 0.0295504797250032425
-22.9128246307373047 -162.64556884765625 -2.55567073822021484 129 1645019478.8604517 -0.38104584813117981 -0.923612654209136963 -0.020792277529835701 0.0362137593328952789
-26.9197807312011719 -158.85284423828125 -1.9221576452255249 130 1645019479.76310515 -0.370739072561264038 -0.927556157112121582 -0.0348312556743621826 0.0312863998115062714
-30.7801456451416016 -155.193771362304688 -1.41061973571777344 131 1645019480.66260242 -0.369445711374282837 -0.927227616310119629 -0.0309053324162960052 0.0529495663940906525
-34.5545768737792969 -151.64678955078125 -0.959145069122314453 132 1645019481.56385922 -0.36738133430480957 -0.928628444671630859 -0.0269779320806264877 0.0441855490207672119
-38.5320854187011719 -147.87890625 -0.466474920511245728 133 1645019482.56598735 -0.373821109533309937 -0.92644798755645752 -0.0174054056406021118 0.0406068675220012665
-42.2859458923339844 -144.17401123046875 -0.020012369379401207 134 1645019483.56078053 -0.384806394577026367 -0.921763062477111816 -0.0131537020206451416 0.0458677709102630615
-45.8750839233398438 -140.437957763671875 0.404835373163223267 135 1645019484.5639894 -0.395770370960235596 -0.917239904403686523 -0.0119102587923407555 0.0435306690633296967
-49.3170738220214844 -136.664749145507812 0.813881874084472656 136 1645019485.56376886 -0.408715099096298218 -0.911562740802764893 -0.0108155412599444389 0.0434555225074291229
-52.6650962829589844 -132.8092041015625 1.18609261512756348 137 1645019486.56048417 -0.422667175531387329 -0.905268669128417969 -0.013630993664264679 0.0406847968697547913
-55.7861213684082031 -128.662673950195312 1.55877196788787842 138 1645019487.56426811 -0.46149832010269165 -0.886187613010406494 -0.00662058219313621521 0.0405826643109321594
-58.4498939514160156 -124.209220886230469 1.96293246746063232 139 1645019488.56084323 -0.498982369899749756 -0.865247011184692383 -0.00164848973508924246 0.0485947318375110626
-60.7979965209960938 -119.547309875488281 2.38393211364746094 140 1645019489.5643611 -0.533909261226654053 -0.843994438648223877 -0.0019626349676400423 0.0510920993983745575
-62.6799659729003906 -114.758369445800781 2.82775282859802246 141 1645019490.56402087 -0.574381232261657715 -0.816819131374359131 -0.0081315925344824791 0.0531655363738536835
-64.0733718872070312 -109.810203552246094 3.23865985870361328 142 1645019491.56264925 -0.616442561149597168 -0.786007523536682129 -0.0120711633935570717 0.0452216267585754395
-65.050445556640625 -104.727256774902344 3.59651446342468262 143 1645019492.55837369 -0.642303347587585449 -0.765680789947509766 -0.0107977427542209625 0.0325992442667484283
-65.7871017456054688 -99.5621109008789062 3.98060083389282227 144 1645019493.55754519 -0.666157186031341553 -0.744503676891326904 -0.0224185753613710403 0.038029104471206665
-65.9865493774414062 -94.3239898681640625 4.40609598159790039 145 1645019494.55713177 -0.7053070068359375 -0.707567274570465088 -0.0237410366535186768 0.0364261865615844727
-65.5616531372070312 -89.1844635009765625 4.90177488327026367 146 1645019495.56064081 -0.746131479740142822 -0.661263108253479004 -0.0509229488670825958 0.0585303120315074921
-64.6307220458984375 -84.0635604858398438 5.22257041931152344 147 1645019496.55814242 -0.77006220817565918 -0.63630223274230957 -0.0250641945749521255 0.0386702977120876312
-63.8258018493652344 -78.8808441162109375 5.63872528076171875 148 1645019497.55679655 -0.755688667297363281 -0.653366148471832275 -0.0223229583352804184 0.0393571257591247559
-63.2286109924316406 -73.6456375122070312 6.03717660903930664 149 1645019498.557688 -0.742070972919464111 -0.668972551822662354 -0.0226530823856592178 0.0359618403017520905
-62.3790664672851562 -68.4449920654296875 6.44714593887329102 150 1645019499.55767894 -0.778634905815124512 -0.626012325286865234 -0.0271112136542797089 0.0331843942403793335
-60.4966926574707031 -63.5083503723144531 6.84146595001220703 151 1645019500.55721474 -0.839184284210205078 -0.541867494583129883 -0.0185104217380285263 0.042506147176027298
-57.6632003784179688 -59.0177536010742188 7.19786834716796875 152 1645019501.5565393 -0.887110590934753418 -0.459007412195205688 -0.0161353647708892822 0.0456804521381855011
-53.884979248046875 -55.1189002990722656 7.4926753044128418 153 1645019502.55753469 -0.934809505939483643 -0.352796405553817749 -0.0102663431316614151 0.0395022854208946228
-49.6338577270507812 -52.9677352905273438 7.59707260131835938 154 1645019503.5574677 -0.98643338680267334 -0.161731377243995667 0.00928928423672914505 0.0265678130090236664
-44.5884819030761719 -52.6353187561035156 7.39959001541137695 155 1645019504.5567441 -0.999727964401245117 0.0034820998553186655 0.0216565784066915512 0.00792604591697454453
-39.3552207946777344 -53.0149459838867188 7.23468112945556641 156 1645019505.4629271 -0.99892038106918335 0.0447644181549549103 -0.0119750006124377251 0.00329583766870200634
-33.8882865905761719 -53.485748291015625 7.04391956329345703 157 1645019506.36201096 -0.998663961887359619 0.0477569885551929474 0.0153601216152310371 0.0123947169631719589
-28.5560111999511719 -54.0678596496582031 6.74442052841186523 158 1645019507.16207767 -0.997811615467071533 0.0582252293825149536 0.0289191696792840958 0.0120622636750340462
-23.4961109161376953 -54.5956535339355469 6.43239831924438477 159 1645019507.86184287 -0.998045265674591064 0.0503850281238555908 0.0367082729935646057 0.00441822735592722893
-18.1792755126953125 -54.9214096069335938 6.10694646835327148 160 1645019508.56336737 -0.999040126800537109 0.0232482850551605225 0.0371228531002998352 -0.000451687927125021815
-12.7848081588745117 -54.9959793090820312 5.76482820510864258 161 1645019509.26122141 -0.999424517154693604 0.00191061478108167648 0.0338236615061759949 -0.00172176165506243706
-7.27699041366577148 -54.8450164794921875 5.39432621002197266 162 1645019509.96140575 -0.999225497245788574 -0.013665398582816124 0.0365660078823566437 -0.00496102310717105865
-1.65792596340179443 -54.7336044311523438 4.99424982070922852 163 1645019510.66163325 -0.999281525611877441 0.000841280736494809389 0.0355654284358024597 -0.0130708822980523109
4.02430391311645508 -54.8237648010253906 4.60618734359741211 164 1645019511.36253238 -0.998883068561553955 0.0141763333231210709 0.0432197749614715576 -0.0127943083643913269
9.69983386993408203 -55.0329780578613281 4.22279882431030273 165 1645019512.06032658 -0.999477624893188477 0.0189985949546098709 0.0240919012576341629 -0.0101567655801773071
15.4693231582641602 -55.2629165649414062 3.84994697570800781 166 1645019512.76084256 -0.999261081218719482 0.0171529185026884079 0.0314094647765159607 -0.0140191810205578804
21.2436389923095703 -55.3624610900878906 3.45014572143554688 167 1645019513.45998359 -0.99945831298828125 -0.00724791456013917923 0.0319581255316734314 -0.0030282018706202507
26.9926033020019531 -54.8287696838378906 3.08509111404418945 168 1645019514.16043925 -0.997283339500427246 -0.0675335228443145752 0.0293297376483678818 -0.00223268824629485607
32.6263580322265625 -53.6078643798828125 2.78791117668151855 169 1645019514.86086059 -0.992829084396362305 -0.117159515619277954 0.0223668478429317474 -0.00798722449690103531
38.1220359802246094 -52.1172370910644531 2.54838824272155762 170 1645019515.56375504 -0.990350484848022461 -0.137561634182929993 0.0119105959311127663 -0.0118702510371804237
43.4645614624023438 -50.387908935546875 2.36732983589172363 171 1645019516.2607913 -0.986200034618377686 -0.16490115225315094 0.0118299871683120728 -0.00878452323377132416
48.5225830078125 -48.2200202941894531 2.24454355239868164 172 1645019516.95964718 -0.971122622489929199 -0.238275811076164246 0.00890546198934316635 0.00813250429928302765
53.0548248291015625 -45.2845306396484375 2.1882627010345459 173 1645019517.66070199 -0.954584598541259766 -0.29788517951965332 0.00489433901384472847 -0.00295009114779531956
57.2527084350585938 -42.0950393676757812 2.17192482948303223 174 1645019518.36038446 -0.946436762809753418 -0.322845548391342163 -6.19619386270642281e-05 -0.00531447399407625198
61.1907501220703125 -38.7295265197753906 2.22691059112548828 175 1645019519.06078696 -0.93628770112991333 -0.350927174091339111 -0.0127090178430080414 -0.00734094623476266861
64.9319686889648438 -35.2788238525390625 2.36216425895690918 176 1645019519.76072073 -0.930632114410400391 -0.365179926156997681 -0.023807307705283165 -0.000800895737484097481
69.1500778198242188 -31.4690322875976562 2.59398746490478516 177 1645019520.56087136 -0.93285602331161499 -0.358979880809783936 -0.0283797457814216614 0.010377880185842514
73.3629302978515625 -27.6283626556396484 2.7581932544708252 178 1645019521.36287808 -0.930777132511138916 -0.365330755710601807 -0.0102157378569245338 0.009112589992582798
77.4890518188476562 -23.8134937286376953 2.94724130630493164 179 1645019522.16189647 -0.92948448657989502 -0.368096441030502319 -0.0178081672638654709 0.015698559582233429
81.5454940795898438 -20.0260868072509766 3.26512885093688965 180 1645019522.96210122 -0.92790520191192627 -0.371441662311553955 -0.0260293334722518921 0.0185877233743667603
85.361572265625 -16.1263408660888672 3.5879826545715332 181 1645019523.76187396 -0.918317556381225586 -0.394486099481582642 -0.0300835017114877701 0.0129843736067414284
88.9748077392578125 -12.0771760940551758 3.88369297981262207 182 1645019524.56428099 -0.910489380359649658 -0.412075221538543701 -0.033660300076007843 0.0083729838952422142
92.484466552734375 -8.06074905395507812 4.19263553619384766 183 1645019525.36051965 -0.914116144180297852 -0.403674274682998657 -0.0377129204571247101 0.00406315363943576813
96.107940673828125 -4.18457794189453125 4.50660037994384766 184 1645019526.16425443 -0.920135438442230225 -0.389527082443237305 -0.0399435125291347504 0.00489117810502648354
99.7433929443359375 -0.471351325511932373 4.82742500305175781 185 1645019526.9598217 -0.92394566535949707 -0.380807220935821533 -0.0361278653144836426 0.00225202529691159725
103.412582397460938 3.10689353942871094 5.18212604522705078 186 1645019527.76300526 -0.927915453910827637 -0.370739758014678955 -0.0390381515026092529 0.00100326084066182375
107.055343627929688 6.56015872955322266 5.54169273376464844 187 1645019528.56311131 -0.929700195789337158 -0.366049230098724365 -0.0402955822646617889 0.00646306388080120087
111.05712890625 10.3680410385131836 5.94309377670288086 188 1645019529.45919943 -0.929391264915466309 -0.366961807012557983 -0.0391691140830516815 0.00605546589940786362
114.98809814453125 14.1275901794433594 6.34698152542114258 189 1645019530.35870337 -0.928468823432922363 -0.368790924549102783 -0.0436235144734382629 0.00598818250000476837
118.912895202636719 17.8194503784179688 6.74096918106079102 190 1645019531.26055408 -0.929042339324951172 -0.367825597524642944 -0.0374481081962585449 0.0135034732520580292
122.581558227539062 21.6035366058349609 7.14044809341430664 191 1645019532.15955138 -0.916040301322937012 -0.398871839046478271 -0.0398779772222042084 0.0134592615067958832
126.10308837890625 25.4500579833984375 7.52034378051757812 192 1645019533.06031036 -0.916303098201751709 -0.398587703704833984 -0.0385572388768196106 0.00545845646411180496
129.430938720703125 29.3523502349853516 7.87623310089111328 193 1645019533.96122265 -0.892495453357696533 -0.44958198070526123 -0.0324434190988540649 0.0165939871221780777
130.658432006835938 32.8177909851074219 8.08836269378662109 194 1645019534.66000342 -0.79086226224899292 -0.611275196075439453 -0.0294169224798679352 0.00376009335741400719
130.428436279296875 36.0076332092285156 8.23009967803955078 195 1645019535.36043715 -0.661619782447814941 -0.749335348606109619 -0.0272492449730634689 0.00363760418258607388
128.506118774414062 39.8815994262695312 8.19631481170654297 196 1645019536.26358557 -0.500158429145812988 -0.86480182409286499 -0.0166374966502189636 -0.0410193391144275665
124.873992919921875 44.0981521606445312 7.77139472961425781 197 1645019537.26025224 -0.375953048467636108 -0.92591559886932373 0.0137701407074928284 -0.0339113622903823853
120.986473083496094 47.3046188354492188 7.73409461975097656 198 1645019538.16051602 -0.33030933141708374 -0.943869113922119141 -0.00108465482480823994 0.0023779822513461113
116.853889465332031 50.788726806640625 7.70304250717163086 199 1645019539.16013646 -0.347335219383239746 -0.937723457813262939 0.00411029765382409096 -0.00401482870802283287
112.8226318359375 54.2884407043457031 7.71990585327148438 200 1645019540.16131997 -0.361604392528533936 -0.932244539260864258 -0.0127250570803880692 0.000652340066153556108
108.977523803710938 57.9580154418945312 7.68511772155761719 201 1645019541.16373682 -0.385873407125473022 -0.922527670860290527 -0.00659566186368465424 0.00093262415612116456
105.300094604492188 61.5696907043457031 7.68363857269287109 202 1645019542.06164217 -0.379252254962921143 -0.925277113914489746 -0.00229474762454628944 -0.00497104227542877197
101.466766357421875 65.2054977416992188 7.64682722091674805 203 1645019542.96140003 -0.372482597827911377 -0.927975356578826904 -0.00467659998685121536 -0.00982644688338041306
97.480224609375 68.93292236328125 7.66646432876586914 204 1645019543.96212769 -0.371883630752563477 -0.928217172622680664 -0.0107416193932294846 -5.77815844735596329e-05
93.8798446655273438 72.4024887084960938 7.72374963760375977 205 1645019544.96102452 -0.379500418901443481 -0.925102174282073975 -0.0118819791823625565 0.00491744419559836388
89.54443359375 75.276702880859375 7.77536869049072266 206 1645019546.26031828 -0.141162678599357605 -0.989763259887695312 0.0208080746233463287 -0.00296868314035236835
88.0331802368164062 74.8604354858398438 7.80226659774780273 207 1645019546.7648015 0.063791520893573761 -0.99785614013671875 0.0145804537460207939 0.00106719881296157837
86.31939697265625 73.7151336669921875 7.78009653091430664 208 1645019547.36330175 0.240899562835693359 -0.970511555671691895 -0.00772816361859440804 -0.00386575167067348957
82.2099380493164062 70.7125091552734375 7.73989391326904297 209 1645019548.56336784 0.328856080770492554 -0.943913936614990234 0.0288160834461450577 -0.00705820135772228241
78.6361007690429688 67.0261383056640625 7.71755361557006836 210 1645019549.56432819 0.399850249290466309 -0.916579067707061768 -0.00132298201788216829 0.000936581403948366642
75.4326553344726562 62.9925804138183594 7.73643827438354492 211 1645019550.46387005 0.456287890672683716 -0.889508843421936035 0.022629808634519577 -0.00795196183025836945
72.9635543823242188 57.9877967834472656 7.69397115707397461 212 1645019551.3652482 0.561689496040344238 -0.827315986156463623 0.0061770118772983551 0.00388374924659729004
71.9114227294921875 52.7837181091308594 7.58816194534301758 213 1645019552.16557455 0.657131791114807129 -0.753694236278533936 0.00145186623558402061 -0.0109876077622175217
70.6789932250976562 47.6486740112304688 7.43755149841308594 214 1645019552.96454787 0.597249388694763184 -0.801846325397491455 -0.00491300970315933228 -0.0176491383463144302
68.4423828125 43.0832099914550781 7.26940488815307617 215 1645019553.76548529 0.483363687992095947 -0.875151455402374268 -0.0125123290345072746 -0.0176909826695919037
64.7014389038085938 39.0384368896484375 7.10901308059692383 216 1645019554.66472173 0.383481413125991821 -0.923325240612030029 0.00797397643327713013 -0.0186798200011253357
61.0376777648925781 35.3931541442871094 6.93038558959960938 217 1645019555.46614814 0.379165351390838623 -0.925146341323852539 0.00250617717392742634 -0.018210558220744133
57.1460647583007812 31.3960704803466797 6.74057722091674805 218 1645019556.26629829 0.388772517442703247 -0.921122252941131592 0.00327246915549039841 -0.0194682329893112183
53.658111572265625 27.7291851043701172 6.61278963088989258 219 1645019556.96225572 0.394711405038833618 -0.918742656707763672 0.00543060246855020523 -0.0092401411384344101
50.1273880004882812 24.0169944763183594 6.5734705924987793 220 1645019557.66294026 0.386304944753646851 -0.922363758087158203 0.00109350052662193775 0.00351702887564897537
46.5188179016113281 20.3571949005126953 6.5862274169921875 221 1645019558.36464715 0.376542776823043823 -0.92632526159286499 -0.00871332548558712006 0.00781781226396560669
42.8366851806640625 16.7716865539550781 6.55876922607421875 222 1645019559.06616998 0.377283483743667603 -0.926080107688903809 -0.00554978940635919571 0.00140421814285218716
39.1439056396484375 13.2175416946411133 6.54013919830322266 223 1645019559.76397681 0.370226174592971802 -0.928919374942779541 -0.00633391039445996284 -0.0011179422726854682
35.4054794311523438 9.69109439849853516 6.5067753791809082 224 1645019560.46377444 0.367286503314971924 -0.930076003074645996 -0.00430635688826441765 -0.0063795335590839386
31.6125144958496094 6.22050237655639648 6.50044059753417969 225 1645019561.16818714 0.362828940153121948 -0.931828320026397705 0.00629128376021981239 -0.00340869114734232426
27.8743495941162109 2.74060463905334473 6.4841160774230957 226 1645019561.8664093 0.365479528903961182 -0.930777192115783691 0.00739445770159363747 -0.00488762138411402702
24.1911869049072266 -0.815180063247680664 6.49154853820800781 227 1645019562.5659349 0.379996567964553833 -0.924898445606231689 0.0108055761083960533 -0.00698078563436865807
20.5010967254638672 -4.32605123519897461 6.51433753967285156 228 1645019563.2667017 0.343581080436706543 -0.939104795455932617 -0.00191555998753756285 0.00552859110757708549
15.5508813858032227 -7.03440093994140625 6.72688198089599609 229 1645019564.06531262 0.186254352331161499 -0.982274293899536133 0.00590718258172273636 0.020288076251745224
10.1632623672485352 -8.13257026672363281 7.01754522323608398 230 1645019564.86367774 0.091450221836566925 -0.99476248025894165 0.0299518294632434845 0.0344577692449092865
4.87931013107299805 -8.98394584655761719 7.47179889678955078 231 1645019565.66450429 0.075886555016040802 -0.995072126388549805 0.0295312982052564621 0.0565733090043067932
-0.240367725491523743 -9.48129940032958984 7.91141748428344727 232 1645019566.46718335 0.0207367930561304092 -0.998510241508483887 0.0141775272786617279 0.0484386049211025238
-5.24666452407836914 -9.28498077392578125 8.25628376007080078 233 1645019567.26467562 -0.0381166040897369385 -0.998573541641235352 0.0181387215852737427 0.0326950922608375549
-10.548558235168457 -8.56103801727294922 8.45815277099609375 234 1645019568.16510868 -0.0842871963977813721 -0.9962921142578125 0.00398078188300132751 0.0167894717305898666
-15.848785400390625 -7.03738212585449219 8.53069972991943359 235 1645019569.16223311 -0.170855626463890076 -0.985254526138305664 -0.00224246620200574398 0.00876349210739135742
-20.1951980590820312 -4.4741673469543457 8.59570026397705078 236 1645019570.06296277 -0.311127603054046631 -0.950326800346374512 -0.000486945558805018663 0.00885336566716432571
-24.3839588165283203 -1.25027060508728027 8.67725944519042969 237 1645019571.06228709 -0.270743101835250854 -0.962105929851531982 0.0274562966078519821 0.0172192249447107315
-29.3800640106201172 -0.352827638387680054 8.79819393157958984 238 1645019572.16453338 0.0128860492259263992 -0.999495267868041992 0.0286219902336597443 0.00488747609779238701
-33.0564079284667969 -2.62925624847412109 8.80788230895996094 239 1645019573.16336632 0.349305719137191772 -0.936046838760375977 0.0392911583185195923 -0.0160625260323286057
-34.1814117431640625 -4.77499532699584961 8.78705215454101562 240 1645019573.66589665 0.522203147411346436 -0.851677596569061279 0.0322404317557811737 -0.0301612112671136856
-34.4394035339355469 -7.26464653015136719 8.74440574645996094 241 1645019574.16228914 0.68035966157913208 -0.731157064437866211 0.0241701193153858185 -0.0439985841512680054
-33.3168792724609375 -11.4200868606567383 8.64302444458007812 242 1645019574.96339369 0.802275359630584717 -0.596389472484588623 0.00378631358034908772 -0.0256819929927587509
-31.8385124206542969 -16.6144008636474609 8.51450061798095703 243 1645019575.86026454 0.789951682090759277 -0.612909138202667236 0.0031511655542999506 -0.017572471871972084
-30.8736858367919922 -21.6908226013183594 8.34163188934326172 244 1645019576.66319656 0.761264622211456299 -0.64772331714630127 -0.00167507596779614687 -0.030460357666015625
-30.2741165161132812 -26.6514816284179688 8.11142921447753906 245 1645019577.46093917 0.741034924983978271 -0.670781970024108887 -0.013417733833193779 -0.027179129421710968
-29.7390823364257812 -32.1990470886230469 7.81430912017822266 246 1645019578.36431265 0.725753307342529297 -0.687240958213806152 -0.0309143979102373123 -0.00512758875265717506
-29.5669727325439453 -37.1908187866210938 7.54091787338256836 247 1645019579.16755939 0.713135302066802979 -0.700036048889160156 -0.0366898588836193085 -0.00643452303484082222
-29.6652469635009766 -42.6590576171875 7.22797250747680664 248 1645019580.06324172 0.695082187652587891 -0.717886745929718018 -0.0370784848928451538 -0.0111615275964140892
-29.4889125823974609 -47.8336257934570312 6.96361732482910156 249 1645019581.06604123 0.750759363174438477 -0.658994853496551514 -0.0281434152275323868 -0.0359738804399967194
-28.0214080810546875 -50.5321578979492188 6.76502037048339844 250 1645019581.86284447 0.865160763263702393 -0.499408334493637085 -0.0389191582798957825 -0.0239478424191474915
-26.2141914367675781 -51.9713592529296875 6.59688758850097656 251 1645019582.46319604 0.941170156002044678 -0.335924595594406128 -0.0323094837367534637 -0.0175912510603666306
-14.6254959106445312 -53.7178459167480469 5.86502838134765625 252 1645019584.56498265 0.999175488948822021 -0.0229728706181049347 -0.0294875279068946838 0.0158470794558525085
0.997565090656280518 -54.3822593688964844 4.81627273559570312 253 1645019586.6641736 0.997487008571624756 -0.0590031929314136505 -0.037003885954618454 0.0129993027076125145
16.7866497039794922 -55.5818061828613281 3.75160050392150879 254 1645019588.66436338 0.998855948448181152 0.0257571190595626831 -0.0399243384599685669 0.00542876590043306351
32.8557319641113281 -53.468109130859375 2.77508378028869629 255 1645019590.66577816 0.994214117527008057 0.104773223400115967 -0.0218076799064874649 0.00923300068825483322
48.5163803100585938 -47.9823188781738281 2.23827290534973145 256 1645019592.76280594 0.972326874732971191 0.233603835105895996 -0.00309894373640418053 -0.000270858436124399304
61.3342208862304688 -38.8228988647460938 2.23411321640014648 257 1645019594.86280394 0.934948503971099854 0.35451015830039978 0.0139224706217646599 -0.00019699901167768985
71.4966049194335938 -28.7464332580566406 2.7035067081451416 258 1645019596.86318731 0.9279823899269104 0.371940702199935913 0.0215127691626548767 -0.00677973683923482895
81.644683837890625 -19.1526260375976562 3.30155754089355469 259 1645019598.86532187 0.931736886501312256 0.361705005168914795 0.0290055330842733383 -0.0139470510184764862
91.8644561767578125 -9.32381629943847656 4.11421537399291992 260 1645019600.96557164 0.923703432083129883 0.381809085607528687 0.0309357363730669022 -0.00606153346598148346
101.080787658691406 0.895172774791717529 4.95393848419189453 261 1645019603.06417036 0.908034026622772217 0.417259842157363892 0.0367911309003829956 -0.00385385914705693722
109.694419860839844 10.1901559829711914 5.84147405624389648 262 1645019605.06514931 0.919741809368133545 0.390809237957000732 0.0366286113858222961 -0.00122804776765406132
118.286872863769531 18.8404541015625 6.73909330368041992 263 1645019607.06785107 0.925183534622192383 0.377530038356781006 0.0364099964499473572 -0.013445679098367691
126.771530151367188 26.2677040100097656 7.58528232574462891 264 1645019609.06849504 0.953094244003295898 0.300497919321060181 0.0354418009519577026 -0.00749790947884321213
133.646377563476562 29.6129379272460938 8.16377067565917969 265 1645019611.06868935 0.986189663410186768 0.162096321582794189 0.030880538746714592 -0.0141820991411805153
138.734893798828125 29.9340553283691406 8.40599346160888672 266 1645019612.36818171 0.999197781085968018 -0.0132818669080734253 0.0277303922921419144 -0.0256605073809623718
143.984634399414062 28.4228782653808594 8.61092758178710938 267 1645019613.56812072 0.978161931037902832 -0.206450462341308594 0.0149035826325416565 -0.0188501793891191483
147.99139404296875 25.3403434753417969 8.62957191467285156 268 1645019614.56654906 0.933520376682281494 -0.35777631402015686 0.00420858524739742279 -0.0227617956697940826
151.643585205078125 21.6937274932861328 8.52150058746337891 269 1645019615.46750879 0.922257781028747559 -0.385494828224182129 -0.0107246590778231621 -0.0268203020095825195
155.336196899414062 18.2042064666748047 8.33524131774902344 270 1645019616.26885557 0.931468486785888672 -0.362698465585708618 -0.00942215230315923691 -0.0269713066518306732
159.438751220703125 14.455662727355957 8.11823940277099609 271 1645019617.06696796 0.928826689720153809 -0.369604200124740601 -0.0124761825427412987 -0.0227619409561157227
163.160385131835938 10.960474967956543 7.92404031753540039 272 1645019617.76802611 0.929919242858886719 -0.366790115833282471 -0.010827227495610714 -0.0244527664035558701
166.985260009765625 7.41802072525024414 7.75097274780273438 273 1645019618.46819329 0.931588530540466309 -0.362971186637878418 -0.00855371169745922089 -0.0179329551756381989
170.691253662109375 3.62673187255859375 7.56113529205322266 274 1645019619.16969252 0.918224692344665527 -0.395592033863067627 -0.0113323787227272987 -0.0155546450987458229
174.309188842773438 -0.217173412442207336 7.35964775085449219 275 1645019619.86985278 0.923119425773620605 -0.383383810520172119 -0.00570100126788020134 -0.0288946758955717087
178.01763916015625 -3.96200394630432129 7.21555709838867188 276 1645019620.56783342 0.922613561153411865 -0.384725809097290039 0.004967457614839077 -0.0273064151406288147
181.826644897460938 -7.62164402008056641 7.03845787048339844 277 1645019621.26770473 0.927186906337738037 -0.373972803354263306 0.00490579381585121155 -0.0210871193557977676
185.652664184570312 -11.2412652969360352 6.93340158462524414 278 1645019621.96760058 0.926851153373718262 -0.37484365701675415 0.010692056268453598 -0.0180226080119609833
189.37713623046875 -14.8130512237548828 6.89990711212158203 279 1645019622.66886258 0.929254770278930664 -0.3686026930809021 0.00968203414231538773 -0.0228882972151041031
193.662078857421875 -18.4930858612060547 6.87484931945800781 280 1645019623.46839952 0.941526532173156738 -0.336073637008666992 4.51756241091061383e-05 -0.0241297762840986252
197.741455078125 -22.0110492706298828 6.74380254745483398 281 1645019624.26952624 0.93869471549987793 -0.344152480363845825 -0.00416867993772029877 -0.0198477990925312042
201.874893188476562 -25.4565486907958984 6.65632200241088867 282 1645019625.06994772 0.941039204597473145 -0.336946964263916016 0.00212326389737427235 -0.0301240049302577972
206.421737670898438 -28.7477378845214844 6.61832857131958008 283 1645019625.87107682 0.954781055450439453 -0.29631340503692627 0.0116541553288698196 -0.0213480070233345032
