# .PCD v0.7 - Point Cloud Data file format
VERSION 0.7
FIELDS x y z intensity t qx qy qz qw
SIZE 4 4 4 4 8 4 4 4 4
TYPE F F F F F F F F F
COUNT 1 1 1 1 1 1 1 1 1
WIDTH 275
HEIGHT 1
VIEWPOINT 0 0 0 1 0 0 0
POINTS 275
DATA ascii
323.4630126953125 -176.185134887695312 0.482187062501907349 174 1645007892.46863604 -0.290376424789428711 0.956650137901306152 0.00674377894029021263 0.0213676746934652328
318.969024658203125 -178.645889282226562 0.213860079646110535 175 1645007893.27078724 -0.234627276659011841 0.971692144870758057 -0.000972542446106672287 0.0276310723274946213
314.03936767578125 -180.876266479492188 -0.0642215311527252197 176 1645007894.0711925 -0.209686920046806335 0.977222323417663574 -0.0102245975285768509 0.0310388784855604172
309.001007080078125 -183.117691040039062 -0.343439847230911255 177 1645007894.86924338 -0.205368384718894958 0.97799992561340332 -0.0155979134142398834 0.0331162065267562866
303.875640869140625 -185.34747314453125 -0.601080000400543213 178 1645007895.66782975 -0.199448093771934509 0.979324460029602051 -0.0194787867367267609 0.0276524554938077927
298.700714111328125 -187.51080322265625 -0.81920856237411499 179 1645007896.46870756 -0.191923663020133972 0.980915606021881104 -0.0206096302717924118 0.0233469735831022263
293.5009765625 -189.59002685546875 -1.01146507263183594 180 1645007897.27013755 -0.181402772665023804 0.983044207096099854 -0.0182063542306423187 0.0196370221674442291
288.257904052734375 -191.536636352539062 -1.18577396869659424 181 1645007898.07262444 -0.171395435929298401 0.98478245735168457 -0.0216623377054929733 0.0189168825745582581
283.025238037109375 -193.369033813476562 -1.36765718460083008 182 1645007898.87044644 -0.162260711193084717 0.986376106739044189 -0.0188677869737148285 0.0194331686943769455
277.760101318359375 -195.098098754882812 -1.52989077568054199 183 1645007899.66974711 -0.154376134276390076 0.987568140029907227 -0.0187882967293262482 0.0228959955275058746
272.427093505859375 -196.742385864257812 -1.72235786914825439 184 1645007900.47160435 -0.144573867321014404 0.988716363906860352 -0.0160257518291473389 0.0357976444065570831
267.1417236328125 -198.303131103515625 -1.88951313495635986 185 1645007901.27308154 -0.142671748995780945 0.989596307277679443 -0.0134621867910027504 0.0127544309943914413
261.773681640625 -199.762741088867188 -2.08068633079528809 186 1645007902.07370377 -0.127151355147361755 0.991561412811279297 -0.0147117031738162041 0.0205434095114469528
256.419830322265625 -201.050003051757812 -2.26797723770141602 187 1645007902.86744928 -0.116197980940341949 0.99289935827255249 -0.0124528305605053902 0.0222224090248346329
251.033660888671875 -202.476531982421875 -2.45573782920837402 188 1645007903.67026758 -0.141185924410820007 0.989706218242645264 -0.0171408038586378098 0.015948152169585228
245.72015380859375 -204.18255615234375 -2.66198348999023438 189 1645007904.4714241 -0.152864277362823486 0.987900912761688232 -0.0123268356546759605 0.0230736508965492249
240.4273681640625 -205.773086547851562 -2.85682106018066406 190 1645007905.26867151 -0.134949937462806702 0.990677237510681152 -0.00744876591488718987 0.0170782897621393204
235.026077270507812 -207.16143798828125 -3.01684284210205078 191 1645007906.06998801 -0.121687926352024078 0.992368817329406738 -0.0135135194286704063 0.0146118393167853355
229.697662353515625 -208.414306640625 -3.14472484588623047 192 1645007906.86548829 -0.109208479523658752 0.99379885196685791 -0.0136673515662550926 0.0158271398395299911
224.287933349609375 -209.525970458984375 -3.30204463005065918 193 1645007907.66597795 -0.0934395864605903625 0.995360314846038818 -0.0162417888641357422 0.0162210091948509216
218.863693237304688 -210.521957397460938 -3.47751975059509277 194 1645007908.46432638 -0.0816291496157646179 0.996467888355255127 -0.0109101319685578346 0.0164128057658672333
213.41436767578125 -211.385940551757812 -3.6206061840057373 195 1645007909.26593733 -0.070595085620880127 0.997371435165405273 -0.00919079780578613281 0.0134955402463674545
207.965057373046875 -212.148101806640625 -3.78255987167358398 196 1645007910.06497192 -0.0619380995631217957 0.997934043407440186 -0.00674894265830516815 0.015676204115152359
202.506851196289062 -212.820220947265625 -3.93178009986877441 197 1645007910.86500621 -0.0550163052976131439 0.998374402523040771 -0.00517947133630514145 0.0139606418088078499
197.034698486328125 -213.388534545898438 -4.09787178039550781 198 1645007911.6651783 -0.0543096810579299927 0.998245596885681152 -0.0125403851270675659 0.0199729260057210922
191.573150634765625 -214.0030517578125 -4.26458311080932617 199 1645007912.46385694 -0.0521438084542751312 0.998431384563446045 -0.0100888218730688095 0.0177191533148288727
186.103546142578125 -214.53082275390625 -4.41208457946777344 200 1645007913.26469517 -0.0424580760300159454 0.999000728130340576 -0.00516626471653580666 0.0129658570513129234
180.599258422851562 -214.934677124023438 -4.59531450271606445 201 1645007914.06438279 -0.027284989133477211 0.999457299709320068 0.000879583763889968395 0.0184365212917327881
175.099472045898438 -215.215667724609375 -4.77815151214599609 202 1645007914.86343431 -0.0168346650898456573 0.999694287776947021 0.000501403177622705698 0.0181033164262771606
169.594573974609375 -215.410858154296875 -4.93244075775146484 203 1645007915.66391754 -0.00708260852843523026 0.999912083148956299 0.00504055200144648552 0.0100131994113326073
164.117233276367188 -215.506851196289062 -5.02576875686645508 204 1645007916.46332645 -0.00744793005287647247 0.999923944473266602 -0.0037281473632901907 0.00909420941025018692
158.68701171875 -215.711929321289062 -5.10402631759643555 205 1645007917.26325417 -0.0148280253633856773 0.999843716621398926 -0.00410561589524149895 0.00871058367192745209
153.310272216796875 -215.961563110351562 -5.17235279083251953 206 1645007918.0626936 -0.0198170896619558334 0.999788165092468262 0.000330639304593205452 0.0055444701574742794
147.921981811523438 -216.2227783203125 -5.24949359893798828 207 1645007918.86358523 -0.0198894105851650238 0.999757051467895508 0.00648769503459334373 0.00693652546033263206
142.593246459960938 -216.465484619140625 -5.27088165283203125 208 1645007919.66373825 -0.0192024149000644684 0.999802052974700928 0.00519705191254615784 -0.000260487257037311792
137.26788330078125 -216.695358276367188 -5.3061065673828125 209 1645007920.46362114 -0.0197332669049501419 0.999755740165710449 0.000105033373984042555 0.0099520096555352211
132.001419067382812 -216.980224609375 -5.3217320442199707 210 1645007921.26468444 -0.0210178643465042114 0.99972999095916748 0.00404071388766169548 -0.00904965586960315704
126.690681457519531 -217.27679443359375 -5.33604288101196289 211 1645007922.06803989 -0.0270144250243902206 0.999626755714416504 0.00264776451513171196 0.00308550707995891571
121.44293212890625 -217.58502197265625 -5.35030317306518555 212 1645007922.86535835 -0.0253794696182012558 0.999667823314666748 0.00381700578145682812 0.00236404780298471451
116.194664001464844 -217.857681274414062 -5.3404545783996582 213 1645007923.66600108 -0.0176481921225786209 0.99983978271484375 0.00299465004354715347 0.000171330597368068993
110.956436157226562 -218.080673217773438 -5.32362174987792969 214 1645007924.46657562 -0.0153311723843216896 0.999870121479034424 0.00480754673480987549 -0.00125078181736171246
105.71490478515625 -218.422775268554688 -5.34818792343139648 215 1645007925.26705599 -0.0323548763990402222 0.999412477016448975 0.0112794516608119011 0.000827876327093690634
100.486091613769531 -218.826263427734375 -5.34169101715087891 216 1645007926.06803465 -0.028365161269903183 0.99946129322052002 0.0160939507186412811 -0.00367516581900417805
95.2179031372070312 -219.179351806640625 -5.34237575531005859 217 1645007926.86801577 -0.0227468740195035934 0.999503612518310547 0.0217770114541053772 0.000924811116419732571
89.9862060546875 -219.44097900390625 -5.32343006134033203 218 1645007927.66669226 -0.0206886418163776398 0.999597728252410889 0.0190516430884599686 0.00366631243377923965
84.756134033203125 -219.63092041015625 -5.30357551574707031 219 1645007928.46648192 -0.0110048828646540642 0.999775469303131104 0.0180952176451683044 0.000679866934660822153
79.4908218383789062 -219.73858642578125 -5.32987499237060547 220 1645007929.26758194 -0.00420836359262466431 0.999834656715393066 0.0176890231668949127 8.80685911397449672e-06
74.2430648803710938 -219.73248291015625 -5.31502437591552734 221 1645007930.06464362 0.00123177398927509785 0.999918460845947266 0.0120962373912334442 -0.00389876146800816059
69.02923583984375 -219.617263793945312 -5.26264476776123047 222 1645007930.8631146 0.0128646176308393478 0.999887466430664062 0.00233343406580388546 -0.00735896360129117966
63.8358497619628906 -219.439834594726562 -5.21027898788452148 223 1645007931.66355419 0.0225936602801084518 0.999718070030212402 -0.00659860391169786453 -0.00313321920111775398
58.6126327514648438 -219.1923828125 -5.17483186721801758 224 1645007932.46635246 0.0302497576922178268 0.999473273754119873 -0.0116238342598080635 0.00172729347832500935
53.425262451171875 -218.815231323242188 -5.16413974761962891 225 1645007933.2628479 0.0488232709467411041 0.99878227710723877 -0.00679567083716392517 0.00202996889129281044
48.2782096862792969 -218.007980346679688 -5.16270542144775391 226 1645007934.06215596 0.0949514880776405334 0.995470225811004639 -0.00474897259846329689 -0.000854127807542681694
43.2299423217773438 -216.579177856445312 -5.17375802993774414 227 1645007934.86275601 0.153491616249084473 0.988084495067596436 -0.0113326031714677811 0.000946367101278156042
38.3497505187988281 -214.596832275390625 -5.19720840454101562 228 1645007935.66342592 0.213138893246650696 0.976974189281463623 -0.00954595860093832016 0.00147233356256037951
33.72088623046875 -212.105270385742188 -5.21081352233886719 229 1645007936.46276236 0.263060539960861206 0.964719176292419434 -0.0107450038194656372 -0.000738490256480872631
29.3190212249755859 -209.237960815429688 -5.23135471343994141 230 1645007937.26172018 0.300717025995254517 0.95364844799041748 -0.0110700717195868492 0.0011830013245344162
25.1378173828125 -206.066070556640625 -5.21694278717041016 231 1645007938.06183505 0.332266330718994141 0.943173348903656006 -0.00325778010301291943 -0.00354200485162436962
21.2165966033935547 -202.66741943359375 -5.15706872940063477 232 1645007938.86318898 0.356049865484237671 0.934245705604553223 0.00611556973308324814 -0.0193925816565752029
17.3825092315673828 -199.183563232421875 -5.07428789138793945 233 1645007939.66285276 0.370480895042419434 0.928804218769073486 -0.00229692389257252216 -0.00783556047827005386
13.5719747543334961 -195.714630126953125 -4.99172258377075195 234 1645007940.4625237 0.369150251150131226 0.929329216480255127 0.00838980916887521744 -0.00221641524694859982
9.44579410552978516 -191.867477416992188 -4.6959233283996582 235 1645007941.36284828 0.372074484825134277 0.92780691385269165 0.0131432460620999336 -0.0237098392099142075
5.69318199157714844 -188.423233032226562 -4.66117429733276367 236 1645007942.1631434 0.366577357053756714 0.93015289306640625 0.015279257670044899 -0.014253704808652401
1.60254013538360596 -184.594863891601562 -4.36735343933105469 237 1645007943.06166959 0.368972063064575195 0.928841769695281982 0.0124851111322641373 -0.0309306494891643524
-2.50768685340881348 -180.788040161132812 -4.07962894439697266 238 1645007943.96502638 0.365068227052688599 0.930576920509338379 0.010413825511932373 -0.0253640543669462204
-6.57755422592163086 -177.062423706054688 -3.77862310409545898 239 1645007944.86193419 0.366343647241592407 0.929933905601501465 0.0159319695085287094 -0.0275946296751499176
-10.6761636734008789 -173.42230224609375 -3.42544770240783691 240 1645007945.76272655 0.360803484916687012 0.931753933429718018 0.0269868504256010056 -0.0304503347724676132
-14.7563943862915039 -169.802261352539062 -3.06734609603881836 241 1645007946.6628592 0.359743446111679077 0.932073533535003662 0.0282877087593078613 -0.0319901555776596069
-18.8126583099365234 -166.223556518554688 -2.66701555252075195 242 1645007947.56229925 0.355532199144363403 0.933682739734649658 0.0277815982699394226 -0.0325827933847904205
-22.8617706298828125 -162.67578125 -2.28940010070800781 243 1645007948.46421075 0.360199689865112305 0.931984007358551025 0.0286034513264894485 -0.0290485098958015442
-26.8195610046386719 -159.108612060546875 -1.92738890647888184 244 1645007949.3626194 0.369522899389266968 0.92816925048828125 0.0374737903475761414 -0.0234611295163631439
-30.4945487976074219 -155.400848388671875 -1.44652056694030762 245 1645007950.26623893 0.388565599918365479 0.919635593891143799 0.0334587395191192627 -0.0465577095746994019
-34.095001220703125 -151.734649658203125 -0.995529413223266602 246 1645007951.16521311 0.386421501636505127 0.920916318893432617 0.0273411646485328674 -0.0429413020610809326
-37.6526336669921875 -148.236038208007812 -0.543883025646209717 247 1645007952.06621814 0.376616746187210083 0.92527848482131958 0.0200038347393274307 -0.0402416698634624481
-41.6251182556152344 -144.476699829101562 -0.0756992697715759277 248 1645007953.06562495 0.370117455720901489 0.928108394145965576 0.0131407035514712334 -0.0381464958190917969
-45.5574188232421875 -140.814239501953125 0.357647925615310669 249 1645007954.06687427 0.365655690431594849 0.92973703145980835 0.0102386763319373131 -0.0421921424567699432
-49.3883438110351562 -137.09088134765625 0.792288422584533691 250 1645007955.06549215 0.392153412103652954 0.918929934501647949 0.0135678369551897049 -0.0399916842579841614
-52.7947921752929688 -132.88751220703125 1.18038177490234375 251 1645007956.06505775 0.452670365571975708 0.89083629846572876 0.0132618201896548271 -0.0363913588225841522
-55.6388664245605469 -128.154434204101562 1.56430160999298096 252 1645007957.06571198 0.503428876399993896 0.863174915313720703 0.00290912552736699581 -0.038470737636089325
-57.913665771484375 -123.691200256347656 1.94218719005584717 253 1645007957.96660376 0.527632772922515869 0.848066031932830811 0.000840288528706878424 -0.0488564148545265198
-59.9776153564453125 -119.125434875488281 2.34395503997802734 254 1645007958.86451483 0.548165738582611084 0.834875524044036865 0.00378819531761109829 -0.0498280525207519531
-61.8099250793457031 -114.468292236328125 2.78611016273498535 255 1645007959.76651311 0.568981945514678955 0.820816755294799805 0.00879705511033535004 -0.0494160763919353485
-63.5842857360839844 -109.2532958984375 3.25592207908630371 256 1645007960.76660252 0.591594159603118896 0.804984390735626221 0.0138073693960905075 -0.0427300930023193359
-64.8979721069335938 -103.887962341308594 3.64216804504394531 257 1645007961.76440024 0.63875889778137207 0.768630564212799072 0.01931801438331604 -0.0286517627537250519
-65.3924789428710938 -98.8860321044921875 4.02061939239501953 258 1645007962.66575933 0.686313331127166748 0.726341664791107178 0.0214168298989534378 -0.0307102538645267487
-65.2750930786132812 -93.8644180297851562 4.43383121490478516 259 1645007963.56468391 0.722489118576049805 0.690137743949890137 0.0195045042783021927 -0.0365917086601257324
-64.9129257202148438 -88.4057464599609375 4.98236989974975586 260 1645007964.56448793 0.73415839672088623 0.675501525402069092 0.0387583225965499878 -0.0566293038427829742
-64.477325439453125 -83.4113845825195312 5.26985263824462891 261 1645007965.46514797 0.739588677883148193 0.671397745609283447 0.0286995507776737213 -0.0375498607754707336
-63.8810195922851562 -77.9234237670898438 5.71193695068359375 262 1645007966.46860576 0.739358186721801758 0.671940624713897705 0.0217668134719133377 -0.0370327569544315338
-63.7046127319335938 -72.4053955078125 6.12664079666137695 263 1645007967.46861649 0.704640567302703857 0.708438634872436523 0.022722223773598671 -0.0328645408153533936
-63.8923263549804688 -67.3653945922851562 6.53219223022460938 264 1645007968.46585751 0.706083893775939941 0.707053899765014648 0.0262873787432909012 -0.0287975873798131943
-63.5012474060058594 -62.2018852233886719 6.95853471755981445 265 1645007969.86214066 0.740563392639160156 0.670908510684967041 0.0188504923135042191 -0.0330499857664108276
-62.2755241394042969 -57.1219558715820312 7.38453102111816406 266 1645007971.66274643 0.820784926414489746 0.56973034143447876 0.0206436570733785629 -0.0359614714980125427
-59.6665420532226562 -53.6637039184570312 7.62991619110107422 267 1645007973.06240678 0.907837748527526855 0.417101860046386719 0.0126179410144686699 -0.0412006266415119171
-55.844970703125 -51.1237220764160156 7.79377985000610352 268 1645007974.26304436 0.96950918436050415 0.241394862532615662 0.00531578995287418365 -0.0418599359691143036
-51.7137260437011719 -50.326934814453125 7.79198026657104492 269 1645007975.16476417 0.998480439186096191 0.0455278754234313965 -0.00320489425212144852 -0.030882740393280983
-46.3244285583496094 -50.8592872619628906 7.47400522232055664 270 1645007976.16581678 0.99525141716003418 -0.0915306210517883301 -0.0331140980124473572 -0.000475843320600688457
-41.1969451904296875 -51.7694778442382812 7.2657012939453125 271 1645007977.06614232 0.996533691883087158 -0.07870512455701828 -0.0218862127512693405 0.0157186128199100494
-35.70654296875 -51.8968009948730469 7.10730361938476562 272 1645007977.96724677 0.999675095081329346 0.0038146250881254673 -0.0110411159694194794 -0.0226538665592670441
-30.615478515625 -52.2299537658691406 6.87539815902709961 273 1645007978.76583719 0.997889220714569092 -0.057704538106918335 -0.0282077286392450333 -0.0095736505463719368
-25.4393405914306641 -52.7248268127441406 6.53765249252319336 274 1645007979.56371474 0.997614204883575439 -0.0544915460050106049 -0.0423671342432498932 -0.00127091654576361179
-20.0790386199951172 -52.9991645812988281 6.15694570541381836 275 1645007980.3651247 0.998713552951812744 -0.0320805497467517853 -0.0355974212288856506 0.0165785625576972961
-14.5334939956665039 -53.1943130493164062 5.8260960578918457 276 1645007981.16404438 0.999195635318756104 -0.0192431621253490448 -0.0344432331621646881 0.00717259477823972702
-8.83478736877441406 -53.4155998229980469 5.44951963424682617 277 1645007981.96552491 0.999043762683868408 -0.0263515710830688477 -0.0346139930188655853 0.00436443183571100235
-3.76387476921081543 -53.7201919555664062 5.10557794570922852 278 1645007982.66242433 0.998567402362823486 -0.0399933569133281708 -0.0345796830952167511 0.00824298802763223648
1.41781878471374512 -54.0953559875488281 4.7704014778137207 279 1645007983.36227226 0.998694360256195068 -0.032752644270658493 -0.0387939885258674622 -0.00564969750121235847
6.63057804107666016 -54.3162879943847656 4.40313196182250977 280 1645007984.06286621 0.999023318290710449 -0.0210670735687017441 -0.0382731705904006958 -0.0066157258115708828
11.826664924621582 -54.4584236145019531 4.0616765022277832 281 1645007984.7660408 0.999110877513885498 -0.0309914927929639816 -0.0227820537984371185 0.0172619186341762543
17.1209163665771484 -54.7545242309570312 3.69951462745666504 282 1645007985.46324944 0.998552501201629639 -0.0355990976095199585 -0.036335378885269165 0.0174726545810699463
22.471771240234375 -54.9470405578613281 3.33931636810302734 283 1645007986.16126728 0.999142110347747803 -0.00803939718753099442 -0.0398477278649806976 0.00791191775351762772
27.8169269561767578 -54.5370521545410156 3.01839113235473633 284 1645007986.86110878 0.997705042362213135 0.0583456531167030334 -0.0342975035309791565 0.00202334136702120304
33.0702285766601562 -53.4315452575683594 2.75412654876708984 285 1645007987.56155729 0.993446290493011475 0.112035587430000305 -0.0210946444422006607 0.00821936503052711487
38.199249267578125 -51.959869384765625 2.53581357002258301 286 1645007988.2615366 0.988809168338775635 0.148147091269493103 -0.0123424017801880836 0.0125102503225207329
43.1691627502441406 -50.1554450988769531 2.34851193428039551 287 1645007988.96077037 0.982804238796234131 0.184088543057441711 -0.0100317215546965599 0.0103257261216640472
47.9524269104003906 -48.0451202392578125 2.2241206169128418 288 1645007989.6618495 0.977274060249328613 0.210965618491172791 -0.0194661319255828857 0.0070705832913517952
52.3890533447265625 -45.6791572570800781 2.18624544143676758 289 1645007990.36171007 0.968018233776092529 0.250759899616241455 -0.00312662404030561447 0.00710064545273780823
57.0924491882324219 -42.6570968627929688 2.17109584808349609 290 1645007991.16150784 0.955965101718902588 0.29340025782585144 0.000156993904965929687 0.00685366848483681679
61.3233108520507812 -39.3602790832519531 2.23266029357910156 291 1645007991.96155572 0.943801701068878174 0.330287784337997437 0.0119559271261096001 0.0023317758459597826
65.234893798828125 -35.8303184509277344 2.36256504058837891 292 1645007992.76184368 0.931913673877716064 0.362234979867935181 0.0179533511400222778 -0.000643160659819841385
68.8377914428710938 -32.2021408081054688 2.55271697044372559 293 1645007993.56140661 0.919299602508544922 0.39237627387046814 0.0301423817873001099 -0.00452838931232690811
72.348724365234375 -28.4834098815917969 2.71753382682800293 294 1645007994.36173129 0.918692111968994141 0.394824802875518799 0.00977814290672540665 -0.00474438443779945374
75.760498046875 -24.7334823608398438 2.86053776741027832 295 1645007995.16180611 0.916401386260986328 0.39998963475227356 0.0142857171595096588 -0.00356919015757739544
79.5417327880859375 -20.5946083068847656 3.15354776382446289 296 1645007996.0608151 0.915158689022064209 0.401798039674758911 0.0283372774720191956 -0.0154883023351430893
83.2601852416992188 -16.4372177124023438 3.45959711074829102 297 1645007996.9605639 0.915056884288787842 0.402223974466323853 0.0290116928517818451 -0.00671809865161776543
87.06719970703125 -12.405156135559082 3.7540898323059082 298 1645007997.86066699 0.924609363079071045 0.379778742790222168 0.0292216502130031586 0.00342735694721341133
91.0499038696289062 -8.61664867401123047 4.08361625671386719 299 1645007998.75971365 0.930093944072723389 0.365899205207824707 0.0322967059910297394 7.31490945327095687e-05
95.0398788452148438 -4.83395290374755859 4.4226527214050293 300 1645007999.66240263 0.930700957775115967 0.364588350057601929 0.0287828817963600159 -0.00652650324627757072
98.9286575317382812 -0.992507457733154297 4.75417137145996094 301 1645008000.561234 0.924331843852996826 0.380215346813201904 0.0323031581938266754 -0.00185530155431479216
102.766860961914062 2.86259984970092773 5.12409067153930664 302 1645008001.46280599 0.923654377460479736 0.381697863340377808 0.0341076254844665527 -0.00245404569432139397
106.54266357421875 6.72707319259643555 5.50359392166137695 303 1645008002.36221337 0.921012341976165771 0.387686371803283691 0.0378824807703495026 -0.000706954160705208778
110.292182922363281 10.6150436401367188 5.89283466339111328 304 1645008003.26186275 0.921858072280883789 0.385765790939331055 0.0368862934410572052 -0.00135916087310761213
114.066398620605469 14.4628181457519531 6.28168535232543945 305 1645008004.16118598 0.923768758773803711 0.381014347076416016 0.0384522043168544769 -0.000888909678906202316
117.937088012695312 18.1732158660888672 6.68976545333862305 306 1645008005.06185031 0.930006325244903564 0.365209430456161499 0.0401601046323776245 -0.00987033173441886902
121.86773681640625 21.7401218414306641 7.08870458602905273 307 1645008005.96252155 0.935066461563110352 0.35273444652557373 0.0341176837682723999 -0.00807216484099626541
125.647651672363281 25.0632591247558594 7.45974636077880859 308 1645008006.96232557 0.936204731464385986 0.349646508693695068 0.0353849567472934723 -0.00398553302511572838
129.351760864257812 28.9259967803955078 7.85865974426269531 309 1645008008.26261592 0.899404585361480713 0.435614407062530518 0.0333417840301990509 -0.0141365723684430122
130.7130126953125 32.6622810363769531 8.08477783203125 310 1645008009.1642611 0.796981930732727051 0.603027164936065674 0.0339470729231834412 -0.00506651122123003006
130.54302978515625 35.9342193603515625 8.22754287719726562 311 1645008009.86386418 0.669200778007507324 0.742406845092773438 0.0312534049153327942 -0.00506173120811581612
129.1268310546875 39.2000198364257812 8.26687049865722656 312 1645008010.56548405 0.531109988689422607 0.846544086933135986 0.0280399192124605179 0.0223380643874406815
126.353462219238281 42.6411209106445312 7.89045047760009766 313 1645008011.36443424 0.382673799991607666 0.923069179058074951 -0.0215924922376871109 0.032214771956205368
122.945671081542969 44.5429153442382812 7.71155023574829102 314 1645008012.06536722 0.208290979266166687 0.9775429368019104 -0.0288556758314371109 0.013857678510248661
118.597679138183594 45.0120773315429688 7.62731695175170898 315 1645008012.86556745 0.0296240858733654022 0.999332129955291748 -0.00572201143950223923 0.0206159539520740509
109.4351806640625 49.8876953125 7.62248706817626953 316 1645008014.96772456 0.36621817946434021 0.930442512035369873 0.0124118020758032799 0.002626804169267416
102.736656188964844 59.3260002136230469 7.63429832458496094 317 1645008017.06589007 0.530298590660095215 0.84758526086807251 0.0075019332580268383 0.0180660169571638107
99.5445632934570312 66.7280731201171875 7.63292360305786133 318 1645008018.76812148 0.501377105712890625 0.865216612815856934 0.00451435614377260208 -0.000919375394005328417
96.2032241821289062 70.9007186889648438 7.70846843719482422 319 1645008019.86418438 0.417286723852157593 0.908709406852722168 0.00960706640034914017 -0.00516795506700873375
92.411376953125 74.3239974975585938 7.77014970779418945 320 1645008020.8656559 0.31017795205116272 0.950413227081298828 -0.0184245239943265915 -0.0128386365249752998
89.6851425170898438 75.080474853515625 7.77388334274291992 321 1645008021.46355605 0.109461858868598938 0.993800342082977295 -0.0192996524274349213 0.00255750236101448536
87.539276123046875 74.6894302368164062 7.80025291442871094 322 1645008021.9645257 -0.0833525657653808594 0.996183812618255615 -0.0258719585835933685 0.000926190754398703575
85.7651138305664062 73.4905319213867188 7.73351192474365234 323 1645008022.4650526 -0.251995593309402466 0.967278063297271729 0.0105102285742759705 0.0275851413607597351
79.9865264892578125 67.3683700561523438 7.69115161895751953 324 1645008024.56469917 -0.386324077844619751 0.922239303588867188 0.0130555015057325363 0.00761261489242315292
73.7250442504882812 60.0223464965820312 7.69974517822265625 325 1645008026.66403055 -0.491918057203292847 0.870611965656280518 -0.00292687141336500645 0.00654883729293942451
71.52294921875 53.2550239562988281 7.58444976806640625 326 1645008028.06490517 -0.63466179370880127 0.772232651710510254 -0.0199273936450481415 0.0215405039489269257
68.2656173706054688 43.1597137451171875 7.26563882827758789 327 1645008030.06509924 -0.475006639957427979 0.879723250865936279 0.0149810397997498512 0.0152058228850364685
59.7953758239746094 34.2034492492675781 6.87282514572143555 328 1645008032.16458416 -0.399504899978637695 0.916556656360626221 -0.000886395515408366919 0.017858412116765976
50.3464813232421875 24.7656993865966797 6.57210016250610352 329 1645008034.16434145 -0.383246064186096191 0.923581421375274658 -0.00753719499334692955 -0.00793748628348112106
45.761383056640625 19.9565944671630859 6.60454273223876953 330 1645008035.16248226 -0.391391277313232422 0.920152127742767334 0.00344185857102274895 -0.0110030211508274078
43.4640426635742188 17.5098361968994141 6.55540561676025391 331 1645008035.66420221 -0.39411202073097229 0.918941020965576172 0.0145865734666585922 0.00321530131623148918
42.1145133972167969 16.106201171875 6.55140066146850586 332 1645008035.95961642 -0.389207720756530762 0.921106636524200439 0.00891554728150367737 -0.000620203558355569839
41.1808815002441406 15.14404296875 6.54185962677001953 333 1645008036.16216683 -0.388942807912826538 0.921232223510742188 0.00734426407143473625 0.000886015943251550198
37.4673423767089844 11.3577499389648438 6.52319049835205078 334 1645008036.96005535 -0.379299819469451904 0.925224661827087402 0.00921632256358861923 0.00246223295107483864
33.6501197814941406 7.64433193206787109 6.49419307708740234 335 1645008037.76577592 -0.371784329414367676 0.928306877613067627 -0.00215819990262389183 0.00425684778019785881
29.8557167053222656 4.01912355422973633 6.4904484748840332 336 1645008038.56062531 -0.369894504547119141 0.929061770439147949 -0.00388839258812367916 0.00266975723206996918
25.9879493713378906 0.41843259334564209 6.49087381362915039 337 1645008039.3604784 -0.363718271255493164 0.931482076644897461 -0.00692840712144970894 0.00147440354339778423
22.0829277038574219 -3.11113572120666504 6.49658298492431641 338 1645008040.16189623 -0.346511304378509521 0.938044130802154541 -0.000197336208657361567 -0.00175835262052714825
17.8565864562988281 -6.05034542083740234 6.62501287460327148 339 1645008040.95937681 -0.27307543158531189 0.961757004261016846 -0.0143212992697954178 -0.0157528650015592575
13.2526330947875977 -8.10080718994140625 6.85882472991943359 340 1645008041.76074505 -0.180403545498847961 0.983108818531036377 -0.0202117878943681717 -0.0233044195920228958
7.89714717864990234 -9.44782447814941406 7.23885583877563477 341 1645008042.65939093 -0.0965350419282913208 0.994488954544067383 -0.0177041776478290558 -0.0368674807250499725
2.53474974632263184 -10.0071706771850586 7.68926477432250977 342 1645008043.56006122 -0.030504005029797554 0.998509347438812256 -0.0156953316181898117 -0.0424521602690219879
-2.74408936500549316 -9.87101840972900391 8.11842727661132812 343 1645008044.45971584 0.0274945832788944244 0.998746812343597412 -0.019521741196513176 -0.0369825884699821472
-8.05872631072998047 -9.34201526641845703 8.38222694396972656 344 1645008045.36055493 0.0633435472846031189 0.997544944286346436 -0.0180427003651857376 -0.0237931255251169205
-13.4308996200561523 -8.28282260894775391 8.49188899993896484 345 1645008046.25925136 0.13478359580039978 0.990855515003204346 0.00598987611010670662 0.00168281735386699438
-18.2088661193847656 -6.11277198791503906 8.55171775817871094 346 1645008047.16019392 0.243263378739356995 0.969943761825561523 -0.00249487324617803097 -0.00508506828919053078
-22.6463069915771484 -3.02564883232116699 8.62623023986816406 347 1645008048.16010952 0.311140149831771851 0.950192451477050781 -0.0149975456297397614 -0.0100619103759527206
-27.2871589660644531 -0.688158512115478516 8.74889755249023438 348 1645008049.25882006 0.143000200390815735 0.989327967166900635 -0.0226943399757146835 -0.0163137204945087433
-32.4071006774902344 -1.79009664058685303 8.7952423095703125 349 1645008050.4623394 -0.205846711993217468 0.97790980339050293 -0.0351196415722370148 0.0092793712392449379
-34.1404609680175781 -3.43553256988525391 8.78153324127197266 350 1645008050.96278667 -0.376920223236083984 0.925328612327575684 -0.0340704135596752167 0.0231812279671430588
-35.1179313659667969 -5.48723649978637695 8.73810482025146484 351 1645008051.46298885 -0.53253328800201416 0.845265984535217285 -0.0245911646634340286 0.036455303430557251
-35.2413368225097656 -8.06853675842285156 8.692413330078125 352 1645008052.06117034 -0.692710041999816895 0.719774961471557617 -0.0198721624910831451 0.0410109050571918488
-34.3294868469238281 -10.6291017532348633 8.638092041015625 353 1645008052.66254497 -0.818491458892822266 0.573022782802581787 -0.00781300198286771774 0.0406886152923107147
-32.1724319458007812 -15.3685665130615234 8.53382205963134766 354 1645008053.66400504 -0.821686148643493652 0.569698095321655273 0.0079438481479883194 0.0145897530019283295
-31.0676956176757812 -20.4388446807861328 8.38363552093505859 355 1645008054.56343341 -0.763698041439056396 0.644865155220031738 -0.00211218604817986488 0.0301620960235595703
-30.5004501342773438 -25.5438785552978516 8.15408420562744141 356 1645008055.46164179 -0.735176920890808105 0.676987528800964355 0.00878958962857723236 0.0335495546460151672
-30.1853542327880859 -30.6629314422607422 7.90428876876831055 357 1645008056.36398768 -0.715964734554290771 0.69767993688583374 0.0245232116430997849 0.00598671333864331245
-30.1817646026611328 -35.8222770690917969 7.63579893112182617 358 1645008057.26352811 -0.701424002647399902 0.711924195289611816 0.0327226854860782623 0.00987667776644229889
-30.3196506500244141 -40.8842620849609375 7.33003377914428711 359 1645008058.26146793 -0.68429410457611084 0.727879464626312256 0.0418410301208496094 0.0135062886402010918
-30.7542381286621094 -45.9186248779296875 7.08819866180419922 360 1645008060.06106496 -0.680813014507293701 0.732101738452911377 0.0175331030040979385 0.0146044837310910225
-30.5596218109130859 -52.9566650390625 6.83901357650756836 361 1645008062.16097212 -0.676560938358306885 0.735232174396514893 0.0338514894247055054 -0.0235173925757408142
-31.5674381256103516 -55.0446205139160156 6.86076831817626953 362 1645008062.86011291 -0.522811949253082275 0.851558685302734375 0.0352980270981788635 -0.0164159797132015228
-32.9843063354492188 -56.1033363342285156 6.95090866088867188 363 1645008063.459692 -0.351113826036453247 0.935653448104858398 0.0236335527151823044 -0.0267045740038156509
-34.7441329956054688 -56.5492172241210938 7.03922462463378906 364 1645008064.15865517 -0.173928216099739075 0.984522581100463867 0.00471698073670268059 -0.0210243444889783859
-38.0997390747070312 -56.5540542602539062 7.16387510299682617 365 1645008065.35792756 -1.06447241705609486e-05 0.999985873699188232 6.50877627776935697e-05 0.00531302206218242645
-43.2891807556152344 -56.5842628479003906 7.31615495681762695 366 1645008067.16057205 -0.00875322986394166946 0.99981391429901123 0.0105244377627968788 -0.0135945780202746391
-48.556976318359375 -56.6164360046386719 7.40750551223754883 367 1645008068.95785427 0.00577920395880937576 0.999929726123809814 0.00991339422762393951 -0.00297434814274311066
-53.3967475891113281 -57.9095878601074219 7.23908472061157227 368 1645008070.55779409 -0.186712056398391724 0.981579124927520752 0.0296239852905273438 0.0276299901306629181
-54.5431785583496094 -59.1591110229492188 7.10922479629516602 369 1645008071.25661373 -0.359557569026947021 0.931778430938720703 0.0325208455324172974 0.038075670599937439
-54.6942405700683594 -60.1838798522949219 7.04010343551635742 370 1645008071.7568531 -0.54279094934463501 0.838605105876922607 0.0156961213797330856 0.0432785637676715851
-54.5725364685058594 -61.0413475036621094 7.06883096694946289 371 1645008072.25771904 -0.68818134069442749 0.722539186477661133 -0.0346520282328128815 0.0560613125562667847
-54.6497230529785156 -65.243743896484375 6.76509571075439453 372 1645008074.35963607 -0.642754971981048584 0.7636260986328125 0.0344916917383670807 0.0505127608776092529
-55.414154052734375 -70.5106353759765625 6.30383634567260742 373 1645008076.06006742 -0.680979132652282715 0.731101393699645996 0.0226988904178142548 0.0352560803294181824
-55.701416015625 -75.7234649658203125 5.87079191207885742 374 1645008077.45912361 -0.683095216751098633 0.729230642318725586 0.0187478922307491302 0.0353850275278091431
-56.020172119140625 -80.80706787109375 5.44138288497924805 375 1645008078.65809131 -0.680488944053649902 0.731437325477600098 0.0213184822350740433 0.0384671874344348907
-56.3669509887695312 -85.9067916870117188 5.00644826889038086 376 1645008079.75821066 -0.68016970157623291 0.731273114681243896 0.024318525567650795 0.0449158176779747009
-56.7017402648925781 -91.366851806640625 4.56548023223876953 377 1645008080.85974717 -0.685526609420776367 0.72665703296661377 0.0216747913509607315 0.0394078493118286133
-56.8072242736816406 -96.4130096435546875 4.09629678726196289 378 1645008081.8598671 -0.702510416507720947 0.709426820278167725 0.0315668657422065735 0.0468641147017478943
-56.5567741394042969 -101.656822204589844 3.6142582893371582 379 1645008082.96002388 -0.727739334106445312 0.683538079261779785 0.0300957970321178436 0.0475961975753307343
-55.6137123107910156 -106.890449523925781 3.08338689804077148 380 1645008084.0622642 -0.772693932056427002 0.632467448711395264 0.0297557301819324493 0.0452061407268047333
-54.2250404357910156 -111.98760986328125 2.56103897094726562 381 1645008085.06006837 -0.798548698425292969 0.599456608295440674 0.0309010986238718033 0.0449092574417591095
-52.3497848510742188 -116.739387512207031 2.05699634552001953 382 1645008085.96012044 -0.831965386867523193 0.552443385124206543 0.0359566286206245422 0.0367015115916728973
-49.8367919921875 -121.571311950683594 1.57986176013946533 383 1645008086.85996151 -0.860121011734008789 0.508299887180328369 0.0277414564043283463 0.0324576385319232941
-47.2950172424316406 -125.871505737304688 1.190887451171875 384 1645008087.66043401 -0.870151996612548828 0.490581542253494263 0.0300202816724777222 0.0355527177453041077
-43.9146728515625 -130.208023071289062 0.786048650741577148 385 1645008088.56079507 -0.908408224582672119 0.415327906608581543 0.026256488636136055 0.0400984026491641998
-40.0149307250976562 -134.264404296875 0.352034181356430054 386 1645008089.46228242 -0.918146789073944092 0.392853796482086182 0.0406932123005390167 0.0318812094628810883
-36.4022407531738281 -137.800979614257812 -0.0384623259305953979 387 1645008090.26076889 -0.927171111106872559 0.371440201997756958 0.0377476289868354797 0.0309993922710418701
-32.2833747863769531 -141.525985717773438 -0.490337222814559937 388 1645008091.16134119 -0.930511295795440674 0.362693846225738525 0.0439777523279190063 0.0258425232023000717
-28.5409946441650391 -145.134246826171875 -0.746853053569793701 389 1645008092.26161456 -0.928342640399932861 0.371467500925064087 -0.00865589454770088196 0.0108108008280396461
-24.5175647735595703 -148.728622436523438 -1.22204470634460449 390 1645008093.56351089 -0.92810356616973877 0.370092511177062988 0.0370069406926631927 0.0169048719108104706
-20.5763893127441406 -152.444137573242188 -1.66129660606384277 391 1645008094.76178789 -0.932268321514129639 0.359781771898269653 0.0346151590347290039 0.0153188649564981461
-16.6922321319580078 -156.0928955078125 -2.09073972702026367 392 1645008095.86386251 -0.926949441432952881 0.372743338346481323 0.036068156361579895 0.0229396689683198929
-12.9879989624023438 -159.692825317382812 -2.4937744140625 393 1645008096.86410809 -0.924159109592437744 0.379590421915054321 0.0329343602061271667 0.0275025926530361176
-8.96595954895019531 -163.408660888671875 -2.93680214881896973 394 1645008097.86396909 -0.931137979030609131 0.36231386661529541 0.030352102592587471 0.028097810223698616
-5.07755756378173828 -166.780242919921875 -3.28257203102111816 395 1645008098.76473403 -0.935670137405395508 0.351247489452362061 0.0311393924057483673 0.0133005920797586441
-1.22682332992553711 -170.400985717773438 -3.61501932144165039 396 1645008099.66545987 -0.924066007137298584 0.381362855434417725 0.0226188972592353821 0.0123611995950341225
2.51762008666992188 -174.19049072265625 -3.91406846046447754 397 1645008100.56483245 -0.923325955867767334 0.382906883955001831 0.0226632263511419296 0.0183822531253099442
6.38488197326660156 -177.9071044921875 -4.17679691314697266 398 1645008101.46487904 -0.928725123405456543 0.37017512321472168 0.0156901106238365173 0.0139228440821170807
10.3367366790771484 -181.551956176757812 -4.44339799880981445 399 1645008102.36352301 -0.932666003704071045 0.35952797532081604 0.0216282010078430176 0.0201491117477416992
14.2161769866943359 -185.190948486328125 -4.67802333831787109 400 1645008103.26217604 -0.927167236804962158 0.373693466186523438 0.0246998853981494904 0.0102021675556898117
18.0321998596191406 -188.871337890625 -4.86984491348266602 401 1645008104.16658044 -0.929087519645690918 0.369379490613937378 0.0102610616013407707 0.015808524563908577
21.8443012237548828 -192.318832397460938 -4.99759387969970703 402 1645008105.06224179 -0.93413841724395752 0.356611728668212891 0.004885141272097826 0.0137692047283053398
25.5863151550292969 -195.638351440429688 -5.12001991271972656 403 1645008105.96179199 -0.932376503944396973 0.361389040946960449 0.00485379155725240707 0.00696549564599990845
29.5638294219970703 -199.321212768554688 -5.24133110046386719 404 1645008106.96417761 -0.933201491832733154 0.359186768531799316 0.00327354250475764275 0.010448310524225235
33.6022911071777344 -202.419677734375 -5.29512548446655273 405 1645008107.96584725 -0.952602624893188477 0.303986936807632446 -0.000944910687394440174 0.011801217682659626
37.8706817626953125 -205.045333862304688 -5.32408571243286133 406 1645008108.96340847 -0.963134825229644775 0.268639415502548218 -0.0130007341504096985 0.00592677202075719833
42.40850830078125 -207.399490356445312 -5.33538675308227539 407 1645008109.85847497 -0.976859986782073975 0.212709486484527588 -0.00455168029293417931 0.0218745674937963486
47.218353271484375 -209.111587524414062 -5.34090375900268555 408 1645008110.75773096 -0.985450267791748047 0.169432550668716431 -0.000240645953454077244 0.0134291518479585648
52.2572059631347656 -210.597488403320312 -5.34881973266601562 409 1645008111.65734506 -0.991870701313018799 0.126012548804283142 -0.00241867243312299252 0.0175360701978206635
57.5117378234863281 -211.429901123046875 -5.35507917404174805 410 1645008112.55788684 -0.997038066387176514 0.0759554579854011536 -0.000323046406265348196 0.0120749548077583313
62.827972412109375 -211.85186767578125 -5.35655927658081055 411 1645008113.46170259 -0.999580800533294678 0.0235753301531076431 -0.00878618936985731125 0.0143258534371852875
68.457672119140625 -211.773345947265625 -5.35263824462890625 412 1645008114.35780811 -0.999740839004516602 -0.0170443914830684662 -0.00522393221035599709 0.0141567634418606758
73.5845718383789062 -211.495269775390625 -5.34304618835449219 413 1645008115.15833044 -0.999735593795776367 -0.0181936398148536682 -0.00888423901051282883 0.0108987055718898773
78.817413330078125 -211.299606323242188 -5.34989833831787109 414 1645008115.9609046 -0.999939858913421631 -0.00272713601589202881 0.00183320650830864906 0.0104622151702642441
84.0355377197265625 -211.047317504882812 -5.36538982391357422 415 1645008116.75984764 -0.999332845211029053 -0.0349885076284408569 -0.00365265551954507828 0.00981737766414880753
89.2612228393554688 -210.732559204101562 -5.39526987075805664 416 1645008117.55568004 -0.99959719181060791 -0.0260522682219743729 -0.000666675914544612169 0.011238747276365757
94.510650634765625 -210.472793579101562 -5.3953704833984375 417 1645008118.3569634 -0.999817848205566406 -0.0179177150130271912 0.000606336107011884451 0.00654792087152600288
99.7034530639648438 -210.313980102539062 -5.37303686141967773 418 1645008119.15677857 -0.999815583229064941 -0.0157206691801548004 -0.00238968641497194767 0.0107699884101748466
104.864471435546875 -210.150482177734375 -5.35798883438110352 419 1645008119.95705485 -0.999915421009063721 -0.00951872486621141434 -0.000502451614011079073 0.00884657446295022964
110.053565979003906 -210.0177001953125 -5.42727804183959961 420 1645008120.75655055 -0.999775886535644531 -0.00556037109345197678 0.00493822712451219559 0.0198209788650274277
115.20098876953125 -209.71331787109375 -5.46178436279296875 421 1645008121.55627894 -0.999222159385681152 -0.031129784882068634 -0.00327812484465539455 0.0239837244153022766
120.365409851074219 -209.525115966796875 -5.43314027786254883 422 1645008122.35690832 -0.999513447284698486 -0.0199564043432474136 0.00296513666398823261 0.0237857680767774582
125.5556640625 -209.288681030273438 -5.37925052642822266 423 1645008123.15686226 -0.999507367610931396 -0.0251140426844358444 0.00407511787489056587 0.0183764994144439697
130.760482788085938 -209.000595092773438 -5.34096956253051758 424 1645008123.95575738 -0.999634623527526855 -0.0229376349598169327 0.00261746649630367756 0.0140589512884616852
136.026092529296875 -208.790573120117188 -5.33349180221557617 425 1645008124.75655103 -0.999774575233459473 -0.013927084393799305 0.00694191642105579376 0.0144453365355730057
141.254989624023438 -208.595993041992188 -5.30238151550292969 426 1645008125.55768418 -0.999920070171356201 -0.0120016681030392647 -0.00378696713596582413 -0.00121018150821328163
146.535903930664062 -208.462982177734375 -5.30395174026489258 427 1645008126.35723495 -0.999715328216552734 -0.0212938711047172546 0.00651034992188215256 0.0085713602602481842
151.733245849609375 -208.186004638671875 -5.28000020980834961 428 1645008127.15754318 -0.999648928642272949 -0.026060793548822403 -0.00478024641051888466 5.11518665007315576e-05
156.900390625 -207.95281982421875 -5.20707130432128906 429 1645008127.95679235 -0.99967658519744873 -0.0238774660974740982 -0.00496637821197509766 0.00720584578812122345
162.231170654296875 -207.569686889648438 -5.04456663131713867 430 1645008128.85731745 -0.999077022075653076 -0.0413287542760372162 -0.00686467485502362251 0.00948385428637266159
167.350906372070312 -207.235214233398438 -4.92857265472412109 431 1645008129.75738597 -0.999536514282226562 -0.0226690415292978287 -0.0191725101321935654 0.00672651128843426704
172.746353149414062 -206.986846923828125 -4.82034826278686523 432 1645008130.65786052 -0.99966895580291748 -0.0206123515963554382 -0.0138602880761027336 0.00671240175142884254
178.199310302734375 -206.900390625 -4.64068078994750977 433 1645008131.65999079 -0.999691665172576904 -0.00818725023418664932 -0.013861997053027153 0.0189053583890199661
183.622528076171875 -206.475616455078125 -4.45256519317626953 434 1645008132.75723791 -0.998168289661407471 -0.0555299185216426849 -0.0156590938568115234 0.0182017609477043152
188.543609619140625 -205.52752685546875 -4.31513500213623047 435 1645008133.75823474 -0.994479596614837646 -0.103459037840366364 -0.0103675536811351776 0.0141083216294646263
193.734786987304688 -204.059890747070312 -4.15959548950195312 436 1645008134.85749602 -0.988833785057067871 -0.148163363337516785 -0.0060200737789273262 0.0148044070228934288
198.942779541015625 -202.300201416015625 -3.99209380149841309 437 1645008135.95968986 -0.987482964992523193 -0.156780093908309937 -0.0129455979913473129 0.0113956518471240997
204.1182861328125 -200.703857421875 -3.83507347106933594 438 1645008137.05687761 -0.98921436071395874 -0.145264029502868652 -0.0109183341264724731 0.0153016848489642143
208.984832763671875 -199.10589599609375 -3.68158817291259766 439 1645008138.05662751 -0.987061619758605957 -0.159309923648834229 -0.0155570581555366516 0.00936097092926502228
214.0396728515625 -197.3414306640625 -3.55354094505310059 440 1645008139.05760884 -0.987364113330841064 -0.157762065529823303 -0.0148166492581367493 -0.001932362443767488
219.1326904296875 -195.776382446289062 -3.41853857040405273 441 1645008140.05802989 -0.989231407642364502 -0.145898520946502686 -0.00972181744873523712 0.00634879386052489281
224.18402099609375 -194.028640747070312 -3.26721358299255371 442 1645008141.15785503 -0.983018100261688232 -0.182555824518203735 -0.00754734501242637634 0.0170819833874702454
228.997589111328125 -192.201766967773438 -3.18887233734130859 443 1645008142.35864878 -0.988455653190612793 -0.151004597544670105 -0.00828547775745391846 0.00918448623269796371
234.111007690429688 -191.011489868164062 -3.06933903694152832 444 1645008143.66275525 -0.995681226253509521 -0.089882679283618927 -0.0173539314419031143 -0.0154544850811362267
239.406570434570312 -190.543594360351562 -2.84377217292785645 445 1645008145.058815 -0.998307287693023682 -0.0563225522637367249 -0.0140922637656331062 0.00342812412418425083
244.521331787109375 -189.976303100585938 -2.64591884613037109 446 1645008146.25952554 -0.998387038707733154 -0.0514486394822597504 -0.0224982127547264099 0.00837638694792985916
249.806015014648438 -189.443527221679688 -2.45565223693847656 447 1645008147.46378279 -0.998563408851623535 -0.0504115559160709381 -0.0160268358886241913 0.00854263082146644592
255.134323120117188 -188.825057983398438 -2.28746390342712402 448 1645008148.66230202 -0.99798429012298584 -0.0598969012498855591 -0.0174284223467111588 0.0116630438715219498
