# .PCD v0.7 - Point Cloud Data file format
VERSION 0.7
FIELDS x y z intensity roll pitch yaw time
SIZE 4 4 4 4 4 4 4 8
TYPE F F F F F F F F
COUNT 1 1 1 1 1 1 1 1
WIDTH 315
HEIGHT 1
VIEWPOINT 0 0 0 1 0 0 0
POINTS 315
DATA ascii
-58.1450767517089844 -24.2197971343994141 5.79346609115600586 1286 0.0281125716865062714 -0.0738109350204467773 -0.115007489919662476 1644759292.81584644
-57.0262794494628906 -24.1745719909667969 5.8616795539855957 1287 0.0161801241338253021 -0.0617600344121456146 -0.0304223690181970596 1644759293.01843023
-55.9717330932617188 -24.1006793975830078 5.93475580215454102 1288 0.0277520883828401566 -0.0650560110807418823 0.0200382731854915619 1644759293.21422863
-54.9115257263183594 -24.0749549865722656 5.95825576782226562 1289 0.024975750595331192 -0.052409738302230835 0.0525344721972942352 1644759293.41383386
-53.7506103515625 -23.9036445617675781 6.00054931640625 1290 0.0188372712582349777 -0.0602022036910057068 0.0929584726691246033 1644759293.61322641
-52.6680755615234375 -23.7132530212402344 6.06959819793701172 1291 0.00373574229888617992 -0.0667302310466766357 0.114887624979019165 1644759293.8152597
-51.575958251953125 -23.5913619995117188 6.11412191390991211 1292 0.00181319669354707003 -0.0586854889988899231 0.112133137881755829 1644759294.01320887
-49.8871574401855469 -23.436492919921875 6.12910556793212891 1293 -0.000247431016759946942 -0.0346580967307090759 0.080370098352432251 1644759294.31514168
-48.8077201843261719 -23.4261817932128906 6.23523950576782227 1294 -0.0231539644300937653 -0.0631210505962371826 0.0365325808525085449 1644759294.51355481
-47.6394271850585938 -23.4707164764404297 6.27900552749633789 1295 -0.0324012823402881622 -0.070799700915813446 -0.0174976680427789688 1644759294.71425104
-46.0372276306152344 -23.7778282165527344 6.34592819213867188 1296 -0.017253262922167778 -0.0366238690912723541 -0.154681667685508728 1644759295.01415133
-44.9897041320800781 -24.0832309722900391 6.34931850433349609 1297 -0.00389960035681724548 -0.0279633700847625732 -0.240747690200805664 1644759295.21358681
-43.4930458068847656 -24.7947807312011719 6.41602706909179688 1298 0.0108752679079771042 -0.0419982895255088806 -0.361803680658340454 1644759295.51477718
-42.4959297180175781 -25.2838459014892578 6.46417951583862305 1299 0.0156172038987278938 -0.0420536920428276062 -0.431813657283782959 1644759295.71277714
-40.9569129943847656 -26.1277408599853516 6.457366943359375 1300 0.0299744997173547745 -0.037813432514667511 -0.494929641485214233 1644759296.01228547
-39.4000282287597656 -27.0802097320556641 6.56029891967773438 1301 0.022093258798122406 -0.0504553504288196564 -0.543944358825683594 1644759296.3129909
-38.3684272766113281 -27.7644290924072266 6.53947114944458008 1302 0.022740781307220459 -0.0311584491282701492 -0.580888688564300537 1644759296.51292467
-37.3887176513671875 -28.4543323516845703 6.57630825042724609 1303 0.044217672199010849 -0.0361300185322761536 -0.609781384468078613 1644759296.71318865
-35.9330024719238281 -29.4995536804199219 6.64820766448974609 1304 0.054067905992269516 -0.0552410967648029327 -0.621375381946563721 1644759297.01287866
-34.46942138671875 -30.5937061309814453 6.78039646148681641 1305 0.0355869755148887634 -0.0509501062333583832 -0.612030208110809326 1644759297.31272984
-33.0978012084960938 -31.5492591857910156 6.73683309555053711 1306 0.0277452412992715836 -0.0214339029043912888 -0.627244234085083008 1644759297.61290264
-31.6856002807617188 -32.619293212890625 6.84954547882080078 1307 -0.00056608469458296895 -0.0507769957184791565 -0.622329473495483398 1644759297.91335344
-30.7530956268310547 -33.1247711181640625 6.72638177871704102 1308 0.00910917110741138458 -0.0393660999834537506 -0.616835892200469971 1644759298.11472416
-29.3064384460449219 -34.3570938110351562 6.89343929290771484 1309 0.0233359243720769882 0.00229806057177484035 -0.737991929054260254 1644759298.51441216
-28.2733573913574219 -35.6152801513671875 6.73721933364868164 1310 0.0173161979764699936 -0.0856651961803436279 -0.840285599231719971 1644759298.81534123
-27.6075191497802734 -36.8574943542480469 7.03360128402709961 1311 0.021455768495798111 -0.0327555499970912933 -1.00338459014892578 1644759299.11390781
-27.0494861602783203 -38.1571426391601562 6.96428728103637695 1312 0.0216494332998991013 0.0200438685715198517 -1.14095818996429443 1644759299.41421604
-26.7962436676025391 -39.4780464172363281 6.84479999542236328 1313 0.0316475890576839447 -0.0157707631587982178 -1.31064844131469727 1644759299.71301579
-26.7777881622314453 -41.349029541015625 6.92829465866088867 1314 0.0373528078198432922 -0.0189462285488843918 -1.51653921604156494 1644759300.11253905
-26.9251918792724609 -42.8209152221679688 6.97672748565673828 1315 0.0279208943247795105 -0.0169769618660211563 -1.66734492778778076 1644759300.41496706
-27.9300155639648438 -45.80230712890625 6.94948148727416992 1316 0.016368592157959938 0.00578786665573716164 -1.88838481903076172 1644759301.01409411
-28.4997329711914062 -47.2780799865722656 6.91317272186279297 1317 6.45990294287912548e-05 -0.0127761838957667351 -1.97813308238983154 1644759301.314008
-29.0745525360107422 -48.7108993530273438 6.75856399536132812 1318 0.0383729971945285797 -0.00203880784101784229 -2.06628155708312988 1644759301.61394
-29.8873958587646484 -50.3106651306152344 6.77307939529418945 1319 0.028946559876203537 -0.0194944031536579132 -2.08520817756652832 1644759301.91535473
-30.8803062438964844 -51.4187812805175781 6.84274101257324219 1320 0.0362424440681934357 -0.0109107829630374908 -2.10497879981994629 1644759302.11353588
-31.9842624664306641 -53.4853591918945312 6.82444190979003906 1321 0.0330999977886676788 -0.00173969659954309464 -2.13992762565612793 1644759302.51540899
-33.0697479248046875 -55.1040725708007812 6.72415399551391602 1322 0.0277337729930877686 -0.00664485478773713112 -2.16568493843078613 1644759302.81415105
-34.2944869995117188 -56.8373184204101562 6.84361362457275391 1323 0.0120717175304889679 -0.0340467430651187897 -2.17779731750488281 1644759303.11375976
-35.3672142028808594 -58.3513221740722656 6.71398353576660156 1324 0.0177722219377756119 0.000418467912822961807 -2.19673776626586914 1644759303.41474199
-36.4532051086425781 -59.8654670715332031 6.7597503662109375 1325 0.00489151617512106895 -0.013533417135477066 -2.2031559944152832 1644759303.71675706
-37.5423507690429688 -61.3526496887207031 6.70301342010498047 1326 0.00455490453168749809 0.00367478420957922935 -2.20996570587158203 1644759304.01538634
-38.5970649719238281 -62.7590866088867188 6.65930032730102539 1327 0.00174213619902729988 0.00162056926637887955 -2.21456623077392578 1644759304.31373048
-39.5856971740722656 -64.0847854614257812 6.71257686614990234 1328 0.00353865604847669601 -0.00287118600681424141 -2.21654272079467773 1644759304.61358762
-40.4844322204589844 -65.2903060913085938 6.72396755218505859 1329 0.00472459336742758751 0.0367171019315719604 -2.21692538261413574 1644759304.91650438
-41.5573158264160156 -66.7475814819335938 6.70347452163696289 1330 0.0212573427706956863 0.0556161925196647644 -2.21973633766174316 1644759305.31616449
-42.31036376953125 -67.7314300537109375 6.64333820343017578 1331 0.0210538450628519058 0.00107941532041877508 -2.21855854988098145 1644759305.61660957
-43.0915985107421875 -68.7983551025390625 6.65595054626464844 1332 0.00472753401845693588 -0.0177800022065639496 -2.21797633171081543 1644759305.91778708
-43.8466033935546875 -69.752655029296875 6.61580753326416016 1333 -0.00202943896874785423 -0.000733487657271325588 -2.22543668746948242 1644759306.21572065
-44.6467933654785156 -70.7616348266601562 6.57191562652587891 1334 0.00843784492462873459 -0.00950417760759592056 -2.23553085327148438 1644759306.51463008
-45.484405517578125 -71.8835678100585938 6.63196897506713867 1335 0.00280704023316502571 -0.0215602386742830276 -2.23920583724975586 1644759306.81628847
-47.0615653991699219 -73.7498397827148438 6.66192150115966797 1336 0.0287162549793720245 -0.0179117210209369659 -2.24908900260925293 1644759307.31618714
-48.0215606689453125 -74.990814208984375 6.55168008804321289 1337 0.0325200147926807404 -0.0166182219982147217 -2.25652146339416504 1644759307.61697984
-48.7684974670410156 -75.8140487670898438 6.53558778762817383 1338 0.0313124097883701324 0.00756304804235696793 -2.26106023788452148 1644759307.81776309
-49.8252182006835938 -77.0644073486328125 6.52957439422607422 1339 0.0516790635883808136 -0.0115032494068145752 -2.26871442794799805 1644759308.11807704
-50.9610977172851562 -78.421661376953125 6.58591938018798828 1340 0.0545677244663238525 -0.0358355902135372162 -2.28036785125732422 1644759308.41813755
-51.7636871337890625 -79.2410888671875 6.7052617073059082 1341 0.0515920966863632202 -0.0518561750650405884 -2.29326128959655762 1644759308.61642361
-52.5478897094726562 -80.1385650634765625 6.71135330200195312 1342 0.0790180116891860962 -0.0749965682625770569 -2.30258297920227051 1644759308.81641459
-53.2903327941894531 -80.9616546630859375 6.75946998596191406 1343 0.0744049772620201111 -0.0685119926929473877 -2.3104088306427002 1644759309.01728511
-54.0410270690917969 -81.7471847534179688 6.9363408088684082 1344 0.0652534365653991699 -0.074342288076877594 -2.3227841854095459 1644759309.21595049
-55.109527587890625 -82.9005661010742188 6.94357776641845703 1345 0.0836054980754852295 -0.0790586397051811218 -2.32935309410095215 1644759309.51699638
-56.5397186279296875 -84.1535415649414062 7.02232646942138672 1346 0.128305882215499878 -0.0303628761321306229 -2.35453701019287109 1644759309.91768169
-57.5072135925292969 -84.9048995971679688 7.01809024810791016 1347 0.152939409017562866 0.00964408740401268005 -2.36963176727294922 1644759310.21814775
-58.1987838745117188 -85.7567062377929688 6.88659334182739258 1348 0.11548304557800293 0.0219107978045940399 -2.35937118530273438 1644759310.41790223
-58.8587493896484375 -86.5568313598632812 7.01840448379516602 1349 0.121680662035942078 0.00538342678919434547 -2.35969758033752441 1644759310.61634731
-59.7808952331542969 -87.3737335205078125 7.00511455535888672 1350 0.149431824684143066 -0.000223050767090171576 -2.35147261619567871 1644759310.91756058
-60.8330039978027344 -88.3955764770507812 6.91575813293457031 1351 0.15119585394859314 -0.00618379749357700348 -2.32656717300415039 1644759311.31502295
-61.7590141296386719 -89.7464141845703125 6.96915769577026367 1352 0.140769422054290771 -0.00775713380426168442 -2.23360562324523926 1644759311.71383142
-62.5138282775878906 -91.0190353393554688 7.04147720336914062 1353 0.133350938558578491 -0.0267036110162734985 -2.13356280326843262 1644759312.11556029
-63.0686225891113281 -92.2065887451171875 6.93709278106689453 1354 0.137771949172019958 -0.0227133575826883316 -2.04714798927307129 1644759312.41580892
-63.66552734375 -94.0997848510742188 6.99726057052612305 1355 0.125330209732055664 -0.0259222574532032013 -1.91805863380432129 1644759312.8131237
-64.0898590087890625 -95.9128341674804688 7.02289915084838867 1356 0.104500643908977509 -0.0283289141952991486 -1.82476699352264404 1644759313.21306109
-64.5853042602539062 -97.6525115966796875 7.13128995895385742 1357 0.114946164190769196 -0.0471062399446964264 -1.81530427932739258 1644759313.61353564
-64.8176803588867188 -99.597259521484375 7.27884531021118164 1358 0.0703564062714576721 -0.0652848109602928162 -1.80297589302062988 1644759314.01314425
-65.2286148071289062 -101.225616455078125 7.25382661819458008 1359 0.0631316378712654114 -0.0791157707571983337 -1.81681454181671143 1644759314.41290617
-65.6097183227539062 -102.154144287109375 7.37164878845214844 1360 0.0966097787022590637 -0.0550562962889671326 -1.84443247318267822 1644759314.61516976
-65.8676071166992188 -103.139068603515625 7.3243870735168457 1361 0.0874687954783439636 -0.0642513036727905273 -1.85684049129486084 1644759314.81340194
-66.1585693359375 -104.171760559082031 7.42075538635253906 1362 0.0423532314598560333 -0.0246524158865213394 -1.86976504325866699 1644759315.01482034
-66.830810546875 -106.06903076171875 7.34283924102783203 1363 0.0481998883187770844 -0.0188957639038562775 -1.91985130310058594 1644759315.41758609
-67.2694625854492188 -107.092109680175781 7.40988874435424805 1364 0.0532841458916664124 -0.00438971538096666336 -1.9459303617477417 1644759315.61281037
-68.1387252807617188 -108.912483215332031 7.22528600692749023 1365 0.0685481205582618713 0.0260950978845357895 -2.00033020973205566 1644759316.01223946
-68.6538162231445312 -109.952743530273438 7.25194215774536133 1366 0.0625918880105018616 0.0296024549752473831 -2.02535843849182129 1644759316.21179199
-69.1573257446289062 -110.907257080078125 7.14246606826782227 1367 0.0707089826464653015 0.0130001092329621315 -2.04877042770385742 1644759316.41369033
-69.6891708374023438 -111.945327758789062 7.1189265251159668 1368 0.0558771379292011261 0.0286260973662137985 -2.06659841537475586 1644759316.61720181
-70.7875595092773438 -113.697685241699219 7.05919742584228516 1369 0.0599948428571224213 0.0209647249430418015 -2.09632778167724609 1644759317.01711655
-71.4298858642578125 -114.807327270507812 7.06730079650878906 1370 0.0657562613487243652 0.0208808202296495438 -2.1058354377746582 1644759317.21329594
-71.9789352416992188 -115.779243469238281 6.96205997467041016 1371 0.0670090019702911377 0.0279462803155183792 -2.11653614044189453 1644759317.41241169
-72.567718505859375 -116.700241088867188 6.9518284797668457 1372 0.0580339841544628143 0.028865443542599678 -2.12766885757446289 1644759317.61219239
-73.242279052734375 -117.644264221191406 6.8079681396484375 1373 0.0611323826014995575 0.0315791144967079163 -2.13698625564575195 1644759317.81182814
-73.9494705200195312 -118.745399475097656 6.67949533462524414 1374 0.057486850768327713 0.0440970920026302338 -2.13564133644104004 1644759318.01121616
-74.518402099609375 -119.746444702148438 6.73650646209716797 1375 0.0728645995259284973 0.019541814923286438 -2.13775968551635742 1644759318.21138787
-75.1718902587890625 -120.725364685058594 6.76687097549438477 1376 0.0818991959095001221 0.0252702068537473679 -2.12320208549499512 1644759318.41417241
-75.8580245971679688 -121.857818603515625 6.65142726898193359 1377 0.0797256231307983398 0.0218534804880619049 -2.08744287490844727 1644759318.61333203
-76.3930511474609375 -123.068084716796875 6.63079500198364258 1378 0.0780357047915458679 0.0200444497168064117 -2.06744956970214844 1644759318.81430984
-76.93475341796875 -124.039222717285156 6.56205415725708008 1379 0.0677229911088943481 0.0266990400850772858 -2.08107566833496094 1644759319.01612902
-77.5781936645507812 -125.1177978515625 6.5951080322265625 1380 0.0531588420271873474 0.0161666944622993469 -2.07930731773376465 1644759319.21292591
-78.184295654296875 -126.273872375488281 6.52503395080566406 1381 0.0648696050047874451 0.0209074504673480988 -2.09040188789367676 1644759319.41202521
-78.8055953979492188 -127.280479431152344 6.54016494750976562 1382 0.0244837421923875809 0.00110660819336771965 -2.13275289535522461 1644759319.61209583
-79.5200042724609375 -128.153289794921875 6.30310821533203125 1383 0.0434521250426769257 0.0249413643032312393 -2.19931364059448242 1644759319.81268835
-80.3280105590820312 -128.982192993164062 6.23958015441894531 1384 0.0636454746127128601 0.0397580377757549286 -2.25076413154602051 1644759320.01318717
-81.0800399780273438 -130.083831787109375 6.23939704895019531 1385 0.0748628228902816772 0.0391647815704345703 -2.23406815528869629 1644759320.2121253
-81.8383560180664062 -130.949081420898438 6.25618839263916016 1386 0.0621972046792507172 0.0274941194802522659 -2.26867890357971191 1644759320.41394114
-82.7150115966796875 -131.950881958007812 6.08061504364013672 1387 0.0836343690752983093 0.0232054740190505981 -2.24611639976501465 1644759320.61253142
-83.4126663208007812 -132.976211547851562 6.13355493545532227 1388 0.0760805085301399231 0.0322004184126853943 -2.23244690895080566 1644759320.81259704
-84.1730728149414062 -133.921356201171875 6.18064451217651367 1389 0.10078728199005127 0.0341305620968341827 -2.23192763328552246 1644759321.01466894
-84.9269180297851562 -135.015823364257812 6.08204460144042969 1390 0.0799827799201011658 0.0222970545291900635 -2.19742035865783691 1644759321.21472764
-85.59808349609375 -136.0604248046875 5.96623373031616211 1391 0.0779741033911705017 0.0217303149402141571 -2.18325901031494141 1644759321.41820979
-86.33587646484375 -137.003219604492188 5.90030908584594727 1392 0.0823857635259628296 0.0136931845918297768 -2.19409275054931641 1644759321.61310196
-87.1187667846679688 -138.057205200195312 5.69822597503662109 1393 0.0728180855512619019 0.0224259514361619949 -2.18670558929443359 1644759321.81145453
-87.8051300048828125 -139.201675415039062 5.75368833541870117 1394 0.0857478678226470947 0.0416609607636928558 -2.16533088684082031 1644759322.01162004
-88.4737014770507812 -140.225540161132812 5.78710412979125977 1395 0.0809535756707191467 0.0180544760078191757 -2.16637802124023438 1644759322.21371484
-89.2341995239257812 -141.246307373046875 5.76458597183227539 1396 0.086918070912361145 -0.00740899424999952316 -2.17792558670043945 1644759322.41492224
-90.0243911743164062 -142.434158325195312 5.56697654724121094 1397 0.0774948820471763611 -0.00857037492096424103 -2.15905237197875977 1644759322.61342835
-90.6630935668945312 -143.488037109375 5.63608932495117188 1398 0.0737602412700653076 0.0159717649221420288 -2.15419507026672363 1644759322.81341124
-91.3605575561523438 -144.574264526367188 5.57864284515380859 1399 0.0617342926561832428 0.0108960811048746109 -2.15742111206054688 1644759323.01489568
-92.0858688354492188 -145.623443603515625 5.56005048751831055 1400 0.0765060186386108398 -0.0153968436643481255 -2.17129826545715332 1644759323.21464157
-92.8300094604492188 -146.710037231445312 5.48821878433227539 1401 0.0847112983465194702 -0.00285391230136156082 -2.17156457901000977 1644759323.41562152
-93.5630340576171875 -147.774871826171875 5.37677764892578125 1402 0.0725542828440666199 0.000677539443131536245 -2.17174291610717773 1644759323.61543489
-94.291259765625 -148.818695068359375 5.51041364669799805 1403 0.0836382657289505005 0.00933069270104169846 -2.1710197925567627 1644759323.81256628
-95.0111083984375 -149.87164306640625 5.53496789932250977 1404 0.0776677355170249939 -0.00682322308421134949 -2.17226982116699219 1644759324.01170206
-95.7134857177734375 -150.930206298828125 5.52453899383544922 1405 0.0661984086036682129 -0.0255347508937120438 -2.17365932464599609 1644759324.21174979
-96.40814208984375 -151.961318969726562 5.29569101333618164 1406 0.0803149119019508362 -0.027780827134847641 -2.17723608016967773 1644759324.41225433
-97.1335067749023438 -152.920516967773438 5.43648052215576172 1407 0.0719375535845756531 0.0036051473580300808 -2.18519401550292969 1644759324.61294866
-97.8983306884765625 -154.046707153320312 5.4055943489074707 1408 0.0722380653023719788 -0.00197191257029771805 -2.17527580261230469 1644759324.81284976
-98.5595550537109375 -155.054946899414062 5.36795330047607422 1409 0.0793488100171089172 -0.0263562425971031189 -2.17947578430175781 1644759325.0120647
-99.2739105224609375 -155.96539306640625 5.36892890930175781 1410 0.075875602662563324 -0.0476105585694313049 -2.19588780403137207 1644759325.21154857
-100.015548706054688 -157.020492553710938 5.38894271850585938 1411 0.0833106115460395813 -0.0057997237890958786 -2.18957853317260742 1644759325.41169167
-100.732582092285156 -158.177108764648438 5.33866739273071289 1412 0.0867906808853149414 0.0174853429198265076 -2.16315603256225586 1644759325.61347508
-101.389511108398438 -159.200927734375 5.32589530944824219 1413 0.0844509601593017578 0.0199195146560668945 -2.14442801475524902 1644759325.81324649
-102.018844604492188 -160.277114868164062 5.20236587524414062 1414 0.0966471061110496521 0.00720985652878880501 -2.12111520767211914 1644759326.01147151
-102.601814270019531 -161.296783447265625 5.20489120483398438 1415 0.0828781649470329285 0.011072356253862381 -2.10559582710266113 1644759326.21091557
-103.217750549316406 -162.402069091796875 5.14102363586425781 1416 0.0816274657845497131 0.0183066278696060181 -2.07548689842224121 1644759326.41140437
-103.8009033203125 -163.620452880859375 4.93973875045776367 1417 0.0778475254774093628 -0.0201650187373161316 -2.04685640335083008 1644759326.61094999
-104.233627319335938 -164.732894897460938 4.98094463348388672 1418 0.0648909956216812134 0.0496212504804134369 -2.00918984413146973 1644759326.81257725
-104.711860656738281 -165.675064086914062 5.16119718551635742 1419 0.0521004870533943176 0.0227915570139884949 -2.00133991241455078 1644759327.01483631
-105.33221435546875 -166.826828002929688 5.11736917495727539 1420 0.0823142006993293762 0.000754050910472869873 -1.98646330833435059 1644759327.21294522
-105.725265502929688 -167.998046875 5.02998685836791992 1421 0.0651555359363555908 -0.00943699013441801071 -1.96531033515930176 1644759327.41326976
-106.126380920410156 -168.966781616210938 5.03599452972412109 1422 0.0569423399865627289 -0.0226863734424114227 -2.00029397010803223 1644759327.61294365
-106.671226501464844 -170.02496337890625 4.92366409301757812 1423 0.0878751948475837708 -0.00952554401010274887 -1.99940717220306396 1644759327.81231952
-107.118812561035156 -171.11199951171875 5.07824420928955078 1424 0.0760856270790100098 0.00885202363133430481 -1.97439217567443848 1644759328.01507711
-107.507728576660156 -172.149459838867188 5.10861778259277344 1425 0.0814066827297210693 -0.0269997082650661469 -1.96789991855621338 1644759328.2114296
-107.959197998046875 -173.205413818359375 5.09718799591064453 1426 0.0754092186689376831 -0.0240605119615793228 -1.96150541305541992 1644759328.41306257
-108.378013610839844 -174.277938842773438 5.08866691589355469 1427 0.0794833526015281677 -0.0400693267583847046 -1.94646048545837402 1644759328.61392522
-108.740921020507812 -175.342864990234375 5.06361818313598633 1428 0.0742345601320266724 -0.0419139117002487183 -1.93914246559143066 1644759328.81335092
-109.163673400878906 -176.388778686523438 5.15839004516601562 1429 0.0851066261529922485 -0.0237556658685207367 -1.92897307872772217 1644759329.01229119
-109.524810791015625 -177.4864501953125 5.17462348937988281 1430 0.0738862380385398865 -0.039598710834980011 -1.90944886207580566 1644759329.2141118
-109.866775512695312 -178.563980102539062 5.19460725784301758 1431 0.0733393505215644836 -0.0318943038582801819 -1.90187251567840576 1644759329.4136858
-110.21600341796875 -179.647796630859375 5.17046976089477539 1432 0.0758200585842132568 -0.0386290177702903748 -1.89153456687927246 1644759329.61363077
-110.539947509765625 -180.7418212890625 5.2490992546081543 1433 0.0762873366475105286 -0.0354224666953086853 -1.88099479675292969 1644759329.81213355
-110.864570617675781 -181.858596801757812 5.24942302703857422 1434 0.0754438489675521851 -0.0263520441949367523 -1.87515699863433838 1644759330.01390505
-111.20587158203125 -182.965896606445312 5.28547859191894531 1435 0.0641268268227577209 -0.028125375509262085 -1.85831832885742188 1644759330.2132225
-111.502822875976562 -184.080352783203125 5.25521945953369141 1436 0.0555631145834922791 -0.0283377952873706818 -1.85506212711334229 1644759330.41428065
-111.817070007324219 -185.18231201171875 5.25157880783081055 1437 0.067222006618976593 -0.0151512213051319122 -1.85188210010528564 1644759330.61392879
-112.150390625 -186.271820068359375 5.40125894546508789 1438 0.0514130815863609314 0.0017151425126940012 -1.83473420143127441 1644759330.81345081
-112.434577941894531 -187.355056762695312 5.58034896850585938 1439 0.0595660656690597534 -0.0302364304661750793 -1.8280491828918457 1644759331.01393604
-112.624244689941406 -188.523483276367188 5.41869449615478516 1440 0.0516782663762569427 -0.0507814288139343262 -1.82606673240661621 1644759331.21316552
-112.985282897949219 -189.648468017578125 5.25584983825683594 1441 0.062282070517539978 -0.0434156060218811035 -1.8375236988067627 1644759331.4151094
-113.333206176757812 -190.812530517578125 5.26535320281982422 1442 0.0589319393038749695 -0.0197476688772439957 -1.81229233741760254 1644759331.61381674
-113.530906677246094 -191.939834594726562 5.26490116119384766 1443 0.0500083230435848236 -0.0388165712356567383 -1.81235778331756592 1644759331.81495237
-113.752197265625 -193.025177001953125 5.30689334869384766 1444 0.051023285835981369 -0.0104379067197442055 -1.82502424716949463 1644759332.01316404
-114.093063354492188 -194.103561401367188 5.34695291519165039 1445 0.0547452755272388458 -0.0271993260830640793 -1.81453442573547363 1644759332.21575356
-114.333518981933594 -195.212020874023438 5.39632415771484375 1446 0.0520600974559783936 -0.0353211089968681335 -1.80406796932220459 1644759332.41423273
-114.548728942871094 -196.258499145507812 5.41513299942016602 1447 0.0529408343136310577 -0.0238425731658935547 -1.81497180461883545 1644759332.61483359
-114.852951049804688 -197.29974365234375 5.43349456787109375 1448 0.0554666817188262939 -0.0306068733334541321 -1.81468498706817627 1644759332.81483245
-115.096511840820312 -198.34197998046875 5.44470548629760742 1449 0.0543261468410491943 -0.0301369540393352509 -1.8045203685760498 1644759333.01481366
-115.295684814453125 -199.3736572265625 5.43996763229370117 1450 0.0497574806213378906 -0.0336454547941684723 -1.81179893016815186 1644759333.21336246
-115.594802856445312 -200.371994018554688 5.50160789489746094 1451 0.0562209971249103546 -0.0257661771029233932 -1.81894028186798096 1644759333.41507363
-115.89398193359375 -201.35650634765625 5.47031927108764648 1452 0.0497629791498184204 -0.0212445240467786789 -1.83288192749023438 1644759333.61335516
-116.168182373046875 -202.320388793945312 5.50148868560791016 1453 0.0449297651648521423 -0.021530933678150177 -1.86752378940582275 1644759333.81525803
-117.009178161621094 -204.092147827148438 5.58220338821411133 1454 0.0335478298366069794 -0.0164843741804361343 -2.00695300102233887 1644759334.21441412
-118.084884643554688 -205.69720458984375 5.55962705612182617 1455 0.0334676690399646759 0.0068843550980091095 -2.16206002235412598 1644759334.61396909
-119.55419921875 -207.015029907226562 5.71590185165405273 1456 -0.0122845731675624847 -0.050519503653049469 -2.34505772590637207 1644759335.01324153
-121.039688110351562 -208.038955688476562 5.22581386566162109 1457 0.0801710188388824463 0.024995097890496254 -2.54150748252868652 1644759335.4153223
-121.992317199707031 -208.481887817382812 5.61709499359130859 1458 0.00970655772835016251 0.00436407746747136116 -2.60887908935546875 1644759335.61420774
-122.873809814453125 -208.92156982421875 5.38477420806884766 1459 0.0639953166246414185 0.00864479411393404007 -2.66189098358154297 1644759335.81591105
-123.770217895507812 -209.36505126953125 5.44625568389892578 1460 0.0188404489308595657 -0.00313716311939060688 -2.69424223899841309 1644759336.01432681
-124.715805053710938 -209.7099609375 5.45724868774414062 1461 0.0323652289807796478 0.00496053602546453476 -2.73482465744018555 1644759336.21528912
-125.726036071777344 -210.071975708007812 5.37418699264526367 1462 0.0349114984273910522 0.00256085069850087166 -2.77030277252197266 1644759336.41342568
-126.741722106933594 -210.431793212890625 5.38400363922119141 1463 0.0331184379756450653 0.00482327351346611977 -2.80238127708435059 1644759336.61519146
-127.739639282226562 -210.73895263671875 5.36426162719726562 1464 0.0278394985944032669 0.00986455101519823074 -2.83069562911987305 1644759336.81619978
-128.806854248046875 -211.0494384765625 5.30736923217773438 1465 0.0230675935745239258 0.0170960966497659683 -2.8502812385559082 1644759337.01544642
-129.893203735351562 -211.383636474609375 5.31928634643554688 1466 0.0260554421693086624 0.00852041598409414291 -2.85866713523864746 1644759337.21618724
-130.875961303710938 -211.698287963867188 5.3599700927734375 1467 0.0158002264797687531 0.00371194211766123772 -2.86582756042480469 1644759337.41479492
-131.850494384765625 -211.9560546875 5.27784252166748047 1468 0.0127532519400119781 0.0109273865818977356 -2.870025634765625 1644759337.61373305
-132.922561645507812 -212.295394897460938 5.2169346809387207 1469 0.00390887213870882988 0.00665527395904064178 -2.85565829277038574 1644759337.8155303
-133.87042236328125 -212.614501953125 5.15142488479614258 1470 -0.00275893718935549259 0.0171576235443353653 -2.85892462730407715 1644759338.01646614
-134.8409423828125 -212.904983520507812 5.24013376235961914 1471 -0.00461765751242637634 -0.0093573201447725296 -2.8580014705657959 1644759338.21508622
-135.855239868164062 -213.145721435546875 5.32588529586791992 1472 0.0175415594130754471 -0.0183937251567840576 -2.86041998863220215 1644759338.41566038
-136.818695068359375 -213.5032958984375 5.19452953338623047 1473 0.0147480787709355354 0.002817539032548666 -2.85230469703674316 1644759338.61580038
-138.720962524414062 -214.091506958007812 5.19152736663818359 1474 0.00977432262152433395 -0.0207462888211011887 -2.86760997772216797 1644759339.01491737
-139.75030517578125 -214.35552978515625 5.16960287094116211 1475 -0.00321337440982460976 -0.0117747671902179718 -2.87314510345458984 1644759339.21465921
-140.828094482421875 -214.665237426757812 5.239349365234375 1476 0.00722809135913848877 -0.02388780377805233 -2.86998987197875977 1644759339.41176152
-141.913619995117188 -215.004898071289062 5.24234676361083984 1477 -0.00195469358004629612 -0.0176274534314870834 -2.86581110954284668 1644759339.6137526
-143.00189208984375 -215.367691040039062 5.22320795059204102 1478 0.0177600942552089691 -0.0249116700142621994 -2.84431695938110352 1644759339.81514978
-144.070693969726562 -215.759979248046875 5.21519660949707031 1479 0.0136108659207820892 -0.0175202041864395142 -2.81828522682189941 1644759340.01530814
-145.238983154296875 -216.188400268554688 5.27845382690429688 1480 0.0153584107756614685 -0.0189217068254947662 -2.77387094497680664 1644759340.21561623
-146.359970092773438 -216.765380859375 5.25531721115112305 1481 0.0138317979872226715 -0.00881413742899894714 -2.72544145584106445 1644759340.4162519
-147.405838012695312 -217.322830200195312 5.30131292343139648 1482 0.00937212537974119186 -0.00961042102426290512 -2.68572258949279785 1644759340.61405802
-148.503585815429688 -217.93701171875 5.28792619705200195 1483 0.00181403709575533867 -0.0113167678937315941 -2.65280938148498535 1644759340.81575847
-149.609970092773438 -218.599578857421875 5.26258993148803711 1484 -0.00234816293232142925 -0.0112002352252602577 -2.6312553882598877 1644759341.0143261
-150.64666748046875 -219.260955810546875 5.25388717651367188 1485 -0.00589416502043604851 -0.0272422190755605698 -2.62161064147949219 1644759341.21496844
-151.68603515625 -219.84161376953125 5.20096874237060547 1486 0.0110644744709134102 -0.0236422140151262283 -2.61742544174194336 1644759341.41557693
-152.777084350585938 -220.480255126953125 5.21693325042724609 1487 0.0127174695953726768 -0.023442855104804039 -2.60519742965698242 1644759341.61197615
-153.850189208984375 -221.191177368164062 5.27378320693969727 1488 0.00270364200696349144 -0.0194459110498428345 -2.58649611473083496 1644759341.81946898
-154.911819458007812 -221.8814697265625 5.26882696151733398 1489 0.00203393818810582161 -0.0248997136950492859 -2.57157349586486816 1644759342.01539421
-155.990966796875 -222.602752685546875 5.23914194107055664 1490 -0.000182780306204222143 -0.015383182093501091 -2.55771231651306152 1644759342.2135489
-157.021743774414062 -223.369613647460938 5.24237871170043945 1491 -0.00332689797505736351 -0.0142858857288956642 -2.54191803932189941 1644759342.41534066
-158.030227661132812 -224.0823974609375 5.28751993179321289 1492 0.00045013579074293375 -0.0202087294310331345 -2.53495240211486816 1644759342.61454201
-159.0906982421875 -224.83966064453125 5.31390857696533203 1493 0.00621038442477583885 -0.0291335582733154297 -2.51749062538146973 1644759342.8123498
-160.10284423828125 -225.64208984375 5.33591461181640625 1494 -0.00182960950769484043 -0.00859978701919317245 -2.50230574607849121 1644759343.01572967
-161.103759765625 -226.430343627929688 5.30626153945922852 1495 0.0042105531319975853 -0.0228104479610919952 -2.4908292293548584 1644759343.21246028
-162.134384155273438 -227.22747802734375 5.30453681945800781 1496 -0.0124276643618941307 -0.0256105624139308929 -2.47692584991455078 1644759343.41349769
-163.149337768554688 -228.068832397460938 5.32127046585083008 1497 -0.000916936260182410479 -0.011107318103313446 -2.46193790435791016 1644759343.61245346
-164.120040893554688 -228.931365966796875 5.41933298110961914 1498 -0.00600577099248766899 -0.0344215333461761475 -2.4391942024230957 1644759343.81526852
-165.052398681640625 -229.810653686523438 5.39707231521606445 1499 -0.00771164009347558022 -0.0208629630506038666 -2.42548274993896484 1644759344.01693559
-165.937713623046875 -230.659027099609375 5.44164037704467773 1500 0.00139231770299375057 -0.0200219731777906418 -2.41358637809753418 1644759344.21507168
-166.874008178710938 -231.491073608398438 5.47068262100219727 1501 -0.0182318985462188721 -0.025825081393122673 -2.39971637725830078 1644759344.41652751
-167.771591186523438 -232.346054077148438 5.38881015777587891 1502 -0.00109277758747339249 -0.025414610281586647 -2.38335371017456055 1644759344.61647534
-168.5943603515625 -233.269927978515625 5.44023990631103516 1503 -0.0105558307841420174 -0.0195040386170148849 -2.34344768524169922 1644759344.81528544
-169.382598876953125 -234.20068359375 5.45120906829833984 1504 0.00634539267048239708 -0.0344070419669151306 -2.30034470558166504 1644759345.01234531
-170.122787475585938 -235.141250610351562 5.548095703125 1505 -0.00149621383752673864 -0.0296288933604955673 -2.2610170841217041 1644759345.21366334
-170.857254028320312 -236.165084838867188 5.55222749710083008 1506 0.00958985183387994766 -0.0472640916705131531 -2.21006131172180176 1644759345.41350389
-171.503387451171875 -237.20428466796875 5.58518743515014648 1507 -0.00114702351856976748 -0.0233272593468427658 -2.17319726943969727 1644759345.61513638
-172.154525756835938 -238.288406372070312 5.55022907257080078 1508 0.00681837275624275208 -0.023750990629196167 -2.12579631805419922 1644759345.81592131
-172.768142700195312 -239.406341552734375 5.59591484069824219 1509 -0.0256556794047355652 -0.0360967256128787994 -2.09848856925964355 1644759346.01617384
-173.381927490234375 -240.530410766601562 5.57447624206542969 1510 -0.00961915496736764908 -0.0214438959956169128 -2.08674931526184082 1644759346.21836209
-173.955291748046875 -241.636398315429688 5.61319684982299805 1511 -0.025369519367814064 -0.0335438922047615051 -2.07229804992675781 1644759346.4121604
-174.520645141601562 -242.711471557617188 5.61809444427490234 1512 -0.0196874793618917465 -0.010545508936047554 -2.06357169151306152 1644759346.61330628
-175.034744262695312 -243.765151977539062 5.63667154312133789 1513 -0.0109426602721214294 -0.0279026534408330917 -2.0541388988494873 1644759346.81247139
-175.580352783203125 -244.830886840820312 5.64261102676391602 1514 -0.0147199118509888649 -0.015217944048345089 -2.04356670379638672 1644759347.01599002
-176.075454711914062 -245.898284912109375 5.66616535186767578 1515 -0.00629202928394079208 -0.029911654070019722 -2.03094339370727539 1644759347.21412134
-176.58770751953125 -246.953399658203125 5.66111326217651367 1516 -0.0109741147607564926 -0.0229955036193132401 -2.01640701293945312 1644759347.41750693
-177.012939453125 -248.052200317382812 5.69958257675170898 1517 -0.00734944827854633331 -0.0175774823874235153 -1.99870502948760986 1644759347.61275721
-177.429458618164062 -249.07373046875 5.73283672332763672 1518 -0.00950268656015396118 -0.0300547666847705841 -1.98698067665100098 1644759347.81240988
-177.888336181640625 -250.003372192382812 5.80626296997070312 1519 -0.0142100732773542404 -0.036504548043012619 -1.98561859130859375 1644759348.01514435
-178.339996337890625 -251.07061767578125 5.78126287460327148 1520 -0.00933065358549356461 -0.0316019617021083832 -1.9605405330657959 1644759348.21513915
-178.69146728515625 -252.145660400390625 5.79110956192016602 1521 0.00586071889847517014 -0.0253327544778585434 -1.94654154777526855 1644759348.41507244
-179.486679077148438 -254.067947387695312 5.77936697006225586 1522 0.00112117244862020016 -0.00859224889427423477 -1.93583106994628906 1644759348.81443381
-179.77777099609375 -255.0933837890625 5.77252531051635742 1523 0.0114497244358062744 -0.0160003714263439178 -1.91787254810333252 1644759349.01431656
-180.432586669921875 -256.774383544921875 5.85023021697998047 1524 0.0246968064457178116 -0.0170108769088983536 -1.91751158237457275 1644759349.41136146
-180.767776489257812 -258.4759521484375 5.89947843551635742 1525 0.018261641263961792 -0.0161171574145555496 -1.85069620609283447 1644759349.81277466
-181.092788696289062 -259.955078125 5.93249988555908203 1526 0.00795415788888931274 -0.0286638680845499039 -1.77695095539093018 1644759350.21604705
-181.275177001953125 -261.230499267578125 6.00458955764770508 1527 -0.033572707325220108 -0.0257797595113515854 -1.74913203716278076 1644759350.6140995
-181.457061767578125 -262.309234619140625 6.03345632553100586 1528 -0.0203422978520393372 -0.0297675486654043198 -1.77571451663970947 1644759351.01226568
-181.751190185546875 -263.6090087890625 6.07592916488647461 1529 -0.012891680933535099 -0.0749433562159538269 -1.79673564434051514 1644759351.61872077
-182.096755981445312 -264.911285400390625 5.95412206649780273 1530 -6.67869317112490535e-05 0.0468309111893177032 -1.8209918737411499 1644759352.21317983
-182.4107666015625 -265.9696044921875 6.07042551040649414 1531 -0.0233229510486125946 -0.0257913786917924881 -1.83070111274719238 1644759352.8128047
-182.777114868164062 -267.03948974609375 6.05145025253295898 1532 0.0152274612337350845 -0.0279508661478757858 -1.85255837440490723 1644759353.42037511
-183.073028564453125 -268.07470703125 6.07378149032592773 1533 0.0233268029987812042 -0.0734386518597602844 -1.86528956890106201 1644759354.01395988
-183.46246337890625 -269.418060302734375 6.112060546875 1534 -0.0354787111282348633 -0.0256313011050224304 -1.87328457832336426 1644759354.61788106
-183.787948608398438 -270.51422119140625 6.08759689331054688 1535 0.0116102863103151321 -0.0513634644448757172 -1.87495517730712891 1644759355.01572561
-184.144241333007812 -271.6986083984375 6.07822704315185547 1536 0.0189755242317914963 -0.0278219040483236313 -1.86618125438690186 1644759355.41551304
-184.505386352539062 -272.825164794921875 6.12748050689697266 1537 0.0181733109056949615 -0.0329785905778408051 -1.87253475189208984 1644759355.81131005
-184.851150512695312 -274.019622802734375 6.17081022262573242 1538 0.0230378638952970505 -0.0311492495238780975 -1.87890136241912842 1644759356.21034479
-185.278350830078125 -275.257415771484375 6.14938068389892578 1539 0.0203644447028636932 -0.0186576750129461288 -1.87093448638916016 1644759356.61214495
-185.687484741210938 -276.515899658203125 6.15467596054077148 1540 0.0183769017457962036 -0.00316866440698504448 -1.8786008358001709 1644759357.01212692
-186.1138916015625 -277.750244140625 6.12369155883789062 1541 0.0318376794457435608 -0.00154649314936250448 -1.89676356315612793 1644759357.40984511
-186.565185546875 -279.06268310546875 6.11065387725830078 1542 0.062819257378578186 0.0103399185463786125 -1.89654779434204102 1644759357.81116462
-187.02532958984375 -280.375732421875 6.06232023239135742 1543 0.0638486891984939575 0.0290170665830373764 -1.91701853275299072 1644759358.21127629
-187.537750244140625 -281.737579345703125 6.01046085357666016 1544 0.0497977323830127716 0.0462027266621589661 -1.91198492050170898 1644759358.6100781
-188.0159912109375 -283.14556884765625 5.84169244766235352 1545 0.0442518740892410278 0.0618516393005847931 -1.92399144172668457 1644759359.00931263
-188.542831420898438 -284.596893310546875 5.81004714965820312 1546 0.0427596010267734528 0.0582749210298061371 -1.93535017967224121 1644759359.41265535
-189.140396118164062 -286.10272216796875 5.7594146728515625 1547 0.03076927550137043 0.0565863065421581268 -1.9364326000213623 1644759359.8092432
-189.752212524414062 -287.641815185546875 5.61585474014282227 1548 0.0328563787043094635 0.05356583371758461 -1.96044957637786865 1644759360.20918417
-190.374588012695312 -289.24517822265625 5.49902439117431641 1549 0.0315792672336101532 0.056514255702495575 -1.96931493282318115 1644759360.60894012
-191.1064453125 -290.916107177734375 5.45893716812133789 1550 0.0158824119716882706 0.0597130842506885529 -1.96644413471221924 1644759361.01011515
-191.8177490234375 -292.613922119140625 5.29664516448974609 1551 0.0112934121862053871 0.0483568534255027771 -1.97859680652618408 1644759361.40923142
-192.592575073242188 -294.40277099609375 5.10944080352783203 1552 0.0148913748562335968 0.043220221996307373 -1.98148941993713379 1644759361.81028867
-193.420669555664062 -296.198486328125 4.94206094741821289 1553 0.0417258217930793762 0.0475919321179389954 -2.01001286506652832 1644759362.20919585
-193.8583984375 -297.136688232421875 4.94936227798461914 1554 0.0397864766418933868 0.0575458109378814697 -2.00684309005737305 1644759362.41073942
-194.323333740234375 -298.04052734375 4.9469294548034668 1555 0.0452345609664916992 0.0492868125438690186 -2.0253603458404541 1644759362.60979581
-194.806015014648438 -299.007293701171875 4.71467018127441406 1556 0.0629012584686279297 0.0563671886920928955 -2.0289313793182373 1644759362.81088901
-195.26336669921875 -299.989105224609375 4.76762056350708008 1557 0.0338687561452388763 0.0705878660082817078 -2.02002763748168945 1644759363.00858164
-195.711624145507812 -300.935821533203125 4.73512506484985352 1558 0.0531251430511474609 0.0533453039824962616 -2.03516054153442383 1644759363.20901585
-196.2391357421875 -301.90179443359375 4.58009576797485352 1559 0.0437528900802135468 0.0693100094795227051 -2.05208086967468262 1644759363.41210938
-196.766006469726562 -302.88592529296875 4.55871486663818359 1560 0.048733878880739212 0.0677848905324935913 -2.04507732391357422 1644759363.60900497
-197.244552612304688 -303.879547119140625 4.46651601791381836 1561 0.0348507985472679138 0.0720982551574707031 -2.04553651809692383 1644759363.81150723
-197.770355224609375 -304.802734375 4.37233638763427734 1562 0.0582227557897567749 0.0646575093269348145 -2.06580853462219238 1644759364.00893474
-198.340911865234375 -305.754241943359375 4.30672073364257812 1563 0.0664740726351737976 0.0768628343939781189 -2.07267999649047852 1644759364.20879006
-198.872665405273438 -306.686798095703125 4.26494646072387695 1564 0.0654824525117874146 0.0724452883005142212 -2.08221721649169922 1644759364.41039205
-199.400527954101562 -307.585174560546875 4.12267494201660156 1565 0.0724099725484848022 0.0715092569589614868 -2.09694361686706543 1644759364.60883737
-199.995697021484375 -308.50439453125 4.10776901245117188 1566 0.0713420137763023376 0.0925394222140312195 -2.11793327331542969 1644759364.8115654
-200.601287841796875 -309.41497802734375 4.05755281448364258 1567 0.0767461806535720825 0.083735443651676178 -2.13341593742370605 1644759365.00965643
-201.20867919921875 -310.314544677734375 3.96448063850402832 1568 0.049887876957654953 0.0808880627155303955 -2.15663909912109375 1644759365.20861316
-201.837982177734375 -311.142333984375 3.84328961372375488 1569 0.0442385263741016388 0.0569501593708992004 -2.20052886009216309 1644759365.40890217
-202.506912231445312 -311.92852783203125 3.75923800468444824 1570 0.0445996224880218506 0.0719810351729393005 -2.25051259994506836 1644759365.61271858
-203.252349853515625 -312.663360595703125 3.63050627708435059 1571 0.0286483708769083023 0.0701835975050926208 -2.32724571228027344 1644759365.8093164
-204.828994750976562 -313.9022216796875 3.46877169609069824 1572 0.0198789332062005997 0.0600071847438812256 -2.4697577953338623 1644759366.21028972
-206.43621826171875 -314.887969970703125 3.37008142471313477 1573 0.0295391269028186798 0.0836325883865356445 -2.57729506492614746 1644759366.60730219
-208.137451171875 -315.740478515625 3.23900747299194336 1574 0.0306685194373130798 0.105539612472057343 -2.63475227355957031 1644759367.00797391
-209.6793212890625 -316.3902587890625 3.01053810119628906 1575 0.0357172600924968719 0.114801771938800812 -2.71427440643310547 1644759367.40751886
-211.282882690429688 -316.826202392578125 2.84581899642944336 1576 0.033623427152633667 0.117074072360992432 -2.82986307144165039 1644759367.80887794
-212.746780395507812 -317.086151123046875 2.67627263069152832 1577 0.0187032725661993027 0.119099527597427368 -2.94351768493652344 1644759368.20923042
-214.28839111328125 -317.23211669921875 2.43997883796691895 1578 0.0263562370091676712 0.0976461470127105713 -3.05054163932800293 1644759368.61058736
-215.553146362304688 -316.99407958984375 2.34356141090393066 1579 0.0139764547348022461 0.11989612877368927 3.10123872756958008 1644759369.00768518
-216.758438110351562 -316.7628173828125 2.30481791496276855 1580 0.00780084356665611267 0.10292448103427887 2.9793400764465332 1644759369.40942526
-217.62774658203125 -316.150360107421875 2.16791439056396484 1581 0.0381419025361537933 0.0695368945598602295 2.77517795562744141 1644759369.8086524
-218.722915649414062 -315.041412353515625 2.09655618667602539 1582 0.0304345842450857162 0.0779183879494667053 2.50070285797119141 1644759370.40916896
-219.485183715820312 -314.33404541015625 2.00811481475830078 1583 -0.00372472149319946766 0.0746067315340042114 2.36733484268188477 1644759370.8089354
-219.944625854492188 -313.3922119140625 2.3040621280670166 1584 -0.0502158105373382568 0.00997653603553771973 2.25860905647277832 1644759371.20761204
-220.742111206054688 -312.749664306640625 2.04407238960266113 1585 0.02048504538834095 0.0697640031576156616 2.28465509414672852 1644759371.60897183
-221.43902587890625 -311.875762939453125 1.89180088043212891 1586 0.0111706815659999847 0.0709509924054145813 2.29433536529541016 1644759372.0106957
-222.107574462890625 -311.1190185546875 1.81904590129852295 1587 0.0011754112783819437 0.0646610930562019348 2.27472925186157227 1644759372.40845847
-222.852310180664062 -310.10540771484375 1.77087664604187012 1588 -0.00573014887049794197 0.066797301173210144 2.24737095832824707 1644759372.80904722
-223.690658569335938 -309.056884765625 1.63100540637969971 1589 0.0151966968551278114 0.0614507272839546204 2.24027633666992188 1644759373.20848298
-224.570602416992188 -307.969696044921875 1.43719661235809326 1590 0.0312063340097665787 0.0737126991152763367 2.23159289360046387 1644759373.60882187
-225.526016235351562 -306.688201904296875 1.30860590934753418 1591 0.0195932649075984955 0.0698159486055374146 2.23036456108093262 1644759374.01052427
-226.326278686523438 -305.5731201171875 1.23842000961303711 1592 0.0161934494972229004 0.0688672289252281189 2.20631170272827148 1644759374.4103334
-227.32989501953125 -304.3323974609375 1.07049417495727539 1593 0.0205925125628709793 0.066889643669128418 2.20135116577148438 1644759374.80908322
-228.249191284179688 -302.977264404296875 0.95630037784576416 1594 0.0285550858825445175 0.0761599093675613403 2.19438600540161133 1644759375.20741487
-229.12030029296875 -301.735443115234375 0.81489717960357666 1595 0.0461611710488796234 0.0584648475050926208 2.17347526550292969 1644759375.60972285
-230.051681518554688 -300.329071044921875 0.707173049449920654 1596 0.03594931960105896 0.0620088540017604828 2.16897940635681152 1644759376.00893927
-230.956878662109375 -298.955291748046875 0.493815302848815918 1597 0.0324456766247749329 0.0804787501692771912 2.16041088104248047 1644759376.41159296
-231.84912109375 -297.654296875 0.541498899459838867 1598 0.0213638227432966232 0.0535250678658485413 2.15588808059692383 1644759376.80809879
-232.750900268554688 -296.29998779296875 0.210911676287651062 1599 0.0649341270327568054 0.0509929768741130829 2.15127801895141602 1644759377.20991039
-233.5289306640625 -294.986297607421875 0.324496060609817505 1600 0.038984294980764389 0.0445251315832138062 2.14631533622741699 1644759377.61050725
