# .PCD v0.7 - Point Cloud Data file format
VERSION 0.7
FIELDS x y z intensity roll pitch yaw time
SIZE 4 4 4 4 4 4 4 8
TYPE F F F F F F F F
COUNT 1 1 1 1 1 1 1 1
WIDTH 317
HEIGHT 1
VIEWPOINT 0 0 0 1 0 0 0
POINTS 317
DATA ascii
32.5200767517089844 -65.4007492065429688 5.57619714736938477 45 -0.0217784810811281204 -0.0536559447646141052 -0.159802407026290894 1645021171.20020652
34.306976318359375 -65.0173263549804688 5.54468917846679688 46 -0.0439880676567554474 -0.0425374135375022888 0.112800434231758118 1645021171.60063481
35.7984695434570312 -64.6197891235351562 5.48971652984619141 47 -0.079731374979019165 0.0321823433041572571 0.26981198787689209 1645021172.00127673
36.9024085998535156 -64.1817398071289062 5.56388139724731445 48 -0.0974639281630516052 0.0790873393416404724 0.297458678483963013 1645021172.20431376
37.9588088989257812 -63.8533172607421875 5.36517906188964844 49 -0.0558676384389400482 0.0532393604516983032 0.340126693248748779 1645021172.40027881
39.1302680969238281 -63.2790336608886719 5.32848358154296875 50 -0.0765375047922134399 0.0349340811371803284 0.400672405958175659 1645021172.59945917
40.2149085998535156 -62.6858062744140625 5.24885654449462891 51 -0.0599806010723114014 0.043475128710269928 0.433514386415481567 1645021172.79942465
41.2753257751464844 -62.1237869262695312 5.25537919998168945 52 -0.0726977363228797913 0.0382673665881156921 0.458908557891845703 1645021173.00040364
42.2137565612792969 -61.6550369262695312 5.13162755966186523 53 -0.0535224378108978271 0.0195212047547101974 0.455954521894454956 1645021173.20309734
44.1183357238769531 -60.8557510375976562 5.01837253570556641 54 -0.0298510678112506866 -0.01223777886480093 0.437741458415985107 1645021173.59998584
45.3053321838378906 -60.378173828125 5.07709455490112305 55 -0.0232783928513526917 -0.0226742234081029892 0.41076245903968811 1645021173.80033398
46.5163917541503906 -59.8723793029785156 5.1065058708190918 56 -0.0302328392863273621 -0.0162953771650791168 0.388016164302825928 1645021174.00063801
47.7171897888183594 -59.4025497436523438 5.10980558395385742 57 -0.0377710089087486267 -0.0193019174039363861 0.38013380765914917 1645021174.20322776
49.0005683898925781 -58.8158683776855469 5.15097284317016602 58 -0.0277371332049369812 -0.0303546488285064697 0.371905654668807983 1645021174.40087557
50.4072265625 -58.2545356750488281 5.17850399017333984 59 -0.0239553861320018768 -0.0153315141797065735 0.388799101114273071 1645021174.5985465
51.5959014892578125 -57.6771202087402344 5.11402559280395508 60 -0.0344653353095054626 -0.00767136923968791962 0.409793049097061157 1645021174.79879403
52.6800422668457031 -57.2074165344238281 5.13728046417236328 61 -0.0115109831094741821 -0.0289357118308544159 0.407065033912658691 1645021174.9995513
53.851531982421875 -56.7236785888671875 5.17561149597167969 62 -0.0459494590759277344 -0.0136972879990935326 0.390938252210617065 1645021175.19944024
55.048309326171875 -56.3306846618652344 5.09059047698974609 63 -0.0114756049588322639 0.0444070063531398773 0.361242592334747314 1645021175.39938545
56.0520591735839844 -55.8534736633300781 5.10373783111572266 64 -0.0299970675259828568 -0.0889669284224510193 0.377777695655822754 1645021175.60005617
57.2709312438964844 -55.3756065368652344 5.49310445785522461 65 -0.0389903523027896881 0.133366778492927551 0.490021109580993652 1645021175.79961658
58.5308494567871094 -54.6186180114746094 5.1644744873046875 66 -0.0392902381718158722 -0.0167655050754547119 0.462522029876708984 1645021176.20438647
60.2755317687988281 -54.2076988220214844 5.1206965446472168 67 -0.0390071123838424683 -0.0223067402839660645 0.272693514823913574 1645021176.60730219
61.2728195190429688 -53.9983329772949219 5.2404332160949707 68 -0.0711276456713676453 -0.0199583414942026138 0.204953849315643311 1645021176.80423117
62.2734794616699219 -53.9644660949707031 5.20466136932373047 69 -0.0507895871996879578 -0.028996441513299942 0.116720974445343018 1645021177.00404453
64.1870803833007812 -54.1114845275878906 5.25046586990356445 70 -0.0499448962509632111 -0.0384707897901535034 -0.0736256912350654602 1645021177.40274858
66.1143722534179688 -54.7094612121582031 5.20164966583251953 71 -0.0231802854686975479 0.00449803564697504044 -0.245871260762214661 1645021177.80267549
67.0334625244140625 -55.1424102783203125 5.26409053802490234 72 0.00766760716214776039 -0.00588713539764285088 -0.323472023010253906 1645021178.00171638
67.9863433837890625 -55.640350341796875 5.35751771926879883 73 0.00230714771896600723 -0.0182937830686569214 -0.402275711297988892 1645021178.2017796
69.0099029541015625 -56.1795158386230469 5.29053831100463867 74 0.0199883915483951569 -0.0185279548168182373 -0.47117161750793457 1645021178.40122676
69.9802474975585938 -56.7516670227050781 5.28791475296020508 75 0.00609294464811682701 -0.0300601739436388016 -0.518719613552093506 1645021178.60135317
70.8207626342773438 -57.3470611572265625 5.37442779541015625 76 0.0224608182907104492 -0.0306766778230667114 -0.563240230083465576 1645021178.80158854
71.7786712646484375 -58.0095062255859375 5.39498043060302734 77 0.0199790056794881821 -0.0405699312686920166 -0.596308350563049316 1645021179.00179505
72.7213363647460938 -58.7281646728515625 5.36672210693359375 78 0.034374728798866272 -0.0164268799126148224 -0.614666342735290527 1645021179.20132685
73.713623046875 -59.3954391479492188 5.48146772384643555 79 0.0138721661642193794 -0.0319159999489784241 -0.621225655078887939 1645021179.40161347
74.6533889770507812 -60.0710792541503906 5.44809103012084961 80 0.0558396801352500916 -0.0379247218370437622 -0.616088211536407471 1645021179.60090256
75.7271881103515625 -60.6570854187011719 5.4970240592956543 81 0.0515490584075450897 -0.0349427051842212677 -0.552475392818450928 1645021179.80221796
76.6872787475585938 -61.1149253845214844 5.5190272331237793 82 0.0577298104763031006 -0.0340624339878559113 -0.481509029865264893 1645021180.00307798
77.6739883422851562 -61.4980812072753906 5.55097246170043945 83 0.059993259608745575 -0.0319763757288455963 -0.401639699935913086 1645021180.20157528
78.7210464477539062 -61.8123245239257812 5.52852678298950195 84 0.0575204044580459595 -0.0392198078334331512 -0.320681661367416382 1645021180.40360641
79.7479248046875 -62.0054550170898438 5.54894113540649414 85 0.0685938820242881775 -0.0336349047720432281 -0.24567711353302002 1645021180.60332942
80.9715805053710938 -62.2501678466796875 5.45192956924438477 86 0.052372761070728302 0.021246735006570816 -0.158627122640609741 1645021180.8022368
82.3576278686523438 -62.3060836791992188 5.45048713684082031 87 0.0477209798991680145 0.00332875247113406658 -0.072808288037776947 1645021181.00198054
83.788421630859375 -62.2265357971191406 5.55189228057861328 88 0.0302416998893022537 -0.0122098559513688087 0.012571399100124836 1645021181.20157862
85.2534942626953125 -61.97869873046875 5.65501689910888672 89 0.0233919247984886169 -0.00615420332178473473 0.113419212400913239 1645021181.40110588
86.432281494140625 -61.6241302490234375 5.70478200912475586 90 0.0209764633327722549 -0.025852372869849205 0.202247187495231628 1645021181.60114908
87.5800018310546875 -61.170501708984375 5.70111751556396484 91 0.00398971838876605034 -0.0166758429259061813 0.284035921096801758 1645021181.80115867
88.720367431640625 -60.6615943908691406 5.66003894805908203 92 -0.0125456945970654488 -0.0346875190734863281 0.3452301025390625 1645021182.00132084
89.8635787963867188 -60.1917877197265625 5.69943094253540039 93 -0.00564187532290816307 -0.0131944390013813972 0.382591009140014648 1645021182.2014544
90.9991912841796875 -59.8211898803710938 5.74844169616699219 94 -0.0193800479173660278 -0.0288602430373430252 0.382267683744430542 1645021182.40552115
92.2795257568359375 -59.3357429504394531 5.64972305297851562 95 0.00292574195191264153 -0.0334709882736206055 0.386984288692474365 1645021182.60209775
93.6177597045898438 -58.5569419860839844 5.67393636703491211 96 -0.0241104252636432648 -0.0220628101378679276 0.39977109432220459 1645021182.80172372
94.8180160522460938 -57.8608169555664062 5.66653251647949219 97 -0.00864832941442728043 -0.0282716434448957443 0.426721543073654175 1645021183.00131178
95.909088134765625 -57.1381187438964844 5.74905633926391602 98 -0.0290915146470069885 -0.0259157642722129822 0.45413169264793396 1645021183.20089006
97.0727081298828125 -56.7011528015136719 5.67917776107788086 99 -0.0217008274048566818 -0.0178585201501846313 0.453923583030700684 1645021183.40189052
98.2812042236328125 -56.206298828125 5.6779637336730957 100 -0.0276333354413509369 -0.0188482720404863358 0.43270033597946167 1645021183.60156941
99.5452804565429688 -55.6926116943359375 5.72173881530761719 101 -0.0220233649015426636 -0.0152920493856072426 0.410841643810272217 1645021183.80160069
100.868049621582031 -55.1092262268066406 5.81278848648071289 102 -0.021424395963549614 -0.0248555932193994522 0.404562175273895264 1645021184.00117373
102.112571716308594 -54.5690574645996094 5.81607866287231445 103 -0.0141226807609200478 -0.027020404115319252 0.398797720670700073 1645021184.2013557
103.359085083007812 -54.0340194702148438 5.78790378570556641 104 -0.00643140915781259537 -0.0248611941933631897 0.396416753530502319 1645021184.40114594
104.605918884277344 -53.4708137512207031 5.74596738815307617 105 -0.0062517235055565834 -0.0161038283258676529 0.404781937599182129 1645021184.6015234
105.819206237792969 -52.8943099975585938 5.8404536247253418 106 -0.00871530640870332718 -0.0290753375738859177 0.415606319904327393 1645021184.80161142
106.992202758789062 -52.382049560546875 5.85709285736083984 107 -0.0098405713215470314 -0.0289261098951101303 0.418765425682067871 1645021185.00151777
108.313400268554688 -51.8133163452148438 5.84684371948242188 108 -0.0132286446169018745 -0.0206570345908403397 0.424655228853225708 1645021185.20128942
109.643569946289062 -51.1315193176269531 5.84638404846191406 109 -0.0125524895265698433 -0.0100150648504495621 0.440023630857467651 1645021185.40074849
110.755592346191406 -50.5624885559082031 5.94047641754150391 110 -0.0108063649386167526 -0.0420332103967666626 0.447578549385070801 1645021185.60106564
111.930717468261719 -49.9901084899902344 6.00174808502197266 111 -0.00122215179726481438 -0.0373149886727333069 0.446774333715438843 1645021185.80255246
113.208892822265625 -49.4049491882324219 5.96385335922241211 112 -0.0116156712174415588 -0.0246770679950714111 0.449719250202178955 1645021186.00147796
114.544021606445312 -48.712310791015625 5.95531368255615234 113 -0.0122569110244512558 -0.0166300814598798752 0.457253992557525635 1645021186.20185518
115.723075866699219 -48.0091476440429688 5.92334461212158203 114 -0.00673058908432722092 -0.0166455097496509552 0.466576725244522095 1645021186.40102744
116.738937377929688 -47.3977508544921875 6.01578617095947266 115 -0.00721187377348542213 -0.0285793058574199677 0.467643588781356812 1645021186.60118794
117.955360412597656 -47.0535812377929688 6.00523662567138672 116 -0.00641480041667819023 -0.0230319295078516006 0.447189092636108398 1645021186.80155778
119.295921325683594 -46.4378852844238281 5.91655588150024414 117 0.00386650720611214638 -0.0217413417994976044 0.424477964639663696 1645021187.00126052
120.655952453613281 -45.6177482604980469 5.93050193786621094 118 -0.00909169577062129974 -0.0082238856703042984 0.446447223424911499 1645021187.20203543
121.76031494140625 -45.0448532104492188 5.98805904388427734 119 0.00672225933521986008 -0.0367486737668514252 0.442698389291763306 1645021187.4025259
122.979560852050781 -44.5575027465820312 6.02960634231567383 120 -0.0251462403684854507 -0.0296507738530635834 0.443441897630691528 1645021187.60454512
124.264923095703125 -44.0740127563476562 6.08908939361572266 121 -0.013792634941637516 -0.0288763884454965591 0.412496179342269897 1645021187.80233502
125.481491088867188 -43.5272636413574219 6.09437036514282227 122 -0.0243229735642671585 -0.0133890025317668915 0.39422646164894104 1645021188.00158429
126.701210021972656 -43.0072402954101562 6.11191558837890625 123 -0.0136697329580783844 -0.020306738093495369 0.394729882478713989 1645021188.20187402
127.792526245117188 -42.48211669921875 6.12074565887451172 124 -0.0050874343141913414 -0.0127278920263051987 0.419870615005493164 1645021188.40055108
128.826568603515625 -41.9969329833984375 6.12689399719238281 125 0.0124727943912148476 -0.0146074499934911728 0.459055334329605103 1645021188.6016643
129.776611328125 -41.45806884765625 6.14818429946899414 126 0.010043255053460598 -0.00217882893048226833 0.500849545001983643 1645021188.80144858
130.620361328125 -40.8989105224609375 6.19113874435424805 127 0.0159007422626018524 -0.00413944758474826813 0.555916368961334229 1645021189.00399995
131.90301513671875 -39.6109466552734375 6.23723125457763672 128 0.0449497662484645844 -0.0183549430221319199 0.78252875804901123 1645021189.40162301
132.379837036132812 -38.1619911193847656 6.26381969451904297 129 0.0539920814335346222 0.00647848192602396011 1.13267087936401367 1645021189.8012414
132.384628295898438 -36.9499282836914062 6.24584102630615234 130 0.0588131844997406006 0.00687255570665001869 1.41701412200927734 1645021190.20184326
132.252349853515625 -35.8065643310546875 6.24272584915161133 131 0.073480263352394104 -0.0187905430793762207 1.5878833532333374 1645021190.60239315
132.02838134765625 -34.4293251037597656 6.28336524963378906 132 0.0577482990920543671 -0.011302153579890728 1.69756340980529785 1645021191.00219512
131.5472412109375 -32.9197463989257812 6.28165245056152344 133 0.0523416735231876373 0.00179091899190098047 1.8659433126449585 1645021191.40190458
130.685226440429688 -31.5207042694091797 6.2056879997253418 134 0.0650054216384887695 0.00296525121666491032 2.08163046836853027 1645021191.80092621
129.313339233398438 -30.5815677642822266 6.30519819259643555 135 0.0850735902786254883 -0.0198842007666826248 2.37455558776855469 1645021192.20174026
128.052474975585938 -29.8996963500976562 6.26996612548828125 136 0.0819142535328865051 -0.00325628160499036312 2.7050025463104248 1645021192.60320163
126.23052978515625 -29.7965221405029297 6.19446945190429688 137 0.052682921290397644 0.0210506636649370193 3.0324549674987793 1645021193.00311303
125.043205261230469 -30.0671901702880859 6.16517543792724609 138 0.0621213316917419434 0.0486835390329360962 -3.10244655609130859 1645021193.20430708
123.379890441894531 -30.6076869964599609 6.28837013244628906 139 0.0265349280089139938 0.0259425956755876541 -2.91554164886474609 1645021193.60362291
122.438018798828125 -30.9726886749267578 6.1871333122253418 140 -0.00817772559821605682 0.00462959101423621178 -2.8337256908416748 1645021193.80349088
121.07122802734375 -31.6409969329833984 6.0934138298034668 141 0.0237994249910116196 -0.00851048808544874191 -2.77870488166809082 1645021194.2031467
119.239578247070312 -32.4932022094726562 6.01094818115234375 142 0.0230258423835039139 0.0272461920976638794 -2.69958734512329102 1645021194.60344148
118.34393310546875 -33.0590248107910156 6.1293182373046875 143 -0.00770751433447003365 -0.00977487675845623016 -2.64907646179199219 1645021194.80383611
116.712013244628906 -34.0298805236816406 6.14245367050170898 144 -0.0176887642592191696 -0.000399310607463121414 -2.65480709075927734 1645021195.20327568
115.747772216796875 -34.5143966674804688 6.10945606231689453 145 -0.00755977490916848183 -0.00906831957399845123 -2.6614234447479248 1645021195.40461707
114.714668273925781 -35.0126571655273438 6.14051914215087891 146 -0.0184230059385299683 0.0152906114235520363 -2.66996908187866211 1645021195.60295248
113.628501892089844 -35.5529327392578125 6.01857471466064453 147 -0.0123916929587721825 0.0272328946739435196 -2.6771852970123291 1645021195.80304408
112.157455444335938 -36.1199989318847656 6.07002687454223633 148 0.0226288586854934692 0.00645215436816215515 -2.74013352394104004 1645021196.20331168
111.214561462402344 -36.4305839538574219 5.92934751510620117 149 0.0153711466118693352 -0.0297324061393737793 -2.76868557929992676 1645021196.40284133
109.870391845703125 -36.9671401977539062 6.11215829849243164 150 0.007251017726957798 0.0200151260942220688 -2.79813790321350098 1645021196.60541797
108.898078918457031 -37.4639129638671875 5.96791219711303711 151 0.010214904323220253 -0.0539882034063339233 -2.8276054859161377 1645021196.80547619
107.152206420898438 -38.0593376159667969 5.85769224166870117 152 0.0280421096831560135 0.0421376936137676239 -2.78375053405761719 1645021197.00474
105.893402099609375 -38.7097244262695312 5.91637325286865234 153 -0.0157191678881645203 0.0548022948205471039 -2.73889303207397461 1645021197.20547891
104.896102905273438 -39.1311416625976562 5.97320413589477539 154 -0.000354868650902062654 -0.0169252343475818634 -2.74115848541259766 1645021197.40280437
103.002914428710938 -39.9560508728027344 5.87923574447631836 155 -0.00660630874335765839 0.00824006926268339157 -2.76881289482116699 1645021197.80619144
101.720710754394531 -40.454742431640625 5.75352287292480469 156 0.0317226797342300415 0.0102804619818925858 -2.76341152191162109 1645021198.00351071
100.632637023925781 -41.0086326599121094 5.81400012969970703 157 -0.00492415390908718109 0.00316893565468490124 -2.75046968460083008 1645021198.20497918
99.5027923583984375 -41.4004936218261719 5.84731245040893555 158 0.00703568756580352783 0.00689130695536732674 -2.75606465339660645 1645021198.4067235
98.275543212890625 -41.8986701965332031 5.85074281692504883 159 0.0125302253291010857 -0.0087603377178311348 -2.75650644302368164 1645021198.6040771
96.9641342163085938 -42.46624755859375 5.81368684768676758 160 0.00351998768746852875 0.011986512690782547 -2.74506449699401855 1645021198.80527306
95.74615478515625 -43.1021766662597656 5.86467313766479492 161 -0.00164033984765410423 -0.0185399185866117477 -2.73744869232177734 1645021199.00381231
94.5184783935546875 -43.595245361328125 5.85112524032592773 162 0.00665143877267837524 -0.0026495601050555706 -2.73865413665771484 1645021199.20642686
93.378265380859375 -44.1371574401855469 5.78728723526000977 163 0.000579216983169317245 -0.00282216258347034454 -2.7337954044342041 1645021199.40536785
92.203277587890625 -44.5473098754882812 5.76517868041992188 164 0.0114749958738684654 -0.00716961408033967018 -2.74935555458068848 1645021199.60561538
90.895965576171875 -45.041107177734375 5.65957355499267578 165 0.00983936246484518051 0.0216853898018598557 -2.75284314155578613 1645021199.80532551
89.7241439819335938 -45.5697898864746094 5.47351503372192383 166 0.0322841927409172058 0.0331975221633911133 -2.75043606758117676 1645021200.0076735
87.8288497924804688 -46.072235107421875 5.51831436157226562 167 0.0230917483568191528 0.0227971486747264862 -2.75248956680297852 1645021200.40835142
86.7057952880859375 -46.5305824279785156 5.56428623199462891 168 -0.00542754633352160454 -0.0108255725353956223 -2.7539055347442627 1645021200.60636806
85.0785980224609375 -47.2539939880371094 5.55954360961914062 169 -0.0133284907788038254 0.0360709503293037415 -2.75868058204650879 1645021200.80823421
82.9614791870117188 -48.6241798400878906 5.51080560684204102 170 0.0051977955736219883 0.0145036289468407631 -2.72493314743041992 1645021201.10647082
81.9170455932617188 -48.9133186340332031 5.38945674896240234 171 0.0189552977681159973 0.00900518521666526794 -2.74330377578735352 1645021201.3081193
79.352386474609375 -49.9673538208007812 5.42476367950439453 172 0.00443837093189358711 0.00392575003206729889 -2.7152559757232666 1645021201.60695076
77.3487701416015625 -50.9304428100585938 5.40622282028198242 173 0.0184627715498209 0.00372767937369644642 -2.77400755882263184 1645021202.00540066
75.7024612426757812 -51.342742919921875 5.36895513534545898 174 0.0228587556630373001 -0.00536529812961816788 -2.77410316467285156 1645021202.20689201
74.278289794921875 -51.8751449584960938 5.37729215621948242 175 0.0380624867975711823 -0.0140260457992553711 -2.77142572402954102 1645021202.40591931
73.158721923828125 -52.3772850036621094 5.401275634765625 176 0.0470430888235569 -0.00297565036453306675 -2.78036856651306152 1645021202.60662866
72.0661697387695312 -52.821563720703125 5.37654590606689453 177 0.0409576483070850372 0.0120210917666554451 -2.79711699485778809 1645021202.8077271
70.5838623046875 -53.301605224609375 5.29496908187866211 178 0.0469307713210582733 0.00525968149304389954 -2.78167009353637695 1645021203.00680232
69.2679061889648438 -53.9000625610351562 5.28002262115478516 179 0.0458418838679790497 -0.015203746035695076 -2.75790882110595703 1645021203.20753312
67.1707305908203125 -54.851715087890625 5.19450902938842773 180 0.034986104816198349 0.00266448291949927807 -2.75343775749206543 1645021203.60781693
65.6039505004882812 -55.4829826354980469 5.23389387130737305 181 0.0209103487432003021 -0.000746844394598156214 -2.74051284790039062 1645021203.80740094
64.2566986083984375 -56.0847625732421875 5.25113296508789062 182 0.0133070042356848717 -0.0164929945021867752 -2.72700405120849609 1645021204.00623393
62.9657402038574219 -56.7058219909667969 5.23971271514892578 183 0.000775445019826292992 0.0127815743908286095 -2.71804380416870117 1645021204.20830798
61.8748054504394531 -57.1925010681152344 5.21923732757568359 184 0.00863338913768529892 0.00101376802194863558 -2.72961807250976562 1645021204.40739107
60.7417564392089844 -57.6596221923828125 5.26434326171875 185 0.00498834624886512756 -0.00591203197836875916 -2.74110937118530273 1645021204.60726666
59.4348793029785156 -58.1842803955078125 5.25525617599487305 186 0.00661160144954919815 0.00730909081175923347 -2.74421906471252441 1645021204.80639935
58.2371826171875 -58.7410316467285156 5.32253646850585938 187 0.00102128030266612768 0.00297770649194717407 -2.7441108226776123 1645021205.00800419
55.996826171875 -59.6727333068847656 5.41908597946166992 188 0.0245282575488090515 0.0390539802610874176 -2.72284722328186035 1645021205.407974
55.1534233093261719 -60.1380844116210938 5.09838342666625977 189 0.0287823434919118881 -0.00270848697982728481 -2.75301027297973633 1645021205.8081584
53.2654914855957031 -60.7163658142089844 5.23952722549438477 190 0.0121407145634293556 -0.012170303612947464 -2.76845717430114746 1645021206.20833659
52.2526741027832031 -61.2291297912597656 5.18889236450195312 191 -0.0016873552231118083 -0.0140061443671584129 -2.75966453552246094 1645021206.40759254
51.2813453674316406 -61.6698074340820312 5.22305011749267578 192 0.00817030854523181915 -0.0175351724028587341 -2.74979543685913086 1645021206.60783601
49.7044334411621094 -62.3185882568359375 5.19495916366577148 193 0.00534909870475530624 -0.0258850045502185822 -2.75077581405639648 1645021207.00778365
48.7637062072753906 -62.6972999572753906 5.15068674087524414 194 0.00638152891770005226 -0.0138151319697499275 -2.75098657608032227 1645021207.20905948
47.7776260375976562 -63.1011924743652344 5.17870235443115234 195 0.00793093442916870117 -0.0133883384987711906 -2.74870109558105469 1645021207.40803456
46.7196578979492188 -63.5560798645019531 5.15275335311889648 196 0.00805568136274814606 -0.00352610880509018898 -2.74578499794006348 1645021207.60908484
45.6487083435058594 -64.0275039672851562 5.22906827926635742 197 0.00688018463551998138 0.0158811323344707489 -2.74233198165893555 1645021207.81058049
44.6670646667480469 -64.3682174682617188 5.21425390243530273 198 0.0196123234927654266 -0.00736387725919485092 -2.76017570495605469 1645021208.0088203
43.6867256164550781 -64.7825775146484375 5.28836822509765625 199 0.0324897654354572296 -0.028142828494310379 -2.76383090019226074 1645021208.20934296
42.6496849060058594 -65.3261260986328125 5.19944572448730469 200 -0.0144927315413951874 -0.0116082988679409027 -2.74397397041320801 1645021208.40911937
41.5181694030761719 -65.851287841796875 5.28974390029907227 201 0.00688399234786629677 -0.052941933274269104 -2.7396543025970459 1645021208.60869145
40.5867538452148438 -66.28631591796875 5.34087944030761719 202 -0.00901279784739017487 -0.0643269792199134827 -2.73339366912841797 1645021208.80875993
38.9308128356933594 -66.7839813232421875 5.52679157257080078 203 0.0168706439435482025 -0.0962667986750602722 -2.75456881523132324 1645021209.20935297
37.9243812561035156 -67.1057662963867188 5.62887144088745117 204 0.0373907238245010376 -0.122937858104705811 -2.76779270172119141 1645021209.40732765
36.7249412536621094 -67.6074600219726562 5.76550960540771484 205 0.0453062914311885834 -0.115835219621658325 -2.7636106014251709 1645021209.60812044
35.4720382690429688 -68.1853256225585938 5.88303613662719727 206 0.0589952804148197174 -0.126555651426315308 -2.73110461235046387 1645021209.80802155
34.3375053405761719 -68.8375778198242188 6.0192265510559082 207 0.0382134765386581421 -0.127505049109458923 -2.6855463981628418 1645021210.00683117
32.631744384765625 -69.488372802734375 5.95071220397949219 208 0.0856010466814041138 -0.0287248995155096054 -2.74454808235168457 1645021210.60987568
31.484893798828125 -69.89794921875 5.96684551239013672 209 0.119006827473640442 -0.0230839308351278305 -2.77114152908325195 1645021210.80959249
30.1267509460449219 -70.3563919067382812 5.87895822525024414 210 0.0925769954919815063 -0.0218463465571403503 -2.7574613094329834 1645021211.00908017
28.9773826599121094 -70.9725341796875 6.03187990188598633 211 0.10870940238237381 -0.0107153775170445442 -2.74431228637695312 1645021211.20912933
27.9865951538085938 -71.400909423828125 5.95500373840332031 212 0.101472474634647369 -0.0262794364243745804 -2.72432589530944824 1645021211.4074266
26.3893051147460938 -72.18414306640625 6.0401616096496582 213 0.126832783222198486 -0.00939078722149133682 -2.71428227424621582 1645021211.80815887
25.382232666015625 -72.6045303344726562 6.01022863388061523 214 0.0973365455865859985 -0.000423752644564956427 -2.71449041366577148 1645021212.01028252
24.2703990936279297 -73.0098648071289062 5.90847063064575195 215 0.10109342634677887 0.023794395849108696 -2.71418237686157227 1645021212.20795345
23.2035636901855469 -73.536834716796875 5.93784856796264648 216 0.100963383913040161 -0.026037534698843956 -2.71933960914611816 1645021212.4085567
21.9970016479492188 -74.1385269165039062 5.85406494140625 217 0.120899520814418793 -0.0418423302471637726 -2.71240901947021484 1645021212.60796642
20.6806526184082031 -74.7430343627929688 5.90645456314086914 218 0.125183597207069397 -0.0158972647041082382 -2.69640541076660156 1645021212.80794358
18.9570522308349609 -75.4789276123046875 5.80703449249267578 219 0.0681293308734893799 0.00613466463983058929 -2.73754024505615234 1645021213.20969248
17.5971908569335938 -75.9795379638671875 5.93236637115478516 220 0.0602554939687252045 -0.00929614994674921036 -2.74145102500915527 1645021213.40789247
16.5986614227294922 -76.4890365600585938 6.03719854354858398 221 0.0452505014836788177 -0.0304380282759666443 -2.7511136531829834 1645021213.60771704
15.4483652114868164 -76.8221664428710938 6.09044361114501953 222 0.0557774528861045837 -0.00942986365407705307 -2.7707221508026123 1645021213.80829573
14.3924875259399414 -77.2975997924804688 6.00227546691894531 223 0.0537822581827640533 -0.0143509348854422569 -2.77476406097412109 1645021214.01002979
13.1398963928222656 -77.7226181030273438 6.13741111755371094 224 0.0365842245519161224 -0.00775200920179486275 -2.78519392013549805 1645021214.20808458
11.8867206573486328 -78.2193145751953125 6.02659702301025391 225 0.0587602816522121429 -0.000133113164338283241 -2.77201128005981445 1645021214.40737891
10.6085405349731445 -78.7780838012695312 6.02092409133911133 226 0.0615594908595085144 0.0105337603017687798 -2.74393105506896973 1645021214.60762239
9.49933719635009766 -79.381927490234375 5.92778158187866211 227 0.0508904159069061279 0.0270195584744215012 -2.71757364273071289 1645021214.81021667
8.31733036041259766 -79.9477767944335938 5.85945892333984375 228 0.0680328980088233948 0.00930560007691383362 -2.69744873046875 1645021215.01200819
7.25969982147216797 -80.58135986328125 5.82917594909667969 229 0.0635552927851676941 0.0120669649913907051 -2.68320226669311523 1645021215.20762753
6.13646459579467773 -81.1464309692382812 5.75691938400268555 230 0.0491831190884113312 0.0212351921945810318 -2.68520545959472656 1645021215.41200185
4.81935596466064453 -81.7181854248046875 5.69415712356567383 231 0.0570507533848285675 0.0269076470285654068 -2.68074822425842285 1645021215.61080718
3.50230193138122559 -82.3683700561523438 5.66039609909057617 232 0.0483023859560489655 0.0306905154138803482 -2.67872285842895508 1645021215.80747819
2.23713111877441406 -82.9899673461914062 5.62643289566040039 233 0.0597473271191120148 0.0228192862123250961 -2.68735265731811523 1645021216.00724745
0.98139113187789917 -83.6522903442382812 5.56643104553222656 234 0.0601967796683311462 0.0179393813014030457 -2.6911318302154541 1645021216.20418477
-0.190583944320678711 -84.2614974975585938 5.52790403366088867 235 0.0571933910250663757 0.0109349973499774933 -2.70024919509887695 1645021216.40598559
-1.52084803581237793 -84.8806610107421875 5.37430047988891602 236 0.0775210410356521606 0.0123854512348771095 -2.68682026863098145 1645021216.60906124
-2.78477740287780762 -85.5466156005859375 5.5246119499206543 237 0.0689879804849624634 -0.00673430133610963821 -2.68343377113342285 1645021216.80897355
-3.88296651840209961 -86.1279449462890625 5.46351242065429688 238 0.0644588693976402283 0.00884381961077451706 -2.6892542839050293 1645021217.01135564
-5.23977184295654297 -86.7238082885742188 5.32845878601074219 239 0.061753489077091217 0.0150527786463499069 -2.67396020889282227 1645021217.20992398
-6.70145034790039062 -87.3903427124023438 5.22991323471069336 240 0.062850557267665863 0.0205160100013017654 -2.64575552940368652 1645021217.41123128
-8.03392791748046875 -88.041839599609375 5.35360383987426758 241 0.0567352734506130219 0.0579450353980064392 -2.66340494155883789 1645021217.60717487
-9.49977874755859375 -88.8203582763671875 5.4954218864440918 242 0.0551989264786243439 0.0425428710877895355 -2.65808272361755371 1645021217.80930686
-10.8093299865722656 -89.427093505859375 5.38359546661376953 243 0.0321422666311264038 0.0352640226483345032 -2.67284369468688965 1645021218.00875854
-12.002934455871582 -90.0115890502929688 5.22353124618530273 244 0.0912749022245407104 -0.000136577407829463482 -2.67718267440795898 1645021218.21101785
-13.0977048873901367 -90.5481185913085938 5.23291921615600586 245 0.0503290034830570221 0.0294738244265317917 -2.70808982849121094 1645021218.41095829
-14.3524589538574219 -91.034942626953125 5.11384010314941406 246 0.0768202096223831177 -0.00102851563133299351 -2.73774051666259766 1645021218.60907221
-15.6040668487548828 -91.4915924072265625 5.09140872955322266 247 0.0619448535144329071 -0.0241866316646337509 -2.75756955146789551 1645021218.80974579
-16.9467544555664062 -91.9489898681640625 4.86984634399414062 248 0.0881782099604606628 0.0182013604789972305 -2.75791215896606445 1645021219.01134253
-18.3271350860595703 -92.6276931762695312 4.9728703498840332 249 0.0555704943835735321 0.029362531378865242 -2.7403104305267334 1645021219.21390724
-19.727783203125 -93.27423095703125 4.90972042083740234 250 0.0759849324822425842 0.0128287170082330704 -2.72290873527526855 1645021219.41299987
-20.9927330017089844 -93.927886962890625 4.79681777954101562 251 0.0568631440401077271 0.0126505419611930847 -2.71316933631896973 1645021219.61257172
-22.2902107238769531 -94.5134353637695312 4.88061237335205078 252 0.0762506276369094849 0.0247560814023017883 -2.71913719177246094 1645021219.81058598
-23.6624946594238281 -95.1124649047851562 4.90199041366577148 253 0.0731201171875 0.0235934369266033173 -2.70721840858459473 1645021220.00873661
-24.9077339172363281 -95.7319488525390625 5.07709360122680664 254 0.0885664075613021851 0.0201762467622756958 -2.7175605297088623 1645021220.21313763
-26.186065673828125 -96.2662124633789062 4.92181253433227539 255 0.0745781958103179932 0.00952709373086690903 -2.72307443618774414 1645021220.41066766
-27.5047950744628906 -96.8277587890625 4.92326450347900391 256 0.0619658827781677246 -0.000883968430571258068 -2.72843384742736816 1645021220.61256099
-28.8561382293701172 -97.422515869140625 4.65903806686401367 257 0.0635595247149467468 -0.0214968267828226089 -2.72319245338439941 1645021220.8109684
-30.2293968200683594 -98.0693740844726562 4.632537841796875 258 0.072007887065410614 0.019169248640537262 -2.70784878730773926 1645021221.00730348
-31.4215450286865234 -98.6532211303710938 4.72860097885131836 259 0.0725623518228530884 0.0102994590997695923 -2.71262145042419434 1645021221.20664287
-32.6790122985839844 -99.1913604736328125 4.81064510345458984 260 0.0713829472661018372 -0.00392042193561792374 -2.72375893592834473 1645021221.40734315
-33.9422149658203125 -99.6996536254882812 4.88663053512573242 261 0.0798996686935424805 -0.00315159582532942295 -2.73811674118041992 1645021221.60684919
-35.2734336853027344 -100.229576110839844 4.78258991241455078 262 0.0645293518900871277 -0.0351450555026531219 -2.74298334121704102 1645021221.80698442
-36.5762710571289062 -100.798988342285156 4.7422785758972168 263 0.0743925273418426514 -0.0480561256408691406 -2.74659872055053711 1645021222.01404333
-37.9567947387695312 -101.422004699707031 4.69448614120483398 264 0.0665902197360992432 -0.02390267513692379 -2.72872495651245117 1645021222.20764375
-39.2846908569335938 -102.053939819335938 4.68696260452270508 265 0.0625319331884384155 -0.0191826242953538895 -2.72080731391906738 1645021222.41061997
-40.61114501953125 -102.659217834472656 4.73569774627685547 266 0.0599710680544376373 0.002109879394993186 -2.7136378288269043 1645021222.60722709
-41.7471885681152344 -103.173683166503906 4.80494594573974609 267 0.0910971313714981079 -0.0344687141478061676 -2.73027729988098145 1645021222.81297469
-43.7745246887207031 -103.728286743164062 4.78282546997070312 268 0.109119631350040436 0.00551794236525893211 -2.73191165924072266 1645021223.20839477
-45.3919334411621094 -104.76104736328125 4.76954793930053711 269 0.0993920788168907166 -0.013900277204811573 -2.66537618637084961 1645021223.40671849
-46.7260665893554688 -105.686569213867188 4.81859254837036133 270 0.0910782068967819214 -0.0168883111327886581 -2.59523940086364746 1645021223.606668
-47.890350341796875 -106.557296752929688 4.83382606506347656 271 0.0759504735469818115 0.0203093122690916061 -2.55908679962158203 1645021223.81258893
-48.971527099609375 -107.330986022949219 4.93211936950683594 272 0.0559556260704994202 0.00629973318427801132 -2.55400252342224121 1645021224.0105381
-50.0943450927734375 -108.111778259277344 4.81451702117919922 273 0.0553589947521686554 -0.0351774953305721283 -2.55341124534606934 1645021224.20770836
-51.2316322326660156 -108.918693542480469 4.82848358154296875 274 0.0505942553281784058 0.00783611927181482315 -2.56358504295349121 1645021224.40554214
-52.4348564147949219 -109.608413696289062 4.76483535766601562 275 0.0494002476334571838 -0.0208776630461215973 -2.57776927947998047 1645021224.60792804
-53.7362899780273438 -110.291046142578125 4.86156654357910156 276 0.0615353062748908997 -0.0188521463423967361 -2.58057260513305664 1645021224.80813146
-54.920684814453125 -111.0601806640625 4.82320594787597656 277 0.0732965916395187378 -0.0401374325156211853 -2.57554244995117188 1645021225.00504398
-55.9723167419433594 -111.849380493164062 4.80586528778076172 278 0.0721599012613296509 -0.0310585908591747284 -2.57408261299133301 1645021225.20375681
-57.0043830871582031 -112.529899597167969 4.94228649139404297 279 0.067992575466632843 -0.0382924973964691162 -2.60092329978942871 1645021225.40568304
-58.2074699401855469 -113.232536315917969 5.02644824981689453 280 0.0682303458452224731 -0.0458936356008052826 -2.61432075500488281 1645021225.60394621
-59.4752273559570312 -114.005859375 4.93251705169677734 281 0.081671103835105896 -0.0475943423807621002 -2.59243345260620117 1645021225.8049686
-60.6744422912597656 -114.810501098632812 4.94385194778442383 282 0.0902804657816886902 -0.0261286664754152298 -2.54480218887329102 1645021226.00556302
-61.7477302551269531 -115.638748168945312 5.05580043792724609 283 0.0755249261856079102 -0.0283006131649017334 -2.52796316146850586 1645021226.2056942
-62.8626861572265625 -116.447715759277344 5.06574106216430664 284 0.0831473618745803833 -0.0435502156615257263 -2.50483179092407227 1645021226.40611243
-63.97198486328125 -117.343803405761719 5.14563894271850586 285 0.0721468031406402588 -0.0158396940678358078 -2.46239972114562988 1645021226.6058197
-64.975921630859375 -118.234909057617188 5.18221473693847656 286 0.0829074755311012268 -0.00793390907347202301 -2.45342731475830078 1645021226.80584216
-66.0155258178710938 -119.129508972167969 5.16690683364868164 287 0.0586498528718948364 -0.0276476666331291199 -2.4347379207611084 1645021227.00636101
-67.0595169067382812 -120.054954528808594 5.20441722869873047 288 0.0760912373661994934 -0.019781116396188736 -2.40077090263366699 1645021227.2045064
-68.0948410034179688 -121.021697998046875 5.20076990127563477 289 0.0612138472497463226 0.000276979466434568167 -2.35478305816650391 1645021227.4047122
-68.8960647583007812 -122.073722839355469 5.33279895782470703 290 0.0594844520092010498 0.00249613309279084206 -2.36217617988586426 1645021227.6071012
-69.846954345703125 -122.951797485351562 5.27389717102050781 291 0.0578192733228206635 -0.0452296845614910126 -2.37551736831665039 1645021227.80754924
-70.8696060180664062 -123.961166381835938 5.3816227912902832 292 0.0501498132944107056 -0.0247596092522144318 -2.36496448516845703 1645021228.00694442
-71.8239517211914062 -124.931083679199219 5.36628246307373047 293 0.060024648904800415 -0.049045901745557785 -2.35237360000610352 1645021228.2086122
-72.7864303588867188 -125.923362731933594 5.33521223068237305 294 0.0411622859537601471 -0.0294872913509607315 -2.34772562980651855 1645021228.40614939
-73.779205322265625 -126.88470458984375 5.37193679809570312 295 0.059864439070224762 -0.0197206567972898483 -2.33910846710205078 1645021228.60490608
-74.6689300537109375 -127.899635314941406 5.44209671020507812 296 0.044127877801656723 -0.0370860397815704346 -2.33807587623596191 1645021228.80522919
-75.5605392456054688 -128.827835083007812 5.41126537322998047 297 0.0573864057660102844 -0.0326422154903411865 -2.35788226127624512 1645021229.00527477
-76.481536865234375 -129.714645385742188 5.45621776580810547 298 0.0552078187465667725 -0.0175183005630970001 -2.3749547004699707 1645021229.20501328
-77.3868942260742188 -130.5350341796875 5.47610712051391602 299 0.0576852038502693176 -0.0339465327560901642 -2.39550566673278809 1645021229.40587449
-78.3460159301757812 -131.346847534179688 5.51592302322387695 300 0.0432305410504341125 -0.00807929784059524536 -2.39270830154418945 1645021229.60840917
-79.2548828125 -132.1181640625 5.50594425201416016 301 0.0422541908919811249 -0.0211565941572189331 -2.39585232734680176 1645021229.80676031
-80.1222686767578125 -132.865402221679688 5.55394840240478516 302 0.0325175635516643524 -0.0194875579327344894 -2.43121075630187988 1645021230.00565243
-80.996429443359375 -133.494400024414062 5.58070087432861328 303 0.0124168870970606804 -0.0101463692262768745 -2.5214383602142334 1645021230.20589137
-81.933868408203125 -133.944412231445312 5.60546159744262695 304 0.0104172127321362495 -0.014751652255654335 -2.63522696495056152 1645021230.40824127
-82.9595413208007812 -134.28375244140625 5.63207006454467773 305 0.0156633146107196808 0.00205628876574337482 -2.7280423641204834 1645021230.60748339
-83.9424819946289062 -134.550827026367188 5.59248781204223633 306 0.0292121674865484238 -0.0107044307515025139 -2.81615805625915527 1645021230.80554438
-85.9206161499023438 -134.8349609375 5.63421297073364258 307 0.0230865087360143661 -0.0110103050246834755 -2.94511628150939941 1645021231.20713305
-86.92633056640625 -134.9302978515625 5.59135532379150391 308 0.0325383208692073822 0.000175787237822078168 -3.00934600830078125 1645021231.40582108
-88.6020431518554688 -134.93231201171875 5.57107162475585938 309 0.0617698915302753448 0.00974896550178527832 3.12354016304016113 1645021231.80623627
-90.654632568359375 -134.515945434570312 5.65093374252319336 310 0.0376002825796604156 0.00241541606374084949 3.01392149925231934 1645021232.20535207
-91.753021240234375 -134.32904052734375 5.52783012390136719 311 0.0452146455645561218 -0.014185318723320961 2.97746849060058594 1645021232.40461731
-92.7386932373046875 -134.13397216796875 5.62662982940673828 312 0.0298629198223352432 -0.0163421668112277985 2.93184947967529297 1645021232.6042614
-94.681304931640625 -133.501693725585938 5.57686853408813477 313 0.0219033714383840561 -0.00437442958354949951 2.82610869407653809 1645021233.00533867
-95.7043991088867188 -133.09783935546875 5.54362773895263672 314 0.0289722345769405365 -0.00647192308679223061 2.78368210792541504 1645021233.2043314
-96.772552490234375 -132.686187744140625 5.5647273063659668 315 0.0205680485814809799 -0.0128712337464094162 2.75680017471313477 1645021233.40389609
-97.8313522338867188 -132.196121215820312 5.52483844757080078 316 0.0142822274938225746 -0.012080254964530468 2.73234009742736816 1645021233.60433483
-98.9595870971679688 -131.755996704101562 5.42888736724853516 317 0.024906618520617485 0.0023825252428650856 2.72362232208251953 1645021233.80475569
-100.064193725585938 -131.303024291992188 5.39970493316650391 318 0.0104882717132568359 0.00836882647126913071 2.71861171722412109 1645021234.00482607
-101.076225280761719 -130.805831909179688 5.49904441833496094 319 0.010134001262485981 -0.0216051824390888214 2.7082366943359375 1645021234.20586872
-102.240623474121094 -130.271636962890625 5.43274879455566406 320 0.0226864423602819443 -0.05322275310754776 2.72136664390563965 1645021234.40450287
-103.503456115722656 -129.998138427734375 5.3497166633605957 321 0.0514525771141052246 -0.00915659219026565552 2.75565814971923828 1645021234.60516548
-104.555824279785156 -129.673919677734375 5.48258733749389648 322 0.00978283025324344635 -0.0396537072956562042 2.77282905578613281 1645021234.80648232
-105.743522644042969 -129.169815063476562 5.54342889785766602 323 0.0280077476054430008 -0.035898059606552124 2.77340292930603027 1645021235.00636554
-107.008209228515625 -128.718551635742188 5.56823015213012695 324 0.0171089638024568558 -0.0335119292140007019 2.80880999565124512 1645021235.20687008
-108.26092529296875 -128.265182495117188 5.5874333381652832 325 0.0316105075180530548 -0.0186923760920763016 2.86173105239868164 1645021235.40659833
-109.593643188476562 -128.0245361328125 5.55301713943481445 326 0.0195151027292013168 -0.0164138451218605042 2.92037248611450195 1645021235.60545969
-110.907554626464844 -127.85260009765625 5.55927658081054688 327 0.0198153741657733917 -0.0152905555441975594 2.96406078338623047 1645021235.80498052
-112.219230651855469 -127.748115539550781 5.56669330596923828 328 0.015799306333065033 -0.0262938495725393295 2.99280333518981934 1645021236.00634813
-113.452217102050781 -127.589530944824219 5.6254730224609375 329 0.0190216563642024994 -0.0198345314711332321 2.99011421203613281 1645021236.20497727
-114.744270324707031 -127.357841491699219 5.6702880859375 330 0.0144793298095464706 -0.0193688292056322098 2.98491144180297852 1645021236.40582204
-116.112617492675781 -127.138992309570312 5.64483022689819336 331 0.00647751009091734886 -0.0139464186504483223 2.99486112594604492 1645021236.60486507
-117.482337951660156 -126.968330383300781 5.58496189117431641 332 0.00832343846559524536 -0.00867930613458156586 3.04962301254272461 1645021236.80614877
-118.925872802734375 -126.972503662109375 5.69701719284057617 333 0.00465956004336476326 -0.0183546971529722214 3.09300851821899414 1645021237.00512552
-120.214645385742188 -126.991111755371094 5.76978731155395508 334 0.0127590307965874672 -0.0325370468199253082 3.10656476020812988 1645021237.20564651
-121.468582153320312 -127.002426147460938 5.76656866073608398 335 0.00733390729874372482 -0.03990984708070755 3.09117317199707031 1645021237.40626383
-122.848228454589844 -126.866012573242188 5.66588211059570312 336 0.00491639925166964531 -0.012221144512295723 3.09953451156616211 1645021237.60512233
-124.266830444335938 -126.858238220214844 5.66772079467773438 337 0.0113801965489983559 -0.0210380014032125473 -3.14100742340087891 1645021237.80479693
-125.656295776367188 -126.979934692382812 5.77022457122802734 338 0.00483033200725913048 -0.0231098420917987823 -3.09757208824157715 1645021238.00477457
-126.957298278808594 -127.155937194824219 5.84379434585571289 339 0.0100093958899378777 -0.0317007936537265778 -3.08928704261779785 1645021238.20560622
-128.249420166015625 -127.179496765136719 5.84475469589233398 340 0.00478683970868587494 -0.034502711147069931 -3.09496760368347168 1645021238.40518069
-129.709487915039062 -127.226203918457031 5.81304073333740234 341 0.00780161516740918159 -0.0206222571432590485 -3.0732581615447998 1645021238.6051383
-131.091567993164062 -127.372032165527344 5.87959671020507812 342 0.0100706079974770546 -0.038006804883480072 -3.02917838096618652 1645021238.8042233
-132.427001953125 -127.693397521972656 5.92936849594116211 343 0.00278583075851202011 -0.034115571528673172 -2.99441957473754883 1645021239.00562739
-133.73992919921875 -127.985435485839844 5.85482406616210938 344 0.00472822226583957672 -0.00836302340030670166 -2.98166847229003906 1645021239.20544004
-135.087860107421875 -128.195358276367188 5.9432682991027832 345 0.00142995757050812244 -0.0335736162960529327 -2.95723366737365723 1645021239.40468407
-136.456954956054688 -128.5269775390625 5.89743423461914062 346 0.00319929793477058411 -0.0270393155515193939 -2.91885662078857422 1645021239.60524988
-137.71478271484375 -128.995803833007812 5.9815831184387207 347 0.0139383114874362946 -0.0229331329464912415 -2.89646816253662109 1645021239.80512023
-138.974609375 -129.286209106445312 6.00654315948486328 348 -0.00451556174084544182 -0.026430940255522728 -2.89461183547973633 1645021240.00480127
-140.318344116210938 -129.595611572265625 6.04747629165649414 349 -0.00713103357702493668 -0.0431237295269966125 -2.88251733779907227 1645021240.2046504
-141.753005981445312 -129.949600219726562 6.01428365707397461 350 -0.00312591413967311382 -0.0194228924810886383 -2.82085418701171875 1645021240.40449405
-143.02593994140625 -130.567520141601562 6.06936979293823242 351 -0.0130031965672969818 -0.0287413615733385086 -2.75767302513122559 1645021240.60496235
-144.16387939453125 -131.25677490234375 6.14893865585327148 352 0.0173958800733089447 -0.0487974956631660461 -2.7521824836730957 1645021240.80498004
-145.40057373046875 -131.618408203125 6.1382908821105957 353 -0.00109010597225278616 -0.0260363612323999405 -2.78256773948669434 1645021241.00532508
-146.7127685546875 -132.176666259765625 6.13162469863891602 354 0.018657168373465538 -0.0408385097980499268 -2.74897408485412598 1645021241.20457053
-147.951217651367188 -132.801193237304688 6.26912832260131836 355 0.00125726219266653061 -0.0401537679135799408 -2.69676661491394043 1645021241.40407157
-149.149765014648438 -133.518264770507812 6.28703832626342773 356 -0.01378597691655159 -0.0324712060391902924 -2.66336369514465332 1645021241.60393333
-150.316574096679688 -134.174896240234375 6.29419469833374023 357 -0.00228079687803983688 -0.0376725979149341583 -2.65050745010375977 1645021241.80456233
-151.481658935546875 -134.830245971679688 6.35798501968383789 358 -0.014099818654358387 -0.0429125837981700897 -2.62746071815490723 1645021242.00450802
-152.641799926757812 -135.535263061523438 6.3911280632019043 359 -0.00728642195463180542 -0.0302697047591209412 -2.60968756675720215 1645021242.20465112
-153.756118774414062 -136.213211059570312 6.39703369140625 360 -0.0133311748504638672 -0.0282640364021062851 -2.59089303016662598 1645021242.4046495
-154.915008544921875 -136.94677734375 6.34200048446655273 361 -0.0166141204535961151 -0.00842582713812589645 -2.55255770683288574 1645021242.60484767
