# .PCD v0.7 - Point Cloud Data file format
VERSION 0.7
FIELDS x y z intensity t qx qy qz qw
SIZE 4 4 4 4 8 4 4 4 4
TYPE F F F F F F F F F
COUNT 1 1 1 1 1 1 1 1 1
WIDTH 276
HEIGHT 1
VIEWPOINT 0 0 0 1 0 0 0
POINTS 276
DATA ascii
244.121963500976562 -99.648895263671875 5.95403909683227539 15 1644760116.75646353 0.992479681968688965 0.00555597525089979172 0.0458601750433444977 -0.113357901573181152
244.121627807617188 -99.6508331298828125 5.9531397819519043 16 1644760116.8560524 0.99244534969329834 0.00550266029313206673 0.0459561273455619812 -0.113622203469276428
244.120773315429688 -99.6495361328125 5.95373439788818359 17 1644760116.95711064 0.992446541786193848 0.00540633965283632278 0.0459550730884075165 -0.113616906106472015
244.118743896484375 -99.649444580078125 5.95458269119262695 18 1644760117.05879045 0.992467343807220459 0.0053704562596976757 0.0458685792982578278 -0.113471746444702148
244.120681762695312 -99.6501922607421875 5.95358467102050781 19 1644760117.15938354 0.992472469806671143 0.00534297339618206024 0.0456985943019390106 -0.113496892154216766
244.120590209960938 -99.6491165161132812 5.95378398895263672 20 1644760117.25600934 0.992458939552307129 0.00547699024900794029 0.0458912216126918793 -0.11353079229593277
244.238922119140625 -99.7306365966796875 5.97434568405151367 21 1644760128.35384417 0.991869926452636719 0.00962779950350522995 0.0496501922607421875 -0.116774372756481171
247.579071044921875 -100.626335144042969 6.25921106338500977 22 1644760130.35602045 0.995086789131164551 0.0955549329519271851 0.0239384602755308151 0.00992181990295648575
252.386642456054688 -102.717872619628906 6.21652889251708984 23 1644760131.85557675 0.998892247676849365 0.0449671819806098938 0.00825486704707145691 0.0111412378028035164
256.687042236328125 -105.770378112792969 6.1651768684387207 24 1644760132.95593429 0.998168587684631348 -0.0572505593299865723 0.0103010283783078194 0.0166061036288738251
260.675262451171875 -108.83514404296875 6.15702056884765625 25 1644760133.95629692 0.999090254306793213 -0.0389705076813697815 0.00994089990854263306 0.0141813019290566444
264.856109619140625 -111.805503845214844 6.15665102005004883 26 1644760135.0558784 0.999715268611907959 -0.0219881068915128708 0.0085751628503203392 0.00351590546779334545
269.0684814453125 -114.699806213378906 6.13669490814208984 27 1644760136.25544286 0.99979245662689209 -0.0149690648540854454 0.00734951719641685486 0.0117010902613401413
273.73870849609375 -117.324256896972656 6.11470985412597656 28 1644760137.5551393 0.999305844306945801 0.0334709733724594116 0.0101563232019543648 0.012821846641600132
278.3912353515625 -119.59674072265625 6.15140104293823242 29 1644760138.95474434 0.998077392578125 0.0587042681872844696 0.0194857623428106308 0.00394864659756422043
283.028167724609375 -121.833023071289062 5.96064472198486328 30 1644760140.95697093 0.973603248596191406 -0.227667897939682007 0.0157723259180784225 0.00390850286930799484
287.374176025390625 -124.132644653320312 5.93418359756469727 31 1644760142.9574182 0.96920478343963623 -0.245568022131919861 0.0183960795402526855 9.40121390158310533e-05
291.67510986328125 -127.077369689941406 5.84424018859863281 32 1644760144.45749545 0.953305721282958984 -0.301130980253219604 0.00340656284242868423 -0.0227316487580537796
295.8565673828125 -129.87823486328125 5.55916833877563477 33 1644760145.75853229 0.957130074501037598 -0.287328720092773438 -0.0203251447528600693 -0.0305150318890810013
300.110626220703125 -132.50946044921875 5.14102363586425781 34 1644760146.95952082 0.962051928043365479 -0.270580261945724487 -0.0259929560124874115 -0.0238057896494865417
304.480621337890625 -135.058303833007812 4.69542932510375977 35 1644760148.06036496 0.964948117733001709 -0.259066313505172729 -0.0296982172876596451 -0.0296271350234746933
309.0440673828125 -137.922897338867188 4.21865320205688477 36 1644760149.16112256 0.954529762268066406 -0.29542696475982666 -0.0309340246021747589 -0.0252777617424726486
313.3125 -140.930099487304688 3.7813417911529541 37 1644760150.26115084 0.951079845428466797 -0.30619204044342041 -0.0315370932221412659 -0.0264379139989614487
317.288177490234375 -144.163528442382812 3.30983233451843262 38 1644760151.36404347 0.935173869132995605 -0.351340621709823608 -0.0363627336919307709 -0.026217438280582428
320.95037841796875 -147.953933715820312 2.76400637626647949 39 1644760152.55930328 0.916315793991088867 -0.396490335464477539 -0.0443173646926879883 -0.0345945023000240326
324.397125244140625 -151.592330932617188 2.27367472648620605 40 1644760153.86054778 0.917685508728027344 -0.394087284803390503 -0.0340844392776489258 -0.037240050733089447
327.603729248046875 -155.492721557617188 1.8154827356338501 41 1644760155.25719666 0.899189770221710205 -0.434849470853805542 -0.0230279844254255295 -0.0428180769085884094
330.4237060546875 -159.698089599609375 1.33999919891357422 42 1644760156.85736251 0.867913544178009033 -0.493011742830276489 -0.0283137466758489609 -0.0535150207579135895
331.901885986328125 -164.504974365234375 1.06899285316467285 43 1644760158.65616274 0.773578822612762451 -0.633068621158599854 0.0269988682121038437 -0.00842721760272979736
331.604248046875 -167.72314453125 1.00763654708862305 44 1644760159.55752707 0.643372952938079834 -0.765331268310546875 0.0123769771307706833 -0.0136417970061302185
330.238372802734375 -170.180694580078125 0.89528191089630127 45 1644760160.25823855 0.498107701539993286 -0.866950154304504395 0.00839365832507610321 -0.014685225673019886
326.51177978515625 -173.721603393554688 0.661610305309295654 46 1644760161.35700297 0.32855224609375 -0.944380581378936768 -3.86887950298842043e-05 -0.0140974512323737144
321.791748046875 -176.71746826171875 0.390840888023376465 47 1644760162.35785007 0.263749629259109497 -0.964431226253509521 0.00229692505672574043 -0.0174159985035657883
317.370758056640625 -179.055252075195312 0.127236828207969666 48 1644760163.15820837 0.230982661247253418 -0.97280043363571167 0.00484429160133004189 -0.016820024698972702
312.607818603515625 -181.248046875 -0.139551863074302673 49 1644760163.95620489 0.207767784595489502 -0.977893233299255371 0.0143970809876918793 -0.0187104232609272003
307.696685791015625 -183.444732666015625 -0.408907860517501831 50 1644760164.75659871 0.214298531413078308 -0.976276874542236328 0.0240138024091720581 -0.0195700433105230331
302.765350341796875 -185.68499755859375 -0.648441731929779053 51 1644760165.55653954 0.2036457359790802 -0.978638291358947754 0.022687496617436409 -0.0167579725384712219
297.718719482421875 -187.718338012695312 -0.853225827217102051 52 1644760166.35649443 0.184237822890281677 -0.982537329196929932 0.0223110020160675049 -0.0133790606632828712
292.6553955078125 -189.7177734375 -1.0437619686126709 53 1644760167.15835619 0.18695475161075592 -0.982021927833557129 0.0232092924416065216 -0.0119253294542431831
287.60821533203125 -191.68206787109375 -1.21166002750396729 54 1644760167.95857692 0.178626999258995056 -0.983554363250732422 0.0225179679691791534 -0.0143563030287623405
282.52606201171875 -193.453338623046875 -1.37747681140899658 55 1644760168.7569983 0.159011006355285645 -0.9870566725730896 0.0196171142160892487 -0.00705819902941584587
277.409759521484375 -195.085540771484375 -1.54155588150024414 56 1644760169.55661178 0.154232770204544067 -0.987743198871612549 0.0221783332526683807 -0.00914919562637805939
272.302398681640625 -196.820205688476562 -1.72597634792327881 57 1644760170.35934687 0.162056043744087219 -0.986440598964691162 0.0211179889738559723 -0.0150614921003580093
267.225006103515625 -198.4739990234375 -1.87626171112060547 58 1644760171.15968919 0.153877496719360352 -0.987963080406188965 0.0138286631554365158 -0.00770591199398040771
262.122589111328125 -200.043777465820312 -2.05119562149047852 59 1644760171.95823169 0.144726112484931946 -0.989309251308441162 0.0158209763467311859 -0.00844005029648542404
256.9759521484375 -201.53155517578125 -2.22834968566894531 60 1644760172.75699162 0.137743338942527771 -0.990313887596130371 0.0142002645879983902 -0.0101752709597349167
251.809722900390625 -202.977584838867188 -2.40390443801879883 61 1644760173.55946994 0.134232044219970703 -0.990833401679992676 0.0135318199172616005 -0.00691791065037250519
246.63153076171875 -204.349517822265625 -2.57971763610839844 62 1644760174.35955191 0.126021295785903931 -0.991953730583190918 0.0113268997520208359 -0.00425166450440883636
241.433135986328125 -205.635223388671875 -2.77330517768859863 63 1644760175.1578691 0.116646997630596161 -0.993098855018615723 0.00927015300840139389 -0.00789081119000911713
236.1917724609375 -206.859054565429688 -2.91061854362487793 64 1644760175.96057987 0.110595621168613434 -0.993810117244720459 0.00958778616040945053 -0.00426263967528939247
230.991012573242188 -207.946517944335938 -3.05069279670715332 65 1644760176.75741601 0.0991871803998947144 -0.995007514953613281 0.0110295619815587997 0.000591540301684290171
225.713043212890625 -208.91839599609375 -3.22229409217834473 66 1644760177.55939746 0.0903078392148017883 -0.99579542875289917 0.0131037132814526558 -0.00801690202206373215
220.475494384765625 -209.893112182617188 -3.39904952049255371 67 1644760178.3560853 0.0918392166495323181 -0.995672285556793213 0.013406076468527317 -0.00475173443555831909
215.211441040039062 -210.88897705078125 -3.56809115409851074 68 1644760179.15421295 0.0897658169269561768 -0.995904922485351562 0.00858743023127317429 -0.00645690690726041794
209.878799438476562 -211.737030029296875 -3.71626543998718262 69 1644760179.95971298 0.0728012621402740479 -0.997314810752868652 0.00567036308348178864 -0.00556803960353136063
204.600189208984375 -212.421661376953125 -3.86206150054931641 70 1644760180.75889254 0.06021895632147789 -0.998160898685455322 0.00607155077159404755 -0.0034024389460682869
199.2916259765625 -212.9949951171875 -4.00655460357666016 71 1644760181.55622101 0.0521707609295845032 -0.99853360652923584 0.0123178577050566673 -0.00756123987957835197
193.997299194335938 -213.5380859375 -4.1915278434753418 72 1644760182.35366821 0.0466815941035747528 -0.998845994472503662 0.00883875507861375809 -0.00702515244483947754
188.67041015625 -213.992431640625 -4.3461155891418457 73 1644760183.15460777 0.0383810773491859436 -0.999216735363006592 0.00851618405431509018 -0.00450041983276605606
183.328628540039062 -214.394088745117188 -4.50222063064575195 74 1644760183.95773458 0.0350641831755638123 -0.999352037906646729 0.0045137433335185051 -0.00675539392977952957
178.006561279296875 -214.784835815429688 -4.67618370056152344 75 1644760184.75583196 0.0321921594440937042 -0.999448478221893311 0.000727632665075361729 -0.00811400916427373886
172.672393798828125 -215.150527954101562 -4.85074663162231445 76 1644760185.55545783 0.0308312345296144485 -0.999509513378143311 -0.00176570483017712831 -0.00520490622147917747
167.2952880859375 -215.489212036132812 -4.97435617446899414 77 1644760186.36128187 0.0287149678915739059 -0.999586701393127441 -0.00122680398635566235 -0.000597489415667951107
162.029708862304688 -215.773788452148438 -5.05396509170532227 78 1644760187.15734839 0.028250204399228096 -0.999596357345581055 0.00189533736556768417 0.0023398655466735363
156.777236938476562 -216.03338623046875 -5.12900257110595703 79 1644760187.95729661 0.024484291672706604 -0.99969106912612915 0.0018627457320690155 0.00385040859691798687
151.538970947265625 -216.325103759765625 -5.19906139373779297 80 1644760188.75778198 0.0250541903078556061 -0.999679863452911377 -0.000997399562038481236 0.00339113525114953518
146.316818237304688 -216.636627197265625 -5.2667851448059082 81 1644760189.56049538 0.0283216238021850586 -0.999533116817474365 -0.00796006899327039719 0.00824728887528181076
141.169036865234375 -216.911209106445312 -5.26748323440551758 82 1644760190.35902405 0.0229573696851730347 -0.999644875526428223 -0.00519663095474243164 0.0124917235225439072
136.007461547851562 -217.156173706054688 -5.31737041473388672 83 1644760191.15905738 0.0224959719926118851 -0.999728202819824219 -0.00452746124938130379 0.00411794241517782211
130.880645751953125 -217.390899658203125 -5.33433437347412109 84 1644760191.95664573 0.0192807521671056747 -0.999763786792755127 -0.00618334114551544189 0.00789497978985309601
125.779182434082031 -217.617324829101562 -5.33659744262695312 85 1644760192.75469232 0.0167631153017282486 -0.999778807163238525 -0.00578747130930423737 0.0113066146150231361
120.608978271484375 -217.847747802734375 -5.35327053070068359 86 1644760193.55857015 0.0189184993505477905 -0.999765157699584961 -0.00764981517568230629 0.00729676755145192146
115.52642822265625 -218.0667724609375 -5.33564996719360352 87 1644760194.35866189 0.0198561325669288635 -0.999741911888122559 -0.00273788394406437874 0.0106920627877116203
110.4542236328125 -218.29681396484375 -5.32584333419799805 88 1644760195.15780807 0.0222732499241828918 -0.999660372734069824 -0.00425973394885659218 0.0128393489867448807
105.369667053222656 -218.584625244140625 -5.34434270858764648 89 1644760195.95554113 0.0253199730068445206 -0.999472379684448242 -0.0150018325075507164 0.0137412650510668755
100.304489135742188 -218.861083984375 -5.36750268936157227 90 1644760196.75206161 0.0242038946598768234 -0.999525547027587891 -0.0159828457981348038 0.0103616630658507347
95.164215087890625 -219.12738037109375 -5.40873527526855469 91 1644760197.55418968 0.0194655191153287888 -0.999500691890716553 -0.0232680439949035645 0.00883500650525093079
90.0512542724609375 -219.31817626953125 -5.39849090576171875 92 1644760198.3523407 0.0144773367792367935 -0.999668717384338379 -0.0193765498697757721 0.00879934895783662796
85.0140304565429688 -219.4681396484375 -5.29589509963989258 93 1644760199.15198684 0.0137039758265018463 -0.999695062637329102 -0.0188399478793144226 0.00818966887891292572
79.9267425537109375 -219.624008178710938 -5.31408929824829102 94 1644760199.95157337 0.0125679336488246918 -0.999605298042297363 -0.0208984296768903732 0.0139489080756902695
74.79949951171875 -219.7578125 -5.30673646926879883 95 1644760200.75318742 0.0106117492541670799 -0.999789237976074219 -0.0125776957720518112 0.0122741665691137314
69.71905517578125 -219.871002197265625 -5.26428318023681641 96 1644760201.55668783 0.0089878961443901062 -0.99985349178314209 -0.00253595318645238876 0.0143444202840328217
64.0873641967773438 -219.887893676757812 -5.20329618453979492 97 1644760202.45428586 -0.00775123434141278267 -0.999832570552825928 0.00493965903297066689 0.0158232580870389938
58.4700126647949219 -219.547866821289062 -5.15448904037475586 98 1644760203.35484648 -0.0392943397164344788 -0.999073624610900879 0.00917914882302284241 0.0149540398269891739
53.456329345703125 -218.955657958984375 -5.15498161315917969 99 1644760204.15374017 -0.0689168274402618408 -0.997568309307098389 0.00726229231804609299 0.00743292365223169327
48.5027732849121094 -217.992599487304688 -5.1596379280090332 100 1644760204.95310378 -0.110678739845752716 -0.993788421154022217 0.00303255789913237095 0.0112070683389902115
43.6589622497558594 -216.515228271484375 -5.16556215286254883 101 1644760205.75414705 -0.164000853896141052 -0.986375570297241211 0.00895844399929046631 0.00930999685078859329
38.9676246643066406 -214.564056396484375 -5.19401693344116211 102 1644760206.55402684 -0.213156789541244507 -0.976967692375183105 0.00670380517840385437 0.00730305258184671402
34.4710960388183594 -212.200302124023438 -5.20728254318237305 103 1644760207.35359931 -0.249892160296440125 -0.968142569065093994 0.00720798317342996597 0.0142108062282204628
30.0996952056884766 -209.594512939453125 -5.22214317321777344 104 1644760208.15327215 -0.270882695913314819 -0.962506413459777832 0.00666049215942621231 0.0126324361190199852
25.8669033050537109 -206.799530029296875 -5.21469640731811523 105 1644760208.95503831 -0.301404982805252075 -0.9533805251121521 0.00155345210805535316 0.0147699657827615738
21.8630294799804688 -203.70782470703125 -5.16423654556274414 106 1644760209.75345516 -0.328397363424301147 -0.944535553455352783 -0.00251122331246733665 0.00119404483120888472
17.6823348999023438 -200.009613037109375 -5.07089567184448242 107 1644760210.65335941 -0.366055071353912354 -0.930460333824157715 -0.00356762809678912163 0.0153152560815215111
13.6074209213256836 -196.194900512695312 -4.99881649017333984 108 1644760211.55383778 -0.376485496759414673 -0.926266372203826904 -0.0114252809435129166 0.0125969462096691132
9.67854595184326172 -192.485458374023438 -4.69117259979248047 109 1644760212.45432425 -0.369455128908157349 -0.927626967430114746 -0.0263666417449712753 0.0481244511902332306
5.66742753982543945 -188.681060791015625 -4.66783714294433594 110 1644760213.35310411 -0.37365761399269104 -0.927085459232330322 -0.019806908443570137 0.0223648883402347565
1.79807806015014648 -184.913131713867188 -4.37007665634155273 111 1644760214.25496769 -0.377369999885559082 -0.92528223991394043 -0.0144709786400198936 0.035146024078130722
-2.07679224014282227 -181.246078491210938 -4.10204744338989258 112 1644760215.15562415 -0.369422435760498047 -0.928562939167022705 -0.0132798776030540466 0.0334897041320800781
-5.97179126739501953 -177.671630859375 -3.81346416473388672 113 1644760216.05575562 -0.363437741994857788 -0.930667698383331299 -0.0191449727863073349 0.0374715328216552734
-9.88888359069824219 -174.176834106445312 -3.498626708984375 114 1644760216.95514822 -0.362006008625030518 -0.931000649929046631 -0.0295653995126485825 0.0362675637006759644
-13.7569923400878906 -170.666259765625 -3.15739631652832031 115 1644760217.8556397 -0.364045381546020508 -0.929970800876617432 -0.0320077612996101379 0.0400098524987697601
-17.5285415649414062 -167.201187133789062 -2.77174162864685059 116 1644760218.75351262 -0.365602642297744751 -0.928730666637420654 -0.0381269156932830811 0.0483779050409793854
-21.3008556365966797 -163.74029541015625 -2.3951714038848877 117 1644760219.65644288 -0.363776862621307373 -0.929903745651245117 -0.0345340408384799957 0.0418662019073963165
-25.0495719909667969 -160.383148193359375 -2.05310320854187012 118 1644760220.55293036 -0.360783219337463379 -0.931045949459075928 -0.0382706150412559509 0.0390424318611621857
-28.7608909606933594 -157.046051025390625 -1.68159270286560059 119 1644760221.45565677 -0.361906290054321289 -0.930345773696899414 -0.0380203984677791595 0.0451114103198051453
-32.6812629699707031 -153.38653564453125 -1.18023896217346191 120 1644760222.45631742 -0.367521911859512329 -0.927906394004821777 -0.0289999619126319885 0.0554653257131576538
-36.4248542785644531 -149.83294677734375 -0.717183887958526611 121 1644760223.45729446 -0.374259412288665771 -0.925098061561584473 -0.0298479106277227402 0.0568553507328033447
-39.9383010864257812 -146.2982177734375 -0.282974749803543091 122 1644760224.45535588 -0.38782230019569397 -0.9200478196144104 -0.0206053294241428375 0.0517807304859161377
-43.6485710144042969 -142.38079833984375 0.153258562088012695 123 1644760225.55742669 -0.39593091607093811 -0.916596353054046631 -0.0154253887012600899 0.0534030124545097351
-47.4110641479492188 -138.662551879882812 0.595350384712219238 124 1644760226.65628934 -0.372180193662643433 -0.926585733890533447 -0.0132828047499060631 0.0523863248527050018
-51.1820526123046875 -134.939132690429688 0.994295001029968262 125 1644760227.75571942 -0.393178969621658325 -0.918184757232666016 -0.016882454976439476 0.0454091019928455353
-54.5220832824707031 -130.725082397460938 1.33830714225769043 126 1644760228.85675168 -0.451802939176559448 -0.890849709510803223 -0.0124344164505600929 0.0458943918347358704
-57.36529541015625 -126.066314697265625 1.60132670402526855 127 1644760229.95682955 -0.502456068992614746 -0.862589418888092041 -0.00710698496550321579 0.0585397481918334961
-59.6466560363769531 -121.181648254394531 2.20304083824157715 128 1644760231.05629373 -0.543188273906707764 -0.837344825267791748 -0.00959305837750434875 0.0608942881226539612
-61.5269927978515625 -116.197219848632812 2.6619267463684082 129 1644760232.15653324 -0.578147530555725098 -0.813555061817169189 -0.0137326661497354507 0.0607039965689182281
-63.0017127990722656 -111.139503479003906 3.10136556625366211 130 1644760233.25635195 -0.610329031944274902 -0.789915323257446289 -0.0187284890562295914 0.0564049072563648224
-64.1058197021484375 -106.016365051269531 3.50400972366333008 131 1644760234.35633135 -0.637941300868988037 -0.768223047256469727 -0.0246244966983795166 0.0475169643759727478
-64.877655029296875 -100.75152587890625 3.87997722625732422 132 1644760235.4582324 -0.664480984210968018 -0.745553135871887207 -0.030395112931728363 0.0411299318075180054
-65.1839447021484375 -95.4435806274414062 4.31760692596435547 133 1644760236.55818391 -0.69626009464263916 -0.715596616268157959 -0.0338816642761230469 0.0446697957813739777
-64.87664794921875 -90.1833267211914062 4.75501585006713867 134 1644760237.6583519 -0.740980267524719238 -0.668425202369689941 -0.0462758876383304596 0.0448834188282489777
-64.1892929077148438 -84.991851806640625 5.13820934295654297 135 1644760238.75703049 -0.752256870269775391 -0.65778195858001709 -0.0204110424965620041 0.0318737849593162537
-63.5532951354980469 -79.8380203247070312 5.56450223922729492 136 1644760239.85548878 -0.739237964153289795 -0.670965790748596191 -0.0327049382030963898 0.0475663244724273682
-63.1261215209960938 -74.5812225341796875 5.97091293334960938 137 1644760240.95658946 -0.73866802453994751 -0.671928763389587402 -0.0335545875132083893 0.0418965928256511688
-62.5998153686523438 -69.3170928955078125 6.3860626220703125 138 1644760242.05572104 -0.735847592353820801 -0.674605906009674072 -0.0355749242007732391 0.0465789139270782471
-62.2227859497070312 -64.0558853149414062 6.81236028671264648 139 1644760243.16018987 -0.734859943389892578 -0.676111340522766113 -0.0327710919082164764 0.0421944819390773773
-61.0621223449707031 -58.9217681884765625 7.2555394172668457 140 1644760244.45640993 -0.812107086181640625 -0.580904901027679443 -0.0388708561658859253 0.0389951504766941071
-58.3941230773925781 -55.1443672180175781 7.52078914642333984 141 1644760245.55514312 -0.908980250358581543 -0.414174497127532959 -0.0301653109490871429 0.03611740842461586
-54.5439338684082031 -52.7064590454101562 7.6960906982421875 142 1644760246.55517697 -0.971742451190948486 -0.232535913586616516 -0.0222453102469444275 0.0338944830000400543
-49.3935279846191406 -51.5962905883789062 7.6508479118347168 143 1644760247.65320015 -0.996182501316070557 -0.0810570418834686279 0.0100988121703267097 0.0307935141026973724
-44.3455696105957031 -51.0174827575683594 7.42163515090942383 144 1644760248.85386992 -0.999140262603759766 -0.0379078388214111328 0.0142348892986774445 0.00889325700700283051
-39.3271598815917969 -51.1858062744140625 7.2141566276550293 145 1644760250.25762653 -0.999368846416473389 0.0300144590437412262 0.0145050426945090294 -0.0122745698317885399
-34.3574714660644531 -49.6970367431640625 7.13651514053344727 146 1644760251.85291767 -0.959103286266326904 -0.279726266860961914 0.00725922407582402229 0.0426780879497528076
-32.4472999572753906 -44.8911972045898438 7.21233463287353516 147 1644760253.15704226 -0.764050126075744629 -0.642645776271820068 -0.0141944615170359612 0.0550668798387050629
-32.0822830200195312 -39.4875259399414062 7.48041534423828125 148 1644760254.35266209 -0.735783219337463379 -0.676062166690826416 -0.0262932088226079941 0.0295242257416248322
-31.6172542572021484 -34.1858863830566406 7.72493648529052734 149 1644760255.45664978 -0.737000167369842529 -0.675263583660125732 -0.0146899055689573288 0.0251805968582630157
-31.4478721618652344 -29.1009140014648438 7.96311092376708984 150 1644760256.65621042 -0.72124636173248291 -0.691924810409545898 -0.0221023596823215485 0.0235622189939022064
-31.1058368682861328 -23.8898239135742188 8.21391487121582031 151 1644760257.85508084 -0.738139510154724121 -0.673617124557495117 -0.0317352116107940674 0.0195673704147338867
-31.2585716247558594 -18.7341842651367188 8.42650508880615234 152 1644760259.05171418 -0.662463009357452393 -0.748409628868103027 -0.0274517536163330078 0.0164991803467273712
-33.1196670532226562 -13.9692344665527344 8.56339645385742188 153 1644760260.25563192 -0.530553281307220459 -0.847337305545806885 -0.0146886073052883148 0.0178025215864181519
-34.722412109375 -8.81294059753417969 8.69163417816162109 154 1644760261.55113316 -0.659765362739562988 -0.750769138336181641 -0.0315917506814002991 0.00757130095735192299
-33.4106407165527344 -3.92762947082519531 8.80954742431640625 155 1644760262.75134516 -0.841610610485076904 -0.53943401575088501 -0.0252538807690143585 -0.00804985128343105316
-29.1365718841552734 -0.821185171604156494 8.80287361145019531 156 1644760263.950845 -0.979536473751068115 -0.200698196887969971 -0.0030829163733869791 -0.0147996442392468452
-26.3717803955078125 -0.705483675003051758 8.74360847473144531 157 1644760264.55127382 -0.999918520450592041 -0.00485045183449983597 0.00284958118572831154 -0.0114581119269132614
-23.6560306549072266 -1.66407287120819092 8.65935134887695312 158 1644760265.15149808 -0.979455947875976562 0.200066030025482178 0.0101526789367198944 -0.02316243015229702
-19.3922309875488281 -4.77229499816894531 8.57123088836669922 159 1644760266.25094032 -0.959769308567047119 0.280779778957366943 8.74114630278199911e-05 -0.00237115821801126003
-14.5113582611083984 -6.94353914260864258 8.51198959350585938 160 1644760267.35113978 -0.983659505844116211 0.179917663335800171 -0.00659570237621665001 -0.000281956017715856433
-9.55147457122802734 -8.39540576934814453 8.43312549591064453 161 1644760268.35258818 -0.990871429443359375 0.134735912084579468 0.000886167865246534348 0.00439476454630494118
-4.44413995742797852 -9.33757209777832031 8.20115947723388672 162 1644760269.35098362 -0.996807098388671875 0.0769148021936416626 0.0189170129597187042 -0.0100938659161329269
0.861563026905059814 -9.53679084777832031 7.81194591522216797 163 1644760270.35145664 -0.999337255954742432 -0.00040707574225962162 0.0354362241923809052 -0.0083163287490606308
6.37855386734008789 -9.09048843383789062 7.32921886444091797 164 1644760271.35130215 -0.997649848461151123 -0.0547851249575614929 0.0399099253118038177 -0.0100265759974718094
11.5338373184204102 -8.03667163848876953 6.92959690093994141 165 1644760272.2519331 -0.993018746376037598 -0.114576786756515503 0.0241670776158571243 -0.0142091140151023865
16.6113567352294922 -6.23675870895385742 6.66067790985107422 166 1644760273.15233898 -0.981062650680541992 -0.193026989698410034 0.0110187940299510956 -0.0116314999759197235
21.5007648468017578 -3.56823015213012695 6.49809932708740234 167 1644760274.05486441 -0.961704075336456299 -0.274024367332458496 -0.00397508405148983002 0.00448021665215492249
25.4570713043212891 -0.424844235181808472 6.48767662048339844 168 1644760274.8529532 -0.936524331569671631 -0.350403785705566406 -0.00710555026307702065 0.00942633301019668579
29.159332275390625 3.03004121780395508 6.48084402084350586 169 1644760275.65219426 -0.928604662418365479 -0.370955526828765869 -0.00787757150828838348 0.00482781464233994484
32.7201576232910156 6.63798236846923828 6.47115898132324219 170 1644760276.45444036 -0.920552074909210205 -0.390493780374526978 -0.00454433215782046318 0.00881945155560970306
36.2578620910644531 10.2233982086181641 6.49901676177978516 171 1644760277.25533605 -0.925149977207183838 -0.379320263862609863 -0.0102388104423880577 0.010434003546833992
39.8519744873046875 13.7621860504150391 6.51898908615112305 172 1644760278.05556917 -0.924030482769012451 -0.381922453641891479 -0.00533721735700964928 0.0165667086839675903
43.4490318298339844 17.2981357574462891 6.54618501663208008 173 1644760278.85619211 -0.926892101764678955 -0.374902814626693726 -0.00476853689178824425 0.0172111280262470245
47.0546798706054688 20.8159122467041016 6.56696271896362305 174 1644760279.65409994 -0.922396421432495117 -0.385708898305892944 0.00998937617987394333 0.0177132133394479752
50.5503196716308594 24.4182624816894531 6.56695032119750977 175 1644760280.45399547 -0.921843886375427246 -0.387217670679092407 -0.0064679575152695179 0.0149813061580061913
54.0186004638671875 28.0738410949707031 6.62103509902954102 176 1644760281.25655723 -0.91909104585647583 -0.393534600734710693 -0.0176327582448720932 0.00955487694591283798
57.8340110778808594 32.0747528076171875 6.76460933685302734 177 1644760282.15081143 -0.921272993087768555 -0.387923091650009155 -0.0266078952699899673 0.00798257160931825638
61.7478752136230469 35.9778900146484375 6.9550318717956543 178 1644760283.05380392 -0.924857974052429199 -0.379475235939025879 -0.0233644992113113403 0.00950665399432182312
65.519317626953125 39.7646827697753906 7.13763093948364258 179 1644760283.9507308 -0.919968485832214355 -0.390598893165588379 -0.0278949756175279617 0.0176723059266805649
68.6970138549804688 44.0440330505371094 7.29038238525390625 180 1644760284.95300627 -0.869905829429626465 -0.492804020643234253 -0.0141758518293499947 0.0143914874643087387
70.1544723510742188 48.8339118957519531 7.47141265869140625 181 1644760285.95183587 -0.777833878993988037 -0.627830922603607178 -0.0208785850554704666 0.0191558599472045898
70.6263275146484375 54.0160140991210938 7.57405281066894531 182 1644760286.95138836 -0.749503552913665771 -0.661784648895263672 -0.01642615906894207 0.00396204646676778793
72.361724853515625 59.2551918029785156 7.70337581634521484 183 1644760288.05048466 -0.835885405540466309 -0.548613309860229492 -0.0178478136658668518 0.000708644511178135872
75.2901992797851562 63.6511955261230469 7.72865724563598633 184 1644760289.04999495 -0.895339846611022949 -0.445104748010635376 -0.0118057960644364357 0.0104387123137712479
78.9100418090820312 67.5421981811523438 7.71428012847900391 185 1644760290.04992652 -0.9209328293800354 -0.389462947845458984 -0.00408298615366220474 0.0135892713442444801
82.8274917602539062 71.1914443969726562 7.74471282958984375 186 1644760291.15022111 -0.93846428394317627 -0.34507635235786438 -0.014181673526763916 -0.00243951752781867981
86.91986083984375 74.4195480346679688 7.79934263229370117 187 1644760292.35016394 -0.947820007801055908 -0.318061172962188721 -0.018917405977845192 0.0107898497954010963
90.8046035766601562 76.045745849609375 7.79334354400634766 188 1644760293.45103121 -0.989064991474151611 -0.147116124629974365 -0.00768804922699928284 0.00694527849555015564
94.3138198852539062 75.9864349365234375 7.76873111724853516 189 1644760294.44953179 -0.998883724212646484 0.0468910820782184601 -0.00121989822946488857 -0.00557210389524698257
97.661407470703125 74.7162094116210938 7.68203973770141602 190 1644760295.35004783 -0.974311411380767822 0.223167553544044495 0.0120805865153670311 -0.0277052614837884903
101.636627197265625 71.4010086059570312 7.74368143081665039 191 1644760296.55019093 -0.935350537300109863 0.353198260068893433 -0.0180688612163066864 -0.00662696314975619316
105.57623291015625 67.7074813842773438 7.71126174926757812 192 1644760297.6504817 -0.92884451150894165 0.370312482118606567 -0.00901824794709682465 0.00592946866527199745
109.28265380859375 64.1280517578125 7.64778375625610352 193 1644760298.65080094 -0.92299574613571167 0.384730666875839233 0.00206567789427936077 -0.00754543161019682884
112.823829650878906 60.5828323364257812 7.6542510986328125 194 1644760299.65382576 -0.927372455596923828 0.374030083417892456 -0.00689867511391639709 -0.00585325015708804131
116.612327575683594 57.2132720947265625 7.69771003723144531 195 1644760300.75183439 -0.92709881067276001 0.374192565679550171 0.0156948734074831009 -0.014878392219543457
120.419242858886719 53.2509651184082031 7.66232204437255859 196 1644760301.95230436 -0.922570765018463135 0.385388374328613281 -0.0130388513207435608 -0.0129995448514819145
124.130897521972656 49.5017890930175781 7.69720220565795898 197 1644760302.95278406 -0.920769035816192627 0.389933168888092041 -0.00830590352416038513 -0.00821438990533351898
127.915756225585938 45.6048240661621094 7.7594141960144043 198 1644760303.95497584 -0.913965463638305664 0.403775513172149658 -0.0164209771901369095 -0.0369155928492546082
131.173660278320312 41.5142555236816406 8.33549404144287109 199 1644760305.05238247 -0.896347641944885254 0.438079327344894409 -0.0668479576706886292 -0.013369743712246418
133.790618896484375 36.9899444580078125 8.50780963897705078 200 1644760306.35300303 -0.848857462406158447 0.527792870998382568 -0.0201893281191587448 0.0216354914009571075
134.446090698242188 33.0779457092285156 8.36848735809326172 201 1644760307.35328078 -0.735058367252349854 0.677446603775024414 -0.00623084651306271553 0.0267655905336141586
133.565155029296875 29.5485744476318359 8.15235710144042969 202 1644760308.25267673 -0.589456260204315186 0.807024836540222168 0.00500171910971403122 0.0350321829319000244
130.865509033203125 25.4387130737304688 7.76749706268310547 203 1644760309.35443377 -0.43993040919303894 0.89722597599029541 0.0204433221369981766 0.0320760495960712433
127.19219970703125 21.588531494140625 7.3740687370300293 204 1644760310.35298562 -0.373870253562927246 0.927013218402862549 0.0222654622048139572 0.0192821938544511795
123.181541442871094 17.8780956268310547 6.9640660285949707 205 1644760311.25422001 -0.365020960569381714 0.93050915002822876 0.0196792390197515488 0.0229150503873825073
119.50958251953125 14.2252912521362305 6.58161115646362305 206 1644760312.0546186 -0.383565187454223633 0.923040151596069336 0.0168944131582975388 0.024273604154586792
115.788398742675781 10.384861946105957 6.20261287689208984 207 1644760312.85316133 -0.385716706514358521 0.922139942646026611 0.0176544394344091415 0.0238507520407438278
111.997215270996094 6.38803005218505859 5.78861045837402344 208 1644760313.65186071 -0.389186471700668335 0.920564532279968262 0.0225476641207933426 0.0242162421345710754
108.087600708007812 2.27230477333068848 5.36328268051147461 209 1644760314.4533186 -0.38974463939666748 0.920376896858215332 0.0227745044976472855 0.0220628157258033752
104.234611511230469 -1.68431246280670166 4.95724344253540039 210 1644760315.25668979 -0.382500261068344116 0.923183679580688477 0.0283882133662700653 0.0248914025723934174
100.556266784667969 -5.35962057113647461 4.62722635269165039 211 1644760316.05444694 -0.378337204456329346 0.925135791301727295 0.0270237624645233154 0.0159504655748605728
96.9078903198242188 -8.83351707458496094 4.3253626823425293 212 1644760316.85673237 -0.366168737411499023 0.93014228343963623 0.0234364047646522522 0.0143698491156101227
92.9798049926757812 -12.3537378311157227 4.04561662673950195 213 1644760317.75533724 -0.356911897659301758 0.933832287788391113 0.0174298658967018127 0.0163502637296915054
89.1190719604492188 -16.0663909912109375 3.74333024024963379 214 1644760318.7540834 -0.382364660501480103 0.923672914505004883 0.00834545493125915527 0.0235787555575370789
85.9665451049804688 -20.3273868560791016 3.43812322616577148 215 1644760319.85381389 -0.49066123366355896 0.870934963226318359 -0.00369969778694212437 0.0266487915068864822
84.905181884765625 -24.1733245849609375 3.16901850700378418 216 1644760320.75241256 -0.641090512275695801 0.766018569469451904 -0.00230345409363508224 0.0470452010631561279
85.3455886840820312 -27.0888252258300781 2.98363256454467773 217 1644760321.45303369 -0.768960475921630859 0.637297093868255615 -0.00429486483335494995 0.0503364913165569305
86.8216781616210938 -29.5476264953613281 2.82521748542785645 218 1644760322.15267253 -0.872951269149780273 0.485015034675598145 0.00700870342552661896 0.0516463741660118103
89.09130859375 -31.2818107604980469 2.63325643539428711 219 1644760322.85316753 -0.949644207954406738 0.308190733194351196 0.0136823486536741257 0.0548372752964496613
93.823699951171875 -33.7177734375 2.37725162506103516 220 1644760323.95030046 -0.967760145664215088 0.250299185514450073 0.00679920893162488937 0.0272827669978141785
98.432708740234375 -36.3635139465332031 2.17669320106506348 221 1644760324.85286379 -0.96235424280166626 0.271175384521484375 0.00436600297689437866 0.0178641658276319504
102.382682800292969 -39.5706672668457031 1.98088741302490234 222 1644760325.65416598 -0.929114162921905518 0.369549781084060669 0.00898571871221065521 0.00995295681059360504
105.700813293457031 -43.5727081298828125 1.7921832799911499 223 1644760326.44935203 -0.900210380554199219 0.435186475515365601 0.000934189592953771353 0.0152671420946717262
108.597801208496094 -48.0304183959960938 1.59139919281005859 224 1644760327.25079107 -0.861356139183044434 0.50780785083770752 0.00471555208787322044 0.013210715726017952
110.350288391113281 -53.0430450439453125 1.39124214649200439 225 1644760328.05192375 -0.788487792015075684 0.614952206611633301 0.00589139759540557861 0.00927566178143024445
111.112373352050781 -58.3366432189941406 1.19698190689086914 226 1644760328.85429907 -0.744491457939147949 0.66736370325088501 0.000707411032635718584 0.0189123190939426422
111.194046020507812 -63.5557098388671875 0.991125941276550293 227 1644760329.64948654 -0.697690248489379883 0.716097533702850342 -0.00244244537316262722 0.0206571090966463089
110.314361572265625 -68.6693878173828125 0.775052249431610107 228 1644760330.45190263 -0.613043069839477539 0.789888143539428711 0.00273453770205378532 0.0157298706471920013
108.332344055175781 -73.3614730834960938 0.550572991371154785 229 1644760331.25240946 -0.535168588161468506 0.84450232982635498 -0.00451730471104383469 0.019747437909245491
105.426155090332031 -78.0635452270507812 0.305610716342926025 230 1644760332.15283537 -0.458714276552200317 0.888345897197723389 -1.7667607608018443e-05 0.0205626655369997025
101.765007019042969 -81.8567657470703125 0.114265307784080505 231 1644760333.051651 -0.371592313051223755 0.927956044673919678 -0.0135661279782652855 0.025153283029794693
97.75653076171875 -85.1982421875 -0.26111719012260437 232 1644760333.95111084 -0.317224830389022827 0.947565436363220215 0.00606725877150893211 0.0380957424640655518
93.0905914306640625 -87.6943511962890625 -0.679514944553375244 233 1644760334.8480792 -0.220162242650985718 0.975121736526489258 0.00384812545962631702 0.025522308424115181
88.3633499145507812 -89.86627197265625 -0.875438034534454346 234 1644760335.75088644 -0.21229204535484314 0.977181375026702881 -0.000878572580404579639 0.00691533926874399185
83.63458251953125 -92.2305679321289062 -0.93308788537979126 235 1644760336.7478013 -0.234713032841682434 0.972031176090240479 -0.00733812851831316948 -0.00336404982954263687
78.8834228515625 -94.3500900268554688 -0.926615297794342041 236 1644760337.85012841 -0.186727240681648254 0.982295632362365723 -0.00899514183402061462 -0.0121376896277070045
73.5797348022460938 -95.2303619384765625 -0.888793230056762695 237 1644760339.04768181 -0.0492187626659870148 0.998596310615539551 -0.0134044792503118515 -0.0142579535022377968
68.265167236328125 -94.4049453735351562 -0.890386343002319336 238 1644760340.25119185 0.140161201357841492 0.989988446235656738 -0.0137562304735183716 -0.00940344762057065964
64.9646072387695312 -92.4047012329101562 -0.938569545745849609 239 1644760341.14832139 0.324765861034393311 0.945769429206848145 -0.00331626436673104763 -0.00602686731144785881
63.4867172241210938 -90.2745361328125 -0.927054822444915771 240 1644760341.747437 0.493632763624191284 0.869573593139648438 0.0128729045391082764 0.00165784778073430061
63.0688133239746094 -87.8787307739257812 -0.927186429500579834 241 1644760342.3468225 0.65082859992980957 0.759007513523101807 0.0153343593701720238 0.00972582399845123291
63.6715011596679688 -85.7122726440429688 -0.896012723445892334 242 1644760342.94823956 0.795417547225952148 0.605864644050598145 0.0144302211701869965 0.00554247945547103882
64.799713134765625 -84.3775405883789062 -0.877977490425109863 243 1644760343.44754362 0.891973555088043213 0.451953470706939697 0.0102533977478742599 0.00401152530685067177
66.2971725463867188 -83.5805816650390625 -0.862615644931793213 244 1644760343.94771934 0.958332955837249756 0.285463124513626099 0.00988964550197124481 0.00330892833881080151
68.1655349731445312 -83.3225784301757812 -0.859469592571258545 245 1644760344.44739127 0.995727896690368652 0.0918406471610069275 0.00874298252165317535 0.00385108939372003078
70.61767578125 -83.8472366333007812 -0.862228333950042725 246 1644760345.04620957 0.995654404163360596 -0.0927017927169799805 0.00835892185568809509 -0.00296628219075500965
75.7415237426757812 -85.0558624267578125 -0.871917486190795898 247 1644760346.14671373 0.994679927825927734 -0.10120951384305954 0.013968917541205883 -0.0131652615964412689
81.1168746948242188 -86.30731201171875 -0.877025127410888672 248 1644760347.14918923 0.994063913822174072 -0.107356056571006775 0.0136468978598713875 -0.0111974170431494713
90.0560531616210938 -86.4098281860351562 -0.806580007076263428 249 1644760348.64960194 0.996103763580322266 0.0852144062519073486 0.0172146931290626526 -0.0148157402873039246
95.3681106567382812 -84.0596542358398438 -0.386512547731399536 250 1644760349.64878273 0.964312136173248291 0.259078055620193481 0.0484692566096782684 -0.0251280646771192551
103.225013732910156 -76.8605117797851562 0.244561135768890381 251 1644760351.55044818 0.90464550256729126 0.424682110548019409 0.0355058237910270691 -0.000950432382524013519
107.378707885742188 -69.3215103149414062 0.636089503765106201 252 1644760353.04859209 0.81770634651184082 0.574857473373413086 0.025174509733915329 -0.016170993447303772
108.552284240722656 -59.5087165832519531 1.07769572734832764 253 1644760354.75149441 0.69907379150390625 0.714491605758666992 0.022960783913731575 -0.0164453499019145966
106.154998779296875 -49.86102294921875 1.48685479164123535 254 1644760356.44895983 0.556742310523986816 0.830075979232788086 0.0239849425852298737 -0.0208947435021400452
101.162483215332031 -42.5679359436035156 1.85029244422912598 255 1644760357.95036912 0.403343796730041504 0.9145393967628479 0.0194048658013343811 -0.0235578343272209167
94.914825439453125 -38.2343101501464844 2.14681458473205566 256 1644760359.24897003 0.236107245087623596 0.971418976783752441 0.010832466185092926 -0.0219362843781709671
86.0478057861328125 -35.2560386657714844 2.46125674247741699 257 1644760361.25028062 0.149795576930046082 0.988247513771057129 0.0241036135703325272 -0.0186333674937486649
81.625152587890625 -32.3353767395019531 2.66025590896606445 258 1644760362.7520268 0.363672703504562378 0.930724978446960449 0.0340386033058166504 -0.0182904377579689026
80.1863250732421875 -29.8779869079589844 2.77382278442382812 259 1644760363.45136261 0.52401888370513916 0.850669801235198975 0.0403387174010276794 -0.0117445727810263634
79.7703857421875 -26.8066329956054688 2.8838496208190918 260 1644760364.15211344 0.672668159008026123 0.739224851131439209 0.0299996938556432724 -0.0128110470250248909
80.5955963134765625 -22.7101726531982422 3.09840965270996094 261 1644760365.05261993 0.802102088928222656 0.595729410648345947 0.0410762615501880646 -0.00717168161645531654
83.1407241821289062 -18.6249065399169922 3.39011335372924805 262 1644760366.04918337 0.895722270011901855 0.443000525236129761 0.0372791402041912079 -0.00650942325592041016
90.0337295532226562 -11.2402067184448242 3.96194624900817871 263 1644760368.05420184 0.915305852890014648 0.401127159595489502 0.036055486649274826 -0.00349611835554242134
97.2908782958984375 -2.87609481811523438 4.61204242706298828 264 1644760370.15288091 0.907250165939331055 0.418681174516677856 0.0397173725068569183 -0.00507265562191605568
102.635467529296875 3.18215346336364746 5.12340450286865234 265 1644760371.65173554 0.916291356086730957 0.398301512002944946 0.0420062504708766937 -0.00122005993034690619
106.380279541015625 7.0340428352355957 5.50234174728393555 266 1644760372.64846683 0.923003852367401123 0.382065802812576294 0.0456956289708614349 -0.00123320636339485645
114.17333984375 14.2607517242431641 6.2848052978515625 267 1644760374.65234137 0.936018109321594238 0.348807364702224731 0.0467613115906715393 -0.00411204388365149498
122.252815246582031 21.4418182373046875 7.11115455627441406 268 1644760376.75019646 0.92890399694442749 0.367028951644897461 0.0466745160520076752 -0.015767175704240799
128.996536254882812 28.9364166259765625 7.82888984680175781 269 1644760378.75022388 0.882941007614135742 0.467597782611846924 0.0399365387856960297 -0.0131357666105031967
130.159759521484375 32.7888603210449219 8.05735492706298828 270 1644760379.55247283 0.770874738693237305 0.635609865188598633 0.040637534111738205 -0.0100402869284152985
129.762283325195312 36.7117347717285156 8.22137832641601562 271 1644760380.35101604 0.637654423713684082 0.769549965858459473 0.0340755395591259003 -0.00534276571124792099
127.691993713378906 40.7275009155273438 8.06530094146728516 272 1644760381.354249 0.498869091272354126 0.865283787250518799 0.00824546255171298981 0.0484317280352115631
126.5643310546875 50.9963226318359375 7.64517021179199219 273 1644760383.44990349 0.795575082302093506 0.605852484703063965 0.00159290176816284657 -0.000702907622326165438
128.605941772460938 54.2974815368652344 7.64288616180419922 274 1644760384.15334964 0.896440505981445312 0.443043410778045654 0.00894936360418796539 0.00518615683540701866
132.426681518554688 58.1441993713378906 7.62009334564208984 275 1644760385.24606204 0.911065876483917236 0.411335468292236328 -0.0109410509467124939 -0.0253466498106718063
133.77618408203125 63.232177734375 7.66754150390625 276 1644760386.44846153 0.726225316524505615 0.686967551708221436 -0.00613439362496137619 -0.0251942835748195648
133.110794067382812 65.3732376098632812 7.68208551406860352 277 1644760386.94942331 0.586831808090209961 0.809165000915527344 -0.0164530593901872635 -0.0246921926736831665
131.588043212890625 67.0996475219726562 7.69388675689697266 278 1644760387.45139623 0.411730319261550903 0.910923182964324951 -0.0179680082947015762 -0.0193445570766925812
127.239334106445312 70.4193649291992188 7.69033432006835938 279 1644760388.55553198 0.333844959735870361 0.942588508129119873 0.00185712240636348724 -0.00842784717679023743
123.038993835449219 73.19378662109375 7.67739152908325195 280 1644760389.45242953 0.280350029468536377 0.959845602512359619 0.00780031504109501839 -0.0062796715646982193
118.509880065917969 76.093170166015625 7.65756130218505859 281 1644760390.34680462 0.280844062566757202 0.959661424160003662 0.00574398133903741837 -0.0119811305776238441
113.87664794921875 79.2415313720703125 7.70038557052612305 282 1644760391.25239372 0.30105137825012207 0.953528106212615967 -0.00158867787104099989 -0.0122363120317459106
109.426376342773438 82.6681289672851562 7.68342399597167969 283 1644760392.15137935 0.335737884044647217 0.94193577766418457 0.00118012586608529091 -0.00596815021708607674
105.597831726074219 85.9521408081054688 7.64359283447265625 284 1644760392.94841361 0.358954370021820068 0.93330681324005127 0.00902059674263000488 -0.00295441178604960442
101.821723937988281 89.3435592651367188 7.63073921203613281 285 1644760393.7533288 0.367183983325958252 0.930070638656616211 0.00829042214900255203 -0.00870282389223575592
98.1408233642578125 92.8315811157226562 7.62507963180541992 286 1644760394.54886079 0.381410568952560425 0.924304306507110596 0.0134698972105979919 -0.00246439920738339424
94.6469497680664062 96.49774169921875 7.6253056526184082 287 1644760395.34879303 0.397619545459747314 0.917509615421295166 0.00753048993647098541 -0.00424825446680188179
91.2637710571289062 100.21502685546875 7.64880847930908203 288 1644760396.14859176 0.407428443431854248 0.913125932216644287 0.0116886058822274208 -0.00815527047961950302
87.9416351318359375 104.023841857910156 7.65938806533813477 289 1644760396.95245337 0.418653786182403564 0.908040940761566162 0.00877946522086858749 -0.0106570441275835037
84.6796112060546875 107.8751220703125 7.66612815856933594 290 1644760397.74947405 0.422443598508834839 0.906362354755401611 0.00680347997695207596 0.00153712439350783825
