# .PCD v0.7 - Point Cloud Data file format
VERSION 0.7
FIELDS x y z intensity t qx qy qz qw
SIZE 4 4 4 4 8 4 4 4 4
TYPE F F F F F F F F F
COUNT 1 1 1 1 1 1 1 1 1
WIDTH 275
HEIGHT 1
VIEWPOINT 0 0 0 1 0 0 0
POINTS 275
DATA ascii
0.150216460227966309 -0.0110444426536560059 0.0180192422121763229 5 1644760128.35384417 0.991464793682098389 0.010084124282002449 0.0552995242178440094 -0.117634542286396027
0.237446829676628113 -0.0193442534655332565 0.0264884624630212784 6 1644760128.45657372 0.990983009338378906 0.00958681292831897736 0.0551154837012290955 -0.12175016850233078
0.319998621940612793 -0.0237850472331047058 0.0401466600596904755 7 1644760128.55535269 0.990094482898712158 0.0141982631757855415 0.0627045556902885437 -0.124817915260791779
0.415124088525772095 -0.0119520500302314758 0.0540883317589759827 8 1644760128.65360522 0.989697396755218506 0.0168452002108097076 0.0693021789193153381 -0.124147266149520874
0.530362904071807861 0.00716981338337063789 0.0773834958672523499 9 1644760128.75525212 0.989802002906799316 0.0180830694735050201 0.0764069408178329468 -0.118856735527515411
0.67219620943069458 0.0110812364146113396 0.0963901877403259277 10 1644760128.85374713 0.989571034908294678 0.024998493492603302 0.0732945278286933899 -0.121458336710929871
0.812602341175079346 -0.000835067708976566792 0.111059039831161499 11 1644760128.95371509 0.987883925437927246 0.0300506558269262314 0.0788634642958641052 -0.130241364240646362
0.966280877590179443 0.00370042212307453156 0.132768675684928894 12 1644760129.05370951 0.987275362014770508 0.0328731052577495575 0.0778365209698677063 -0.13471539318561554
1.08525514602661133 0.0354737639427185059 0.171110436320304871 13 1644760129.15445209 0.986509263515472412 0.0398271121084690094 0.0909020304679870605 -0.130192607641220093
1.21508586406707764 0.0952711701393127441 0.216068863868713379 14 1644760129.25375152 0.986325681209564209 0.0523833110928535461 0.100312285125255585 -0.119812600314617157
1.34589612483978271 0.147019043564796448 0.264608770608901978 15 1644760129.35409737 0.986207664012908936 0.0568523183465003967 0.1091032475233078 -0.110719382762908936
1.49431383609771729 0.147856548428535461 0.295871883630752563 16 1644760129.45535374 0.982959091663360596 0.0688051208853721619 0.11823708564043045 -0.122789435088634491
1.66061854362487793 0.149510666728019714 0.323686361312866211 17 1644760129.55454612 0.981763839721679688 0.0708964690566062927 0.116134032607078552 -0.132764294743537903
1.84005236625671387 0.197883278131484985 0.351746082305908203 18 1644760129.65646291 0.982142925262451172 0.0741790756583213806 0.117639258503913879 -0.126703515648841858
2.07784318923950195 0.295016467571258545 0.367824405431747437 19 1644760129.75845838 0.986775338649749756 0.0739035531878471375 0.0941222980618476868 -0.109332673251628876
2.30349397659301758 0.438405990600585938 0.373471170663833618 20 1644760129.85513854 0.991330981254577637 0.0772953853011131287 0.0716482251882553101 -0.0784526839852333069
7.3629307746887207 1.71449792385101318 0.408448457717895508 21 1644760131.55685282 0.997201979160308838 0.0711291879415512085 0.0218132734298706055 0.0072801574133336544
12.3709325790405273 1.70181047916412354 0.427918612957000732 22 1644760132.65579724 0.999003052711486816 -0.035518743097782135 0.0217009764164686203 0.0161354560405015945
17.4483203887939453 1.15521693229675293 0.4924907386302948 23 1644760133.65744758 0.99876636266708374 -0.0465593598783016205 0.012846481055021286 0.011529325507581234
22.6538009643554688 0.844850480556488037 0.575367629528045654 24 1644760134.75668478 0.999517202377319336 -0.0256821829825639725 0.0163829401135444641 0.00611012708395719528
27.8915786743164062 0.564810454845428467 0.643991529941558838 25 1644760135.95836782 0.999479174613952637 -0.0268736332654953003 0.0177446641027927399 0.00207733805291354656
33.279449462890625 0.761539757251739502 0.722943723201751709 26 1644760137.25597477 0.999376893043518066 0.0241454895585775375 0.0181110724806785583 0.0182983037084341049
38.2775344848632812 1.24849069118499756 0.827512025833129883 27 1644760138.5555892 0.99835127592086792 0.0538616068661212921 0.0189645607024431229 0.00582817569375038147
43.4183311462402344 1.84584164619445801 0.954521834850311279 28 1644760140.45636177 0.99766308069229126 0.0588606521487236023 0.0346629247069358826 0.00151729071512818336
48.3343963623046875 2.26042079925537109 1.05812668800354004 29 1644760142.45799422 0.998720824718475342 0.040481962263584137 0.0290518887341022491 -0.00859412923455238342
53.3363800048828125 2.22231554985046387 1.1542665958404541 30 1644760144.05845928 0.999470889568328857 -0.0170682836323976517 0.0149763515219092369 -0.023289114236831665
58.6523246765136719 1.99825179576873779 1.06832480430603027 31 1644760145.45891547 0.999409914016723633 -0.0139879742637276649 -0.00796223711222410202 -0.0303444098681211472
63.9703598022460938 1.99333322048187256 0.805459976196289062 32 1644760146.75974774 0.99965590238571167 0.00104676198679953814 -0.0140702994540333748 -0.022112477570772171
69.4161224365234375 2.16660904884338379 0.51423954963684082 33 1644760147.95913553 0.999385058879852295 0.019842999055981636 -0.0187389235943555832 -0.0220133736729621887
74.8104782104492188 2.20824480056762695 0.206694245338439941 34 1644760149.05970645 0.999365508556365967 -0.0125713171437382698 -0.0221278853714466095 -0.0249168816953897476
80.0449066162109375 1.96370816230773926 -0.0547138452529907227 35 1644760150.15845156 0.998971343040466309 -0.0281876828521490097 -0.0228159762918949127 -0.0272245761007070541
85.1625289916992188 1.4009329080581665 -0.357871204614639282 36 1644760151.26068163 0.996692240238189697 -0.0730243846774101257 -0.026173444464802742 -0.0242278724908828735
90.321868896484375 0.170285150408744812 -0.740943491458892822 37 1644760152.4557147 0.990545094013214111 -0.128870591521263123 -0.035553809255361557 -0.030801067128777504
95.2137832641601562 -1.09361958503723145 -1.07920968532562256 38 1644760153.75712657 0.991508126258850098 -0.121904760599136353 -0.0265331324189901352 -0.0366993546485900879
100.056495666503906 -2.63578224182128906 -1.39307153224945068 39 1644760155.15626335 0.985037326812744141 -0.164892181754112244 -0.0214063171297311783 -0.0453186817467212677
104.778472900390625 -4.67363929748535156 -1.70257270336151123 40 1644760156.75768399 0.972463846206665039 -0.225010007619857788 -0.0247676651924848557 -0.0554177053272724152
108.620246887207031 -7.83707571029663086 -1.88709640502929688 41 1644760158.55619001 0.921413600444793701 -0.385885268449783325 0.0300554167479276657 -0.0344409532845020294
110.268646240234375 -10.9824409484863281 -1.94025862216949463 42 1644760159.55752707 0.829432070255279541 -0.557209014892578125 0.0198073089122772217 -0.0341792404651641846
110.419342041015625 -13.7804040908813477 -2.0889899730682373 43 1644760160.25823855 0.717871606349945068 -0.695148825645446777 0.0124664381146430969 -0.0356792770326137543
109.149200439453125 -18.7492332458496094 -2.45207715034484863 44 1644760161.35700297 0.576599299907684326 -0.816333472728729248 0.000781949434895068407 -0.0336496122181415558
106.783187866210938 -23.7896766662597656 -2.89548039436340332 45 1644760162.35785007 0.520424723625183105 -0.853120684623718262 0.000717706396244466305 -0.0366422794759273529
104.275588989257812 -28.110198974609375 -3.31891083717346191 46 1644760163.15820837 0.491032123565673828 -0.870359838008880615 0.00264650397002696991 -0.0367997512221336365
101.40338134765625 -32.51318359375 -3.75144720077514648 47 1644760163.95620489 0.469761043787002563 -0.881806790828704834 0.0105438530445098877 -0.0403752401471138
98.4034805297851562 -36.9852485656738281 -4.18087530136108398 48 1644760164.75659871 0.475084215402603149 -0.878641426563262939 0.0201090257614850998 -0.0433573387563228607
95.41998291015625 -41.4803543090820312 -4.57563352584838867 49 1644760165.55653954 0.465143978595733643 -0.884145021438598633 0.0193801131099462509 -0.0394086278975009918
92.2287063598632812 -45.8685073852539062 -4.9355616569519043 50 1644760166.35649443 0.447565197944641113 -0.89330446720123291 0.0197378341108560562 -0.0360968038439750671
89.00384521484375 -50.2534828186035156 -5.27792024612426758 51 1644760167.15835619 0.450098156929016113 -0.892063736915588379 0.0212820339947938919 -0.0343659073114395142
85.7552642822265625 -54.5849266052246094 -5.59318161010742188 52 1644760167.95857692 0.441807359457015991 -0.896177589893341064 0.0196046400815248489 -0.0358839593827724457
82.4100494384765625 -58.7652206420898438 -5.90696239471435547 53 1644760168.7569983 0.424638807773590088 -0.90474313497543335 0.0183671098202466965 -0.0280076134949922562
78.9456787109375 -62.8561172485351562 -6.21811437606811523 54 1644760169.55661178 0.419325053691864014 -0.907104551792144775 0.020164094865322113 -0.0303528197109699249
75.5320281982421875 -67.0289306640625 -6.54591560363769531 55 1644760170.35934687 0.426913291215896606 -0.90343165397644043 0.0176735371351242065 -0.035269077867269516
72.09661865234375 -71.1182632446289062 -6.83365106582641602 56 1644760171.15968919 0.419635564088821411 -0.907244384288787842 0.0125494906678795815 -0.0256160479038953781
68.604766845703125 -75.141021728515625 -7.14292764663696289 57 1644760171.95823169 0.411041378974914551 -0.911125838756561279 0.0138692203909158707 -0.0265013985335826874
65.0434494018554688 -79.1237411499023438 -7.45005035400390625 58 1644760172.75699162 0.404831886291503906 -0.913899600505828857 0.0115969330072402954 -0.0276445113122463226
61.4129447937011719 -83.0821304321289062 -7.76817750930786133 59 1644760173.55946994 0.401247650384902954 -0.915571331977844238 0.0118780620396137238 -0.0242557227611541748
57.7532730102539062 -86.9801025390625 -8.06579113006591797 60 1644760174.35955191 0.394248664379119873 -0.918706893920898438 0.0107229119166731834 -0.020753348246216774
54.0134620666503906 -90.8420944213867188 -8.37992382049560547 61 1644760175.1578691 0.385375171899795532 -0.922444581985473633 0.00778883323073387146 -0.0228325836360454559
50.2362747192382812 -94.6294021606445312 -8.62008857727050781 62 1644760175.96057987 0.379299461841583252 -0.925025701522827148 0.00929930713027715683 -0.0193107873201370239
46.3926582336425781 -98.3049468994140625 -8.86737537384033203 63 1644760176.75741601 0.368711352348327637 -0.929350137710571289 0.0124182319268584251 -0.0143524538725614548
42.4332275390625 -101.942054748535156 -9.13771820068359375 64 1644760177.55939746 0.360104382038116455 -0.932550966739654541 0.0124455662444233894 -0.0227746274322271347
38.5138969421386719 -105.53839111328125 -9.41349887847900391 65 1644760178.3560853 0.361508429050445557 -0.932055473327636719 0.0142707619816064835 -0.0195073354989290237
34.5992202758789062 -109.143409729003906 -9.67111873626708984 66 1644760179.15421295 0.360187321901321411 -0.932623088359832764 0.0100695677101612091 -0.0194394085556268692
30.5449199676513672 -112.684410095214844 -9.91057682037353516 67 1644760179.95971298 0.34467962384223938 -0.938536107540130615 0.00711129419505596161 -0.0171854216605424881
26.4279384613037109 -116.06646728515625 -10.1433506011962891 68 1644760180.75889254 0.33264496922492981 -0.942906439304351807 0.00822724774479866028 -0.0143918711692094803
22.2161865234375 -119.365867614746094 -10.3714113235473633 69 1644760181.55622101 0.324665755033493042 -0.945529580116271973 0.0128879621624946594 -0.0199953094124794006
18.0208816528320312 -122.619583129882812 -10.6346426010131836 70 1644760182.35366821 0.319208860397338867 -0.947464644908905029 0.00989580433815717697 -0.0178465303033590317
13.7305870056152344 -125.827133178710938 -10.8608493804931641 71 1644760183.15460777 0.311474323272705078 -0.950074255466461182 0.0107433293014764786 -0.0150728188455104828
9.40176010131835938 -128.994476318359375 -11.0852985382080078 72 1644760183.95773458 0.307735204696655273 -0.951324284076690674 0.00612467527389526367 -0.0156094701960682869
5.09289216995239258 -132.118438720703125 -11.3210697174072266 73 1644760184.75583196 0.304984450340270996 -0.952238678932189941 0.00189505354501307011 -0.0149128343909978867
0.743726491928100586 -135.253952026367188 -11.5560207366943359 74 1644760185.55545783 0.304175078868865967 -0.952551424503326416 0.000232577571296133101 -0.0111002316698431969
-3.62419629096984863 -138.368377685546875 -11.7273321151733398 75 1644760186.36128187 0.302083402872085571 -0.953257858753204346 0.002413532929494977 -0.00626557134091854095
-7.94783544540405273 -141.394622802734375 -11.8511228561401367 76 1644760187.15734839 0.301077604293823242 -0.953568994998931885 0.00662947492673993111 -0.0038087046705186367
-12.2763233184814453 -144.385604858398438 -11.9691410064697266 77 1644760187.95729661 0.297508686780929565 -0.954690635204315186 0.00705629168078303337 -0.00215110136196017265
-16.5855998992919922 -147.404800415039062 -12.0754175186157227 78 1644760188.75778198 0.298260241746902466 -0.954475760459899902 0.00396699458360671997 -0.0010332638630643487
-20.8585910797119141 -150.426849365234375 -12.1676292419433594 79 1644760189.56049538 0.301417261362075806 -0.953472316265106201 -0.000966430176049470901 0.00609812559559941292
-25.0891704559326172 -153.381484985351562 -12.1962604522705078 80 1644760190.35902405 0.295974493026733398 -0.955142974853515625 0.00247860862873494625 0.00973950792104005814
-29.3549213409423828 -156.310775756835938 -12.2628049850463867 81 1644760191.15905738 0.295461714267730713 -0.955351114273071289 0.00106108339969068766 0.00234165345318615437
-33.596405029296875 -159.223724365234375 -12.2803030014038086 82 1644760191.95664573 0.292484909296035767 -0.956249117851257324 0.00154837884474545717 0.00614532129839062691
-37.8155364990234375 -162.107254028320312 -12.2993106842041016 83 1644760192.75469232 0.289865732192993164 -0.957004904747009277 0.00294699450023472309 0.0105266626924276352
-42.0750503540039062 -165.0120849609375 -12.3184356689453125 84 1644760193.55857015 0.291918188333511353 -0.956415295600891113 -2.84004090644884855e-05 0.00731848319992423058
-46.2921943664550781 -167.875274658203125 -12.2990760803222656 85 1644760194.35866189 0.292420625686645508 -0.956225037574768066 0.00534465489909052849 0.00976423546671867371
-50.5190086364746094 -170.763076782226562 -12.2737102508544922 86 1644760195.15780807 0.294729053974151611 -0.955480635166168213 0.00492466799914836884 0.0129328584298491478
-54.6760482788085938 -173.67657470703125 -12.2673835754394531 87 1644760195.95554113 0.297449082136154175 -0.954565525054931641 -0.00427220668643712997 0.0176208596676588058
-58.8660545349121094 -176.599105834960938 -12.2578945159912109 88 1644760196.75206161 0.296382039785385132 -0.954939484596252441 -0.00569122703745961189 0.0146938720718026161
-63.0806045532226562 -179.516632080078125 -12.2606401443481445 89 1644760197.55418968 0.291781574487686157 -0.956278085708618164 -0.0126716028898954391 0.0153341982513666153
-67.315826416015625 -182.356109619140625 -12.2152681350708008 90 1644760198.3523407 0.287055522203445435 -0.957771420478820801 -0.00825644936412572861 0.0143148098140954971
-71.5339202880859375 -185.149246215820312 -12.1398172378540039 91 1644760199.15198684 0.286206841468811035 -0.958029866218566895 -0.00854270718991756439 0.013837750069797039
-75.8020095825195312 -187.967300415039062 -12.1231708526611328 92 1644760199.95157337 0.284720361232757568 -0.958335757255554199 -0.0083879297599196434 0.0213651601225137711
-80.0827255249023438 -190.767349243164062 -12.0602235794067383 93 1644760200.75318742 0.283178329467773438 -0.958893001079559326 -0.000355474097887054086 0.0182777829468250275
-84.3375396728515625 -193.522720336914062 -11.956355094909668 94 1644760201.55668783 0.281555414199829102 -0.959316432476043701 0.0102298585698008537 0.0182730592787265778
-88.581756591796875 -196.184478759765625 -11.836329460144043 95 1644760202.35376644 0.268781334161758423 -0.962822854518890381 0.0159697309136390686 0.0217645075172185898
-92.9702682495117188 -198.59100341796875 -11.7248392105102539 96 1644760203.15427494 0.240260899066925049 -0.970267236232757568 0.0235729031264781952 0.0173343401402235031
-97.4983596801757812 -200.783523559570312 -11.6369752883911133 97 1644760203.95370293 0.213185966014862061 -0.976730287075042725 0.0190573763102293015 0.0136546539142727852
-102.179481506347656 -202.680099487304688 -11.572300910949707 98 1644760204.75600314 0.175580501556396484 -0.984207630157470703 0.015688018873333931 0.0161475818604230881
-107.066055297851562 -204.104446411132812 -11.5022706985473633 99 1644760205.5567081 0.125564604997634888 -0.991824626922607422 0.020784132182598114 0.00924418866634368896
-112.044113159179688 -205.021331787109375 -11.4642534255981445 100 1644760206.35479689 0.0743879452347755432 -0.996961474418640137 0.0207502059638500214 0.0101820426061749458
-117.0970458984375 -205.4847412109375 -11.4214334487915039 101 1644760207.15357804 0.0305704753845930099 -0.999202072620391846 0.0197134669870138168 0.0164923518896102905
-122.185737609863281 -205.610809326171875 -11.3840360641479492 102 1644760207.95380425 0.00681881280615925789 -0.999588370323181152 0.0241028647869825363 0.0139893693849444389
-127.271354675292969 -205.527297973632812 -11.3259763717651367 103 1644760208.75499606 -0.0216196253895759583 -0.999433815479278564 0.0173605326563119888 0.0190605372190475464
-132.2884521484375 -205.062515258789062 -11.2022838592529297 104 1644760209.55458164 -0.0642511844635009766 -0.997579753398895264 0.0210688430815935135 0.0162017736583948135
-137.812118530273438 -204.21051025390625 -11.0791893005371094 105 1644760210.45446038 -0.0903657451272010803 -0.995495021343231201 0.0143994223326444626 0.0248256418853998184
-143.286331176757812 -203.122039794921875 -10.9451589584350586 106 1644760211.35327959 -0.104844413697719574 -0.994179427623748779 0.0066091618500649929 0.0238992590457201004
-148.637527465820312 -201.998641967773438 -10.6621265411376953 107 1644760212.25284481 -0.103790245950222015 -0.992884933948516846 -0.00308779627084732056 0.0582887642085552216
-154.028121948242188 -200.878768920898438 -10.5111856460571289 108 1644760213.15386128 -0.105440154671669006 -0.993957757949829102 0.00109658984001725912 0.0304825194180011749
-159.308486938476562 -199.703567504882812 -10.168116569519043 109 1644760214.05385709 -0.11015763133764267 -0.992871463298797607 0.00737446313723921776 0.0449123531579971313
-164.527618408203125 -198.582412719726562 -9.81825828552246094 110 1644760214.95402694 -0.102939002215862274 -0.993566632270812988 0.0128398966044187546 0.045432012528181076
-169.7181396484375 -197.574371337890625 -9.45875167846679688 111 1644760215.85459542 -0.0973755866289138794 -0.993837654590606689 0.00603929581120610237 0.0526142828166484833
-174.911544799804688 -196.643814086914062 -9.05900096893310547 112 1644760216.75669003 -0.095337994396686554 -0.994015336036682129 -0.00475469371303915977 0.0531184375286102295
-180.029953002929688 -195.6864013671875 -8.63138008117675781 113 1644760217.65506077 -0.09561891108751297 -0.993895411491394043 -0.00612107757478952408 0.0546938106417655945
-185.093643188476562 -194.719497680664062 -8.16832542419433594 114 1644760218.55612397 -0.099655643105506897 -0.993038594722747803 -0.0107735292986035347 0.0618631243705749512
-190.1173095703125 -193.714218139648438 -7.6622014045715332 115 1644760219.45464873 -0.100007414817810059 -0.993324100971221924 -0.00799159519374370575 0.0569370798766613007
-195.075469970703125 -192.811676025390625 -7.20564603805541992 116 1644760220.3557353 -0.0942589119076728821 -0.993760824203491211 -0.0130958966910839081 0.0581655427813529968
-200.001876831054688 -191.924713134765625 -6.72793960571289062 117 1644760221.25531101 -0.0953262075781822205 -0.993384778499603271 -0.0144456643611192703 0.0623768866062164307
-205.265701293945312 -190.858245849609375 -6.10624313354492188 118 1644760222.25396633 -0.0994102656841278076 -0.992465436458587646 -0.000442268705228343606 0.0716224536299705505
-210.3394775390625 -189.791519165039062 -5.52169036865234375 119 1644760223.25459981 -0.106435284018516541 -0.991789340972900391 0.000284070410998538136 0.0708896666765213013
-215.195816040039062 -188.629913330078125 -4.9571375846862793 120 1644760224.25699735 -0.119361259043216705 -0.990256845951080322 0.00761154294013977051 0.0713186487555503845
-220.414794921875 -187.232315063476562 -4.37340831756591797 121 1644760225.35523057 -0.130591824650764465 -0.989287793636322021 0.0177210364490747452 0.0627808719873428345
-225.559722900390625 -185.973922729492188 -3.77975726127624512 122 1644760226.45643282 -0.109843805432319641 -0.991232573986053467 0.0146263269707560539 0.0719610005617141724
-230.721755981445312 -184.829208374023438 -3.2122952938079834 123 1644760227.55856752 -0.120010040700435638 -0.9907035231590271 0.0111782439053058624 0.063080810010433197
-235.762313842773438 -183.120651245117188 -2.73250794410705566 124 1644760228.65640807 -0.183639571070671082 -0.980646193027496338 0.0140869105234742165 0.0664159730076789856
-240.246551513671875 -180.894729614257812 -2.36803054809570312 125 1644760229.65790248 -0.236194700002670288 -0.968948185443878174 0.0290929526090621948 0.0671199783682823181
-244.791854858398438 -178.08575439453125 -1.78457951545715332 126 1644760230.75747085 -0.286152362823486328 -0.955390036106109619 0.0277298092842102051 0.0676594525575637817
-249.064544677734375 -174.872390747070312 -1.26635134220123291 127 1644760231.85740781 -0.324746012687683105 -0.942514240741729736 0.0242446344345808029 0.0749606192111968994
-253.027984619140625 -171.395294189453125 -0.763857841491699219 128 1644760232.95633912 -0.363033294677734375 -0.928948462009429932 0.0185730140656232834 0.0701189637184143066
-256.6844482421875 -167.645904541015625 -0.316271305084228516 129 1644760234.05630589 -0.398103415966033936 -0.915107131004333496 0.0111011592671275139 0.06300334632396698
-260.149444580078125 -163.653228759765625 0.0865290313959121704 130 1644760235.15676951 -0.427852928638458252 -0.901868283748626709 0.000542269146535545588 0.0597927384078502655
-263.25933837890625 -159.360015869140625 0.520103693008422852 131 1644760236.25440621 -0.466500818729400635 -0.882276415824890137 0.000255570688750594854 0.0629704445600509644
-265.90264892578125 -154.741073608398438 0.928447306156158447 132 1644760237.3606143 -0.520118176937103271 -0.85207444429397583 -0.00262475409545004368 0.0586458519101142883
-268.04559326171875 -149.953460693359375 1.35204756259918213 133 1644760238.45670629 -0.542659461498260498 -0.838910341262817383 0.0139504298567771912 0.0394399687647819519
-270.09625244140625 -145.201644897460938 1.67765259742736816 134 1644760239.55653882 -0.54049527645111084 -0.839093506336212158 0.000927795830648392439 0.0615312345325946808
-272.4456787109375 -140.508087158203125 2.07007956504821777 135 1644760240.65781689 -0.526751220226287842 -0.84788137674331665 -0.00123966112732887268 0.0602393224835395813
-274.715545654296875 -135.706268310546875 2.45840048789978027 136 1644760241.75510216 -0.534330010414123535 -0.843072056770324707 0.000572760880459100008 0.0609967559576034546
-277.101348876953125 -130.993270874023438 2.89218759536743164 137 1644760242.85623598 -0.521848440170288086 -0.850558996200561523 -0.000608132453635334969 0.0649865120649337769
-279.06689453125 -126.311691284179688 3.2994992733001709 138 1644760244.05599952 -0.578325927257537842 -0.813455402851104736 -0.00653421971946954727 0.061536494642496109
-279.37786865234375 -121.787269592285156 3.52431011199951172 139 1644760245.15857434 -0.714391887187957764 -0.697935223579406738 0.0062058628536760807 0.0499214902520179749
-278.0482177734375 -117.577339172363281 3.58987927436828613 140 1644760246.15703416 -0.83270341157913208 -0.551588892936706543 0.00778737803921103477 0.0478962920606136322
-275.374755859375 -114.214241027832031 3.48593235015869141 141 1644760247.05487823 -0.917498886585235596 -0.395585328340530396 0.0246869176626205444 0.0331451594829559326
-271.47772216796875 -110.984031677246094 3.10708332061767578 142 1644760248.15365553 -0.942587375640869141 -0.330223023891448975 0.0479212552309036255 0.013614618219435215
-267.332550048828125 -108.076789855957031 2.7080540657043457 143 1644760249.45553303 -0.962365686893463135 -0.27067217230796814 0.0227262042462825775 -0.00850696861743927002
-262.8837890625 -105.589202880859375 2.28259181976318359 144 1644760250.95962358 -0.953568458557128906 -0.299515336751937866 0.0293961558490991592 0.0115592954680323601
-261.1822509765625 -100.605972290039062 2.1065971851348877 145 1644760252.45345688 -0.726196944713592529 -0.683849036693572998 0.0489730052649974823 0.0508932285010814667
-263.21270751953125 -95.927154541015625 2.3203127384185791 146 1644760253.65581441 -0.531782090663909912 -0.844959139823913574 0.00680329557508230209 0.0566182658076286316
-265.5262451171875 -91.3944091796875 2.6118614673614502 147 1644760254.75232911 -0.529719710350036621 -0.846831679344177246 -0.00121405767276883125 0.0476623550057411194
-267.841400146484375 -86.748382568359375 2.86961150169372559 148 1644760255.85225558 -0.518207371234893799 -0.854204475879669189 0.00895527098327875137 0.0414195246994495392
-270.528839111328125 -82.0378036499023438 3.16389060020446777 149 1644760257.15285659 -0.516290903091430664 -0.855425775051116943 -0.01075783371925354 0.0396819300949573517
-272.906158447265625 -77.3346481323242188 3.44023299217224121 150 1644760258.3513732 -0.514585554599761963 -0.856470882892608643 -0.00948402658104896545 0.0396159626543521881
-276.236907958984375 -73.454681396484375 3.70195341110229492 151 1644760259.5523088 -0.366350650787353516 -0.929565072059631348 -0.00172177981585264206 0.0411468036472797394
-280.501129150390625 -70.6937408447265625 3.93592166900634766 152 1644760260.75215602 -0.297643333673477173 -0.954039275646209717 -0.0121212806552648544 0.0327192060649394989
-283.620391845703125 -66.3077239990234375 4.16636943817138672 153 1644760262.05182004 -0.534291625022888184 -0.844860374927520752 -0.00810971576720476151 0.0260319076478481293
-283.77935791015625 -61.1641883850097656 4.17843437194824219 154 1644760263.2511723 -0.768834710121154785 -0.639420926570892334 0.00555902905762195587 0.00177320640068501234
-282.40869140625 -58.8406219482421875 4.08806037902832031 155 1644760263.85264063 -0.875074565410614014 -0.483872681856155396 0.0089056873694062233 -0.00568969873711466789
-280.2109375 -57.1672401428222656 3.91812705993652344 156 1644760264.45098591 -0.952773928642272949 -0.302357375621795654 0.0265386141836643219 -0.00987524911761283875
-277.455810546875 -56.4218978881835938 3.70750522613525391 157 1644760265.05243158 -0.993865013122558594 -0.104569517076015472 0.0289173629134893417 -0.021479342132806778
-272.186553955078125 -56.8838233947753906 3.40255165100097656 158 1644760266.15108204 -0.999463498592376709 0.0236999336630105972 0.0221673063933849335 -0.004435728769749403
-266.92620849609375 -56.3067626953125 3.10891318321228027 159 1644760267.25172019 -0.996868908405303955 -0.0780953764915466309 0.0116774542257189751 -0.00413307780399918556
-261.9534912109375 -55.0340919494628906 2.82331967353820801 160 1644760268.251719 -0.990990221500396729 -0.132386833429336548 0.0199658256024122238 0.00367289246059954166
-257.07232666015625 -53.2765083312988281 2.38730144500732422 161 1644760269.25056839 -0.981827020645141602 -0.186130836606025696 0.0340331718325614929 -0.0145876426249742508
-252.436294555664062 -50.7840538024902344 1.80879950523376465 162 1644760270.25161076 -0.963583469390869141 -0.261053740978240967 0.055369354784488678 -0.0170894693583250046
-247.9327392578125 -47.6187744140625 1.1387704610824585 163 1644760271.25209165 -0.949015319347381592 -0.310505956411361694 0.05197172611951828 -0.015965636819601059
-244.06439208984375 -44.1266517639160156 0.551949262619018555 164 1644760272.15167952 -0.929291963577270508 -0.365679502487182617 0.0443144887685775757 -0.0270409546792507172
-240.581954956054688 -40.0590286254882812 0.136240914463996887 165 1644760273.05352187 -0.898036956787109375 -0.439059555530548096 0.0258777588605880737 -0.00930980034172534943
-237.683792114257812 -35.2991828918457031 -0.163934066891670227 166 1644760273.9552362 -0.858132302761077881 -0.513246357440948486 0.0126534411683678627 0.00519742816686630249
-235.815277099609375 -30.6174087524414062 -0.252354651689529419 167 1644760274.75396585 -0.813659489154815674 -0.580795705318450928 0.0121924951672554016 0.0220432709902524948
-234.407608032226562 -25.7402381896972656 -0.313720911741256714 168 1644760275.55434275 -0.798108816146850586 -0.602264821529388428 0.00648642098531126976 0.0160437654703855515
-233.195816040039062 -20.8351688385009766 -0.351013123989105225 169 1644760276.35348296 -0.784080028533935547 -0.620266318321228027 0.0106429681181907654 0.0193626172840595245
-232.032608032226562 -15.9498214721679688 -0.381699532270431519 170 1644760277.15497732 -0.788491785526275635 -0.61468350887298584 0.0087876245379447937 0.0191753730177879333
-230.768402099609375 -11.0615024566650391 -0.389106184244155884 171 1644760277.95710254 -0.789959847927093506 -0.612259447574615479 0.0158584825694561005 0.029158981516957283
-229.52484130859375 -6.19664096832275391 -0.399609267711639404 172 1644760278.75533056 -0.791242241859436035 -0.610618531703948975 0.0124403703957796097 0.0304294433444738388
-228.224761962890625 -1.32181012630462646 -0.401026040315628052 173 1644760279.5551312 -0.787948191165924072 -0.61408466100692749 0.0269309636205434799 0.0362269431352615356
-227.086593627929688 3.60294842720031738 -0.438856124877929688 174 1644760280.35764742 -0.786153197288513184 -0.617191076278686523 0.0163838621228933334 0.0277473758906126022
-225.868759155273438 9.10591602325439453 -0.398027688264846802 175 1644760281.25655723 -0.780319631099700928 -0.624769687652587891 -0.00140740792267024517 0.0276057329028844833
-224.669204711914062 14.5336408615112305 -0.257538795471191406 176 1644760282.15081143 -0.783863425254821777 -0.620179891586303711 -0.0107755148783326149 0.0286158490926027298
-223.319854736328125 19.8976154327392578 -0.0709891915321350098 177 1644760283.05380392 -0.789388179779052734 -0.613111793994903564 -0.00845116376876831055 0.0298126470297574997
-222.03497314453125 25.0689296722412109 0.117021091282367706 178 1644760283.9507308 -0.782023727893829346 -0.621900022029876709 -0.0108852321282029152 0.0395059622824192047
-221.488265991210938 30.4003963470458984 0.306632578372955322 179 1644760284.95300627 -0.70634913444519043 -0.70706331729888916 -0.00169601687230169773 0.03360787034034729
-222.69586181640625 35.2681541442871094 0.579082250595092773 180 1644760285.95183587 -0.58167874813079834 -0.812297463417053223 -0.0108122443780303001 0.0413013435900211334
-224.95953369140625 39.9298324584960938 0.818386733531951904 181 1644760286.95138836 -0.545349001884460449 -0.837741971015930176 -0.0113798985257744789 0.0255609564483165741
-226.099639892578125 44.8033561706542969 1.05327558517456055 182 1644760287.95066261 -0.65059816837310791 -0.758675038814544678 -0.0147742442786693573 0.0302637871354818344
-225.986480712890625 50.085601806640625 1.14546537399291992 183 1644760288.95042062 -0.740314483642578125 -0.671635270118713379 -0.00125029787886887789 0.0289653725922107697
-224.925949096679688 55.3219184875488281 1.19425296783447266 184 1644760289.94978142 -0.781521916389465332 -0.623038530349731445 0.0111298682168126106 0.0303744859993457794
-223.462692260742188 60.5192718505859375 1.25845682621002197 185 1644760291.0496006 -0.809254229068756104 -0.587008774280548096 0.00688987411558628082 0.021927936002612114
-221.702713012695312 65.4991607666015625 1.32666826248168945 186 1644760292.24992847 -0.824548780918121338 -0.5657082200050354 -0.00378135568462312222 0.00889872480183839798
-219.004043579101562 69.233642578125 1.30831468105316162 187 1644760293.45103121 -0.91350555419921875 -0.406040340662002563 0.00734831998124718666 0.0241837278008460999
-215.971847534179688 70.9903488159179688 1.21081185340881348 188 1644760294.44953179 -0.974920392036437988 -0.222048327326774597 0.0128922099247574806 0.0076490459032356739
-212.462890625 71.6270980834960938 0.999845981597900391 189 1644760295.35004783 -0.99849015474319458 -0.0460057295858860016 0.0218959487974643707 -0.0205307118594646454
-207.34893798828125 70.84759521484375 0.876290857791900635 190 1644760296.55019093 -0.995946168899536133 0.0897858068346977234 -0.000804236624389886856 0.00539752421900629997
-202.068817138671875 69.6990814208984375 0.646025180816650391 191 1644760297.6504817 -0.993892550468444824 0.108824469149112701 0.0104042040184140205 0.0150547344237565994
-197.03704833984375 68.5423049926757812 0.397830754518508911 192 1644760298.65080094 -0.99212878942489624 0.124024659395217896 0.0172249544411897659 -0.00128529511857777834
-192.16082763671875 67.3164520263671875 0.225574612617492676 193 1644760299.65382576 -0.993614912033081055 0.112484179437160492 0.00846831593662500381 0.00223079696297645569
-187.19830322265625 66.3864593505859375 0.101752959191799164 194 1644760300.75183439 -0.993173539638519287 0.112708941102027893 0.0274279415607452393 -0.0122751360759139061
-182.376449584960938 65.059356689453125 -0.10307060182094574 195 1644760301.85174537 -0.991879880428314209 0.127163201570510864 -0.00196205894462764263 0.00012709405564237386
-177.2940673828125 63.7890396118164062 -0.245444938540458679 196 1644760302.85403991 -0.991761445999145508 0.128068089485168457 0.000108295469544827938 -0.00279894843697547913
-172.038803100585938 62.3770599365234375 -0.384588181972503662 197 1644760303.85308623 -0.989887893199920654 0.140358850359916687 -0.00232682423666119576 -0.0203951094299554825
-166.973983764648438 60.5676116943359375 0.00254253833554685116 198 1644760304.95387077 -0.982517659664154053 0.180107429623603821 -0.0470372065901756287 0.00279507413506507874
-162.387832641601562 58.1031341552734375 0.082947365939617157 199 1644760306.25307584 -0.962601661682128906 0.268547534942626953 -0.00153431354556232691 0.0357477664947509766
-159.677993774414062 55.1963462829589844 -0.152016833424568176 200 1644760307.25073409 -0.896577954292297363 0.441638588905334473 0.0149898994714021683 0.0296419765800237656
-158.48846435546875 51.791107177734375 -0.420010179281234741 201 1644760308.15431738 -0.796344757080078125 0.603829920291900635 0.0207629334181547165 0.0281671341508626938
-158.56512451171875 46.9542160034179688 -0.865761399269104004 202 1644760309.25300646 -0.669173479080200195 0.741696655750274658 0.0430562496185302734 0.0154631072655320168
-159.675048828125 41.816009521484375 -1.29826736450195312 203 1644760310.2527647 -0.612191855907440186 0.789623498916625977 0.0413362570106983185 0.00267251464538276196
-161.20684814453125 36.6650123596191406 -1.71931684017181396 204 1644760311.1527245 -0.598977386951446533 0.799895703792572021 0.0363756939768791199 0.00835258886218070984
-162.517730712890625 31.6732463836669922 -2.11321759223937988 205 1644760311.9546237 -0.614980220794677734 0.78770148754119873 0.034036535769701004 0.0129298549145460129
-163.75262451171875 26.4888572692871094 -2.50574898719787598 206 1644760312.75190735 -0.621555447578430176 0.782343447208404541 0.0371323861181735992 0.0151236196979880333
-164.973358154296875 21.0980434417724609 -2.92835617065429688 207 1644760313.55375719 -0.624859035015106201 0.779601752758026123 0.0406921468675136566 0.0107906041666865349
-166.213699340820312 15.5793399810791016 -3.36413049697875977 208 1644760314.35198283 -0.624240994453430176 0.779974162578582764 0.0435472279787063599 0.00819397531449794769
-167.483856201171875 10.2025060653686523 -3.76338672637939453 209 1644760315.15399718 -0.615015983581542969 0.787256121635437012 0.0442802570760250092 0.00473078340291976929
-168.773666381835938 5.1161808967590332 -4.09858322143554688 210 1644760315.95149136 -0.608682632446289062 0.792516589164733887 0.0376909486949443817 0.00152716459706425667
-170.114913940429688 0.234313681721687317 -4.38280868530273438 211 1644760316.75157094 -0.600082576274871826 0.799052238464355469 0.0375637561082839966 0.00233579589985311031
-171.69390869140625 -4.8649444580078125 -4.63416957855224609 212 1644760317.65157914 -0.591639161109924316 0.805550634860992432 0.032423313707113266 0.000116331189929042011
-173.17633056640625 -10.0702743530273438 -4.91590023040771484 213 1644760318.65262556 -0.613167703151702881 0.789501726627349854 0.0231654290109872818 0.0132571486756205559
-173.84210205078125 -15.407801628112793 -5.20967388153076172 214 1644760319.75585866 -0.693955063819885254 0.719503819942474365 0.0163358934223651886 0.0217662863433361053
-172.766250610351562 -19.7128009796142578 -5.53541660308837891 215 1644760320.75241256 -0.821583449840545654 0.56838381290435791 0.0210938546806573868 0.0386718176305294037
-170.884307861328125 -21.9759407043457031 -5.77530193328857422 216 1644760321.45303369 -0.910674393177032471 0.410206377506256104 0.0211656671017408371 0.0442137494683265686
-168.35845947265625 -23.3347396850585938 -5.98963403701782227 217 1644760322.15267253 -0.970165908336639404 0.23595002293586731 0.0328461788594722748 0.0450203120708465576
-165.521636962890625 -23.6519966125488281 -6.24863862991333008 218 1644760322.85316753 -0.996996402740478516 0.0450190864503383636 0.0401835031807422638 0.0485462471842765808
-160.219161987304688 -23.3329963684082031 -6.63227987289428711 219 1644760323.95030046 -0.999243557453155518 -0.0155013501644134521 0.0259210448712110519 0.0244974549859762192
-154.912261962890625 -23.2553176879882812 -6.95816135406494141 220 1644760324.85286379 -0.99963754415512085 0.00589807098731398582 0.0210912972688674927 0.0156581327319145203
-149.880950927734375 -23.9820194244384766 -7.26941537857055664 221 1644760325.65416598 -0.993749678134918213 0.10908576101064682 0.0230404175817966461 0.00556598510593175888
-144.975601196289062 -25.7152500152587891 -7.56697607040405273 222 1644760326.44935203 -0.983433783054351807 0.180124238133430481 0.0162278153002262115 0.0122458646073937416
-140.208236694335938 -28.0571994781494141 -7.8666529655456543 223 1644760327.25079107 -0.965141594409942627 0.260924965143203735 0.0188762601464986801 0.00796830002218484879
-136.121612548828125 -31.4797401428222656 -8.14730167388916016 224 1644760328.05192375 -0.92354816198348999 0.38306698203086853 0.0176521297544240952 0.00263108150102198124
-132.766204833984375 -35.6125106811523438 -8.39664077758789062 225 1644760328.85429907 -0.894821584224700928 0.445981591939926147 0.0149411521852016449 0.0130948284640908241
-130.038101196289062 -40.0608711242675781 -8.65784645080566406 226 1644760329.64948654 -0.862844347953796387 0.505124509334564209 0.0121683636680245399 0.0141683546826243401
-128.169021606445312 -44.9244613647460938 -8.90007495880126953 227 1644760330.45190263 -0.800660789012908936 0.598891675472259521 0.0147978700697422028 0.007215842604637146
-127.474945068359375 -49.9974746704101562 -9.12359142303466797 228 1644760331.25240946 -0.739519596099853516 0.672975718975067139 0.00800596177577972412 0.0122619364410638809
-127.595451354980469 -55.5562744140625 -9.33931255340576172 229 1644760332.15283537 -0.677019476890563965 0.735794901847839355 0.0113407215103507042 0.0110385017469525337
-128.803787231445312 -60.6244354248046875 -9.47525596618652344 230 1644760333.051651 -0.604457080364227295 0.79643172025680542 -0.00142727873753756285 0.01805831678211689
-130.537933349609375 -65.5638580322265625 -9.79390144348144531 231 1644760333.95111084 -0.557696819305419922 0.829446256160736084 0.020074477419257164 0.024293459951877594
-133.250091552734375 -70.097625732421875 -10.1240062713623047 232 1644760334.8480792 -0.471398591995239258 0.8817291259765625 0.0133007215335965157 0.0126570016145706177
-136.209365844726562 -74.4017257690429688 -10.2267684936523438 233 1644760335.75088644 -0.464471638202667236 0.885572433471679688 0.0032841111533343792 -0.00409281719475984573
-139.099853515625 -78.8445968627929688 -10.1975326538085938 234 1644760336.7478013 -0.484373420476913452 0.874754726886749268 -0.00510117365047335625 -0.0126693248748779297
-142.043167114257812 -83.0364227294921875 -10.0763540267944336 235 1644760337.85012841 -0.441806018352508545 0.896803855895996094 -0.0104051977396011353 -0.0210256762802600861
-146.04925537109375 -86.4943618774414062 -9.91900348663330078 236 1644760339.04768181 -0.314428627490997314 0.94888913631439209 -0.016627507284283638 -0.0216230712831020355
-150.725006103515625 -88.4534683227539062 -9.79852581024169922 237 1644760340.15137053 -0.14733549952507019 0.988893091678619385 -0.0146304424852132797 -0.0129866469651460648
-154.598785400390625 -88.610992431640625 -9.74366188049316406 238 1644760341.04855728 0.0311482939869165421 0.999418973922729492 -0.00486493809148669243 -0.0129529833793640137
-156.94189453125 -87.6442489624023438 -9.68057632446289062 239 1644760341.64812875 0.213295549154281616 0.976862013339996338 0.00481953192502260208 -0.0149109018966555595
-158.693283081054688 -85.8754959106445312 -9.64768695831298828 240 1644760342.24755692 0.396203815937042236 0.918106019496917725 0.00213176221586763859 -0.00996805634349584579
-159.517959594726562 -83.7520217895507812 -9.62377452850341797 241 1644760342.84810233 0.571623742580413818 0.820492029190063477 0.0043803136795759201 -0.00446951575577259064
-159.35205078125 -81.99176025390625 -9.62151336669921875 242 1644760343.34787965 0.713070034980773926 0.701051771640777588 -0.00126200879458338022 -0.00747876614332199097
-158.60064697265625 -80.502685546875 -9.64354991912841797 243 1644760343.84708428 0.829679727554321289 0.558181703090667725 -0.00409500254318118095 -0.00692062079906463623
-157.245742797851562 -79.2458038330078125 -9.68563747406005859 244 1644760344.34840894 0.9226531982421875 0.385607749223709106 -0.00323370122350752354 0.00270669371820986271
-155.357376098632812 -78.4880142211914062 -9.73603534698486328 245 1644760344.84657359 0.97730332612991333 0.211780846118927002 -0.00459280703216791153 -0.00244732550345361233
-150.488784790039062 -77.0109634399414062 -9.87319374084472656 246 1644760345.94596791 0.986401915550231934 0.163719117641448975 -0.00328824389725923538 -0.0140184927731752396
-145.371383666992188 -75.3728561401367188 -10.0135364532470703 247 1644760346.94867134 0.988864362239837646 0.148448437452316284 0.000633185380138456821 -0.0104869138449430466
-136.5233154296875 -70.5447616577148438 -10.1748065948486328 248 1644760348.64960194 0.937841475009918213 0.34652477502822876 0.00104188034310936928 -0.0193092431873083115
-133.161087036132812 -65.7972335815429688 -9.85420989990234375 249 1644760349.64878273 0.861392021179199219 0.505563974380493164 0.028737163171172142 -0.0397879667580127716
-130.100128173828125 -55.581512451171875 -9.34417343139648438 250 1644760351.55044818 0.759841024875640869 0.649482429027557373 0.0239566918462514877 -0.015500171110033989
-130.5264892578125 -46.4454727172851562 -8.96255302429199219 251 1644760353.14856267 0.621231675148010254 0.782962679862976074 0.0124830352142453194 -0.0297452323138713837
-134.715164184570312 -37.4767913818359375 -8.45862197875976562 252 1644760354.84936666 0.472260951995849609 0.880683064460754395 0.0126992985606193542 -0.0347226783633232117
-141.881942749023438 -30.5415019989013672 -7.91281414031982422 253 1644760356.55062747 0.305613130331039429 0.951426088809967041 0.0114973383024334908 -0.035451885312795639
-149.965042114257812 -27.0361309051513672 -7.37387847900390625 254 1644760358.04952455 0.133354529738426208 0.990220189094543457 0.00799882970750331879 -0.0402063727378845215
-157.541778564453125 -26.7176513671875 -6.91174077987670898 255 1644760359.34893751 -0.0405999980866909027 0.998618543148040771 0.00277452240698039532 -0.0332412458956241608
-166.10479736328125 -28.6313247680664062 -6.40774345397949219 256 1644760361.25028062 -0.118382364511489868 0.992119073867797852 0.0192842036485671997 -0.036242220550775528
-171.388916015625 -28.3999824523925781 -6.07430076599121094 257 1644760362.7520268 0.10300946980714798 0.993606209754943848 0.0258467551320791245 -0.038310416042804718
-173.893218994140625 -27.0241012573242188 -5.89951276779174805 258 1644760363.45136261 0.279767423868179321 0.958951771259307861 0.0316448472440242767 -0.0337689034640789032
-175.81939697265625 -24.6090755462646484 -5.74394845962524414 259 1644760364.15211344 0.451836466789245605 0.891344070434570312 0.0190773364156484604 -0.031393885612487793
-177.111968994140625 -21.1294975280761719 -5.52335214614868164 260 1644760364.9515543 0.600026845932006836 0.79911273717880249 0.0220566373318433762 -0.0300021357834339142
-177.185958862304688 -16.298065185546875 -5.22863006591796875 261 1644760365.95269132 0.735950648784637451 0.676177084445953369 0.0222275387495756149 -0.0258294437080621719
-175.0692138671875 -6.47317075729370117 -4.69658851623535156 262 1644760367.95339251 0.776915788650512695 0.628698945045471191 0.0231156609952449799 -0.0245990157127380371
-173.178314208984375 3.88837146759033203 -4.10346174240112305 263 1644760369.95517612 0.763351798057556152 0.644814670085906982 0.028041912242770195 -0.0268650203943252563
-171.41766357421875 13.3986892700195312 -3.4917304515838623 264 1644760371.74858499 0.779447019100189209 0.62501990795135498 0.0354312509298324585 -0.0236037392169237137
-170.010406494140625 19.1581363677978516 -3.07370233535766602 265 1644760372.85083175 0.791057407855987549 0.610315203666687012 0.0347094796597957611 -0.0232118517160415649
-166.958999633789062 29.2798404693603516 -2.2885127067565918 266 1644760374.85086274 0.810375690460205078 0.583879649639129639 0.0379782617092132568 -0.0305519979447126389
-163.737548828125 39.6080818176269531 -1.44541668891906738 267 1644760376.95107079 0.794789612293243408 0.604737281799316406 0.0328488163650035858 -0.0390284508466720581
-162.187759399414062 50.0157432556152344 -0.627073049545288086 268 1644760379.05162454 0.680145323276519775 0.731654703617095947 0.0271081347018480301 -0.0367271490395069122
-163.491806030273438 53.2607650756835938 -0.356649458408355713 269 1644760379.75184941 0.53485572338104248 0.843190312385559082 0.0389594323933124542 -0.037967972457408905
-166.0726318359375 56.1494483947753906 -0.111932650208473206 270 1644760380.5518527 0.37770390510559082 0.924992561340332031 0.0294539183378219604 -0.0293426830321550369
-173.459991455078125 61.5415420532226562 -0.345220774412155151 271 1644760382.55263114 0.399765372276306152 0.916603624820709229 0.000661532569210976362 0.00499624805524945259
-175.622299194335938 68.4327850341796875 -0.278733223676681519 272 1644760383.85281301 0.694855213165283203 0.719034790992736816 0.00755906244739890099 -0.0103959105908870697
-174.513275146484375 73.5289306640625 -0.242816761136054993 273 1644760384.84876156 0.788767099380493164 0.614240109920501709 -0.0139752337709069252 -0.0189789626747369766
-174.666366577148438 78.8040771484375 -0.12756858766078949 274 1644760386.04997468 0.613870501518249512 0.78805077075958252 -0.0165306217968463898 -0.0431944392621517181
-178.505523681640625 82.391204833984375 0.0912593379616737366 275 1644760387.24775624 0.230032593011856079 0.972507774829864502 -0.0184788443148136139 -0.0311796031892299652
-183.806228637695312 83.03094482421875 0.272806018590927124 276 1644760388.35079193 0.067611299455165863 0.997303783893585205 0.00983589235693216324 -0.0267802644520998001
-189.324874877929688 83.3955764770507812 0.445029616355895996 277 1644760389.35294914 0.0174424257129430771 0.999523341655731201 0.0109833795577287674 -0.0229828059673309326
-194.692520141601562 83.545745849609375 0.593178093433380127 278 1644760390.24635959 0.0167457088828086853 0.999604105949401855 0.00814966857433319092 -0.021090485155582428
-200.238067626953125 83.8227996826171875 0.827228188514709473 279 1644760391.15085363 0.0312814824283123016 0.999124765396118164 0.00149017293006181717 -0.0277291163802146912
