# .PCD v0.7 - Point Cloud Data file format
VERSION 0.7
FIELDS x y z intensity roll pitch yaw time
SIZE 4 4 4 4 4 4 4 8
TYPE F F F F F F F F
COUNT 1 1 1 1 1 1 1 1
WIDTH 315
HEIGHT 1
VIEWPOINT 0 0 0 1 0 0 0
POINTS 315
DATA ascii
-24.6086235046386719 -76.0143508911132812 0.908195972442626953 65 -0.0154060274362564087 -0.0146855860948562622 -1.79480469226837158 1644824138.04716754
-24.8438320159912109 -77.114501953125 0.984371721744537354 66 -0.0122697744518518448 -0.0195078793913125992 -1.78621983528137207 1644824138.44770122
-25.0561733245849609 -78.3294601440429688 1.04035449028015137 67 -0.0102134272456169128 -0.0755853354930877686 -1.76441633701324463 1644824138.8483007
-25.3432579040527344 -79.8125 0.992531001567840576 68 -0.033997751772403717 0.0769285336136817932 -1.77132630348205566 1644824139.44771242
-25.6727447509765625 -81.2385101318359375 0.9170035719871521 69 -0.0089755672961473465 -0.0117280539125204086 -1.77028059959411621 1644824140.0482676
-25.9564781188964844 -82.9010772705078125 1.07878541946411133 70 -0.0285736992955207825 -0.0160526093095541 -1.76009821891784668 1644824140.45144773
-26.1798248291015625 -84.0131378173828125 0.961565494537353516 71 -0.023509737104177475 -0.0164679531008005142 -1.79267227649688721 1644824140.84781384
-26.5928325653076172 -85.4746475219726562 1.05650615692138672 72 -0.00942544545978307724 -0.0165554266422986984 -1.81649744510650635 1644824141.24706745
-26.7986812591552734 -86.7255477905273438 1.08034539222717285 73 -0.00604969030246138573 -0.025846606120467186 -1.79878807067871094 1644824141.64709568
-27.1020793914794922 -88.0933380126953125 1.14634358882904053 74 -0.00744976848363876343 -0.0225239470601081848 -1.78353655338287354 1644824142.04721498
-27.3427028656005859 -89.4884719848632812 1.16787624359130859 75 -0.0110504627227783203 -0.0165452435612678528 -1.75681591033935547 1644824142.44715548
-27.5390167236328125 -90.7274703979492188 1.21793663501739502 76 -0.0119475126266479492 -0.014194415882229805 -1.74831759929656982 1644824142.84776545
-27.8032360076904297 -92.0731735229492188 1.28241145610809326 77 -0.0323380380868911743 0.00916865095496177673 -1.76423311233520508 1644824143.24737906
-28.0051174163818359 -93.4386138916015625 1.26108396053314209 78 -0.0331386551260948181 -0.0206558387726545334 -1.76301276683807373 1644824143.64934397
-28.3356437683105469 -94.5715560913085938 1.33967602252960205 79 -0.0463836453855037689 -0.0495830029249191284 -1.78974795341491699 1644824144.04746366
-28.4499244689941406 -95.7910995483398438 1.41315114498138428 80 -0.0556979700922966003 -0.0911995843052864075 -1.78646421432495117 1644824144.44835567
-28.8669033050537109 -97.0711135864257812 1.50033724308013916 81 -0.0150394048541784286 -0.116893738508224487 -1.79348945617675781 1644824144.84789157
-29.2114276885986328 -98.3333587646484375 1.7660984992980957 82 0.0141804832965135574 -0.151063859462738037 -1.79708766937255859 1644824145.25065303
-29.4854717254638672 -99.62554931640625 1.8980405330657959 83 0.0226224139332771301 -0.123588785529136658 -1.80812621116638184 1644824145.64895105
-29.9582767486572266 -100.8209228515625 2.13098263740539551 84 0.0293107759207487106 -0.128134250640869141 -1.85652625560760498 1644824146.049366
-30.3424530029296875 -102.043380737304688 2.28424382209777832 85 0.0434167943894863129 -0.0975731760263442993 -1.89557003974914551 1644824146.44822717
-30.9391040802001953 -103.32415771484375 2.25384116172790527 86 0.0629097074270248413 -0.0496482141315937042 -1.95897400379180908 1644824147.04771233
-31.5016670227050781 -104.236656188964844 2.27901864051818848 87 0.0874774903059005737 -0.0299351811408996582 -2.01768302917480469 1644824147.44757819
-32.2553939819335938 -105.386886596679688 2.40403032302856445 88 0.0758833959698677063 -0.00528067443519830704 -2.10054302215576172 1644824147.84894156
-32.9838104248046875 -106.236236572265625 2.33079743385314941 89 0.0737042799592018127 0.00925808772444725037 -2.2245941162109375 1644824148.24817395
-34.0493011474609375 -107.226066589355469 2.26804971694946289 90 0.0745509862899780273 0.021898023784160614 -2.34835124015808105 1644824148.64986277
-35.5478172302246094 -107.962722778320312 2.25412344932556152 91 0.0703122466802597046 0.0504656657576560974 -2.55390024185180664 1644824149.24802041
-36.7473640441894531 -108.629470825195312 2.2036442756652832 92 0.0418939478695392609 0.0468864329159259796 -2.68288850784301758 1644824149.64844728
-38.0504722595214844 -108.822242736816406 2.12891554832458496 93 0.0571328476071357727 0.0569716095924377441 -2.82439970970153809 1644824150.04940915
-39.1515083312988281 -108.986457824707031 2.06746315956115723 94 0.0431999415159225464 0.0686243325471878052 -2.97782373428344727 1644824150.44976926
-40.7884941101074219 -109.010574340820312 2.05123448371887207 95 0.0260452497750520706 0.0815339758992195129 -3.07688474655151367 1644824150.8494072
-42.0562362670898438 -108.898918151855469 1.8869476318359375 96 0.00663164304569363594 0.0873074829578399658 3.10441493988037109 1644824151.24846268
-43.4655685424804688 -108.749870300292969 1.7665557861328125 97 0.0191465560346841812 0.0817287862300872803 3.04370927810668945 1644824151.64947224
-45.097503662109375 -108.471855163574219 1.68741130828857422 98 0.0204288866370916367 0.0823300257325172424 3.01735711097717285 1644824152.0493331
-46.5520820617675781 -108.276542663574219 1.54147791862487793 99 0.0059778052382171154 0.0789874717593193054 2.97214055061340332 1644824152.45042777
-48.1934814453125 -107.943923950195312 1.44982671737670898 100 0.000927500717807561159 0.0710823982954025269 2.94134712219238281 1644824152.85081983
-49.7353248596191406 -107.558013916015625 1.32992970943450928 101 -0.00589689845219254494 0.0739439651370048523 2.90741729736328125 1644824153.25123501
-51.3690414428710938 -107.194129943847656 1.20782566070556641 102 0.00623321812599897385 0.0777109712362289429 2.91867828369140625 1644824153.65148139
-53.0220985412597656 -106.912933349609375 1.10957539081573486 103 0.00206186762079596519 0.0819891467690467834 2.94624209403991699 1644824154.05123997
-54.6122970581054688 -106.6173095703125 1.05674242973327637 104 0.0126836467534303665 0.064420752227306366 2.94890308380126953 1644824154.45222449
-56.2957916259765625 -106.298103332519531 0.869640469551086426 105 0.0142558226361870766 0.0730298012495040894 2.95931768417358398 1644824154.85116029
-57.9350700378417969 -105.984016418457031 0.787611544132232666 106 0.0169498417526483536 0.0768978074193000793 2.94350004196166992 1644824155.25104499
-59.7039070129394531 -105.637008666992188 0.651769340038299561 107 0.0140352779999375343 0.0714329630136489868 2.93237614631652832 1644824155.65174389
-61.511199951171875 -105.216720581054688 0.609053194522857666 108 0.0157088078558444977 0.0593675635755062103 2.9173741340637207 1644824156.05170655
-63.3208580017089844 -104.78192138671875 0.517716288566589355 109 0.0175413396209478378 0.0611478276550769806 2.90050339698791504 1644824156.45160651
-65.1923828125 -104.3018798828125 0.323886275291442871 110 0.0147110503166913986 0.0707832127809524536 2.89535379409790039 1644824156.84997845
-67.0490875244140625 -103.862571716308594 0.228791102766990662 111 0.0167347900569438934 0.066323012113571167 2.87727904319763184 1644824157.25218153
-68.023651123046875 -103.578910827636719 0.1311330646276474 112 0.0120603330433368683 0.0764030665159225464 2.88620638847351074 1644824157.4522984
-69.0226974487304688 -103.366600036621094 0.103059612214565277 113 0.0164813902229070663 0.0717421844601631165 2.8988041877746582 1644824157.65207267
-70.9801483154296875 -102.977401733398438 -0.0299201980233192444 114 0.00372521462850272655 0.0863636806607246399 2.91165924072265625 1644824158.0521214
-71.9849700927734375 -102.741355895996094 -0.0402659401297569275 115 -0.00138999067712575197 0.0518798567354679108 2.91959214210510254 1644824158.24961448
-73.03173828125 -102.528434753417969 -0.126282438635826111 116 0.00310224969871342182 0.0770613551139831543 2.91674208641052246 1644824158.45285273
-74.0137710571289062 -102.329475402832031 -0.226626753807067871 117 0.0055388263426721096 0.0761596560478210449 2.90722751617431641 1644824158.64866185
-75.02716064453125 -102.057464599609375 -0.277778863906860352 118 0.00206678826361894608 0.0729535818099975586 2.90657377243041992 1644824158.85177159
-76.0693206787109375 -101.800567626953125 -0.359044015407562256 119 0.0038778684101998806 0.0701451003551483154 2.91399526596069336 1644824159.04908347
-77.09661865234375 -101.635002136230469 -0.375995546579360962 120 -0.00425998540595173836 0.0731336846947669983 2.91462159156799316 1644824159.25075054
-78.0908355712890625 -101.391624450683594 -0.484839260578155518 121 0.000274693913524970412 0.066983737051486969 2.91042613983154297 1644824159.448421
-79.081268310546875 -101.137733459472656 -0.502158463001251221 122 0.000604021421167999506 0.0738118588924407959 2.90467166900634766 1644824159.65058446
-80.0600509643554688 -100.897575378417969 -0.593847215175628662 123 0.0055569913238286972 0.0648757666349411011 2.90601873397827148 1644824159.84804058
-81.04119873046875 -100.688980102539062 -0.627450644969940186 124 0.00347460550256073475 0.0662195459008216858 2.90361380577087402 1644824160.04823351
-82.9429244995117188 -100.2525634765625 -0.744250714778900146 125 -0.00630603637546300888 0.0621837899088859558 2.89615273475646973 1644824160.44838309
-84.8648147583007812 -99.7437591552734375 -0.849564254283905029 126 0.00383847788907587528 0.064189620316028595 2.89764976501464844 1644824160.84807062
-86.7357025146484375 -99.3181915283203125 -0.925895273685455322 127 0.00419548666104674339 0.0586314834654331207 2.89410948753356934 1644824161.250036
-88.5908889770507812 -98.861114501953125 -0.997364819049835205 128 0.0049639861099421978 0.0543045960366725922 2.90135645866394043 1644824161.64824438
-90.4190673828125 -98.4497299194335938 -1.09479451179504395 129 0.00867339689284563065 0.0486381873488426208 2.90715336799621582 1644824162.04867387
-92.23101806640625 -98.01214599609375 -1.14803850650787354 130 0.0143948895856738091 0.0504586584866046906 2.90752196311950684 1644824162.45112324
-94.0541915893554688 -97.6234893798828125 -1.26448619365692139 131 0.0159920435398817062 0.0638051331043243408 2.91277980804443359 1644824162.85154939
-95.849365234375 -97.20849609375 -1.2627633810043335 132 0.0163268055766820908 0.0369715765118598938 2.92117834091186523 1644824163.25013947
-97.6898880004882812 -96.8133163452148438 -1.37646925449371338 133 0.0215160716325044632 0.0436169616878032684 2.9217069149017334 1644824163.64984107
-99.5403976440429688 -96.43109130859375 -1.45138490200042725 134 0.0357679650187492371 0.0503381825983524323 2.9241483211517334 1644824164.04861879
-101.334884643554688 -96.0298538208007812 -1.4786369800567627 135 0.0303070861846208572 0.0360635332763195038 2.92137479782104492 1644824164.4512074
-103.241828918457031 -95.5696640014648438 -1.53827428817749023 136 0.0384003333747386932 0.0421114489436149597 2.92277169227600098 1644824164.8509593
-105.11236572265625 -95.2270660400390625 -1.66870129108428955 137 0.033894754946231842 0.055219743400812149 2.91940069198608398 1644824165.25004959
-106.998298645019531 -94.7793807983398438 -1.7395484447479248 138 0.0360000766813755035 0.0414888523519039154 2.92064046859741211 1644824165.65070748
-108.880271911621094 -94.3523178100585938 -1.79570901393890381 139 0.0326558202505111694 0.0581717677414417267 2.91724753379821777 1644824166.04998994
-110.813636779785156 -93.9375686645507812 -1.88272249698638916 140 0.0284258052706718445 0.0596897415816783905 2.91497707366943359 1644824166.44944549
-112.715080261230469 -93.5047607421875 -2.03978466987609863 141 0.0291360225528478622 0.0549725070595741272 2.90831923484802246 1644824166.848804
-113.739791870117188 -93.2686309814453125 -2.06203579902648926 142 0.026947731152176857 0.0518200397491455078 2.91413736343383789 1644824167.05136228
-115.659065246582031 -92.8397903442382812 -2.1056668758392334 143 0.0261377077549695969 0.0295368675142526627 2.90971112251281738 1644824167.45276833
-116.666702270507812 -92.5889129638671875 -2.05934357643127441 144 0.0188753176480531693 0.0461507402360439301 2.91545915603637695 1644824167.64964581
-117.663352966308594 -92.3870468139648438 -2.08640503883361816 145 0.0214006174355745316 0.00935224071145057678 2.91327095031738281 1644824167.85083413
-118.665275573730469 -92.1876144409179688 -2.0729377269744873 146 0.0179006550461053848 0.0152603369206190109 2.91067743301391602 1644824168.04890776
-120.564353942871094 -91.7037811279296875 -2.19325900077819824 147 0.00888015050441026688 0.0210522804409265518 2.90839505195617676 1644824168.45172501
-121.590179443359375 -91.5176620483398438 -2.11635899543762207 148 0.00268872687593102455 0.0209984313696622849 2.90966033935546875 1644824168.64868164
-123.443626403808594 -91.0939712524414062 -2.25854039192199707 149 0.00836144480854272842 0.0159114059060811996 2.9001929759979248 1644824169.04968762
-125.378578186035156 -90.637725830078125 -2.20954799652099609 150 0.00272970506921410561 0.0120388688519597054 2.90024805068969727 1644824169.4496665
-127.229629516601562 -90.1775054931640625 -2.27958798408508301 151 0.00547233270481228828 0.022263621911406517 2.88888812065124512 1644824169.85166836
-129.079910278320312 -89.6737518310546875 -2.25909519195556641 152 -0.00533996103331446648 0.0161184929311275482 2.88036632537841797 1644824170.25063467
-130.958328247070312 -89.2263565063476562 -2.20893335342407227 153 -0.00826657284051179886 0.0151833752170205116 2.88480734825134277 1644824170.65167308
-132.708221435546875 -88.7848281860351562 -2.36852192878723145 154 0.00219912966713309288 0.00308358692564070225 2.89031481742858887 1644824171.05023623
-134.44415283203125 -88.3621978759765625 -2.27907013893127441 155 -0.00109817844349890947 -0.000281352287856861949 2.88411164283752441 1644824171.4510169
-136.239990234375 -87.824005126953125 -2.19138050079345703 156 0.0040980800986289978 -0.000351115624653175473 2.86954712867736816 1644824171.851331
-137.816116333007812 -87.3500595092773438 -2.22081851959228516 157 0.0110344365239143372 -0.00494572566822171211 2.84701228141784668 1644824172.25048542
-139.399307250976562 -86.773712158203125 -2.14766597747802734 158 0.0257054492831230164 -0.0226038992404937744 2.81770682334899902 1644824172.65465164
-140.894775390625 -86.2292709350585938 -2.14423680305480957 159 0.0268460214138031006 -0.0117563512176275253 2.79812455177307129 1644824173.05079079
-142.445068359375 -85.6639328002929688 -2.08648824691772461 160 0.0359200537204742432 -0.0303286239504814148 2.78287959098815918 1644824173.45177865
-144.195602416992188 -84.9309921264648438 -2.00676727294921875 161 0.0446595288813114166 -0.0383396521210670471 2.76458644866943359 1644824173.85199404
-145.98394775390625 -84.2323760986328125 -1.99545049667358398 162 0.0408291295170783997 -0.030325327068567276 2.73741626739501953 1644824174.25042868
-146.945556640625 -83.7658157348632812 -1.95923042297363281 163 0.0402044691145420074 -0.0242738202214241028 2.72161078453063965 1644824174.45152593
-147.923492431640625 -83.2889328002929688 -1.93243670463562012 164 0.0405913405120372772 -0.022546796128153801 2.70112919807434082 1644824174.65363526
-148.8958740234375 -82.7822952270507812 -1.78651034832000732 165 0.0362535268068313599 -0.0335263572633266449 2.6806485652923584 1644824174.85131431
-150.642990112304688 -81.7706375122070312 -1.84723293781280518 166 0.0448637232184410095 -0.0225253123790025711 2.62274861335754395 1644824175.25178099
-151.514541625976562 -81.2289199829101562 -1.75972664356231689 167 0.0452304929494857788 -0.0247529540210962296 2.59236001968383789 1644824175.45196724
-152.379608154296875 -80.6572799682617188 -1.73189270496368408 168 0.0465945042669773102 -0.02047014981508255 2.57421326637268066 1644824175.64770198
-153.28814697265625 -80.0456771850585938 -1.69396018981933594 169 0.0476239174604415894 -0.0326558612287044525 2.56431794166564941 1644824175.85223603
-154.946014404296875 -78.9694747924804688 -1.62148189544677734 170 0.0504261963069438934 -0.0341356024146080017 2.55622577667236328 1644824176.24782634
-156.601913452148438 -77.8514404296875 -1.52784717082977295 171 0.0432495325803756714 -0.0416885130107402802 2.54149341583251953 1644824176.64709187
-157.451461791992188 -77.2473907470703125 -1.48282468318939209 172 0.0479562394320964813 -0.0432276539504528046 2.52562928199768066 1644824176.85052514
-159.007476806640625 -76.0899505615234375 -1.39747118949890137 173 0.0522386170923709869 -0.0440070182085037231 2.4988713264465332 1644824177.24814558
-159.829803466796875 -75.4509658813476562 -1.37540292739868164 174 0.0530918203294277191 -0.0449439287185668945 2.49300909042358398 1644824177.45123267
-160.63690185546875 -74.853179931640625 -1.31189358234405518 175 0.0457419715821743011 -0.0390948913991451263 2.48360824584960938 1644824177.64637733
-162.143020629882812 -73.6409225463867188 -1.23120152950286865 176 0.0464752689003944397 -0.045062672346830368 2.45782208442687988 1644824178.04825115
-162.902099609375 -72.9913864135742188 -1.18314814567565918 177 0.045197557657957077 -0.0610098280012607574 2.44477438926696777 1644824178.24757123
-163.703033447265625 -72.2902069091796875 -1.0934441089630127 178 0.0457074902951717377 -0.0455574952065944672 2.43461108207702637 1644824178.44794512
-165.026611328125 -71.1102294921875 -0.981260597705841064 179 0.0461092405021190643 -0.0558724924921989441 2.3978416919708252 1644824178.85019255
-166.458206176757812 -69.6750030517578125 -0.894454300403594971 180 0.0469428971409797668 -0.0564750917255878448 2.36257648468017578 1644824179.24751496
-167.7193603515625 -68.3587875366210938 -0.770058870315551758 181 0.0514441244304180145 -0.0599016249179840088 2.33513259887695312 1644824179.64999199
-168.415298461914062 -67.6353302001953125 -0.740045845508575439 182 0.0483170337975025177 -0.0608797036111354828 2.33097934722900391 1644824179.84691143
-169.652587890625 -66.3167648315429688 -0.583266139030456543 183 0.0461916215717792511 -0.0684063881635665894 2.31357955932617188 1644824180.24951029
-170.326858520507812 -65.5296630859375 -0.477335512638092041 184 0.0427732393145561218 -0.0668869912624359131 2.29646158218383789 1644824180.4487834
-171.001480102539062 -64.7112884521484375 -0.383972406387329102 185 0.0500689670443534851 -0.0654232501983642578 2.26600933074951172 1644824180.65083766
-172.200119018554688 -63.1546211242675781 -0.284146994352340698 186 0.0531062968075275421 -0.0605472400784492493 2.2189176082611084 1644824181.04717088
-172.807952880859375 -62.3069076538085938 -0.222289085388183594 187 0.0541658475995063782 -0.061682332307100296 2.19653940200805664 1644824181.24740195
-173.398468017578125 -61.4491157531738281 -0.161957353353500366 188 0.0580118559300899506 -0.0627645030617713928 2.17829346656799316 1644824181.45007348
-173.9874267578125 -60.5799751281738281 -0.115337230265140533 189 0.0564679615199565887 -0.0632953494787216187 2.16722440719604492 1644824181.64955568
-174.585006713867188 -59.7099838256835938 -0.0611560866236686707 190 0.0530032962560653687 -0.0636842027306556702 2.16128253936767578 1644824181.84741974
-175.15838623046875 -58.8492240905761719 0.00140228052623569965 191 0.049622662365436554 -0.0687634944915771484 2.15225100517272949 1644824182.04726839
-175.733810424804688 -57.9694099426269531 0.0626814067363739014 192 0.0482549294829368591 -0.070133112370967865 2.14173722267150879 1644824182.24905324
-176.27874755859375 -57.1098976135253906 0.146048933267593384 193 0.0454561561346054077 -0.0701639726758003235 2.13223075866699219 1644824182.45126915
-176.799636840820312 -56.2574424743652344 0.256500840187072754 194 0.0436513274908065796 -0.0691033452749252319 2.11575722694396973 1644824182.65038109
-177.291244506835938 -55.3759994506835938 0.335879802703857422 195 0.047266002744436264 -0.0714800059795379639 2.09718799591064453 1644824182.84986877
-178.129745483398438 -53.849090576171875 0.487446188926696777 196 0.0496651828289031982 -0.0734647661447525024 2.07167911529541016 1644824183.24952936
-178.924758911132812 -52.3437576293945312 0.608947336673736572 197 0.0558514967560768127 -0.0703850910067558289 2.05576109886169434 1644824183.64856887
-179.64337158203125 -50.9659767150878906 0.761719286441802979 198 0.0584685578942298889 -0.0774845108389854431 2.06226539611816406 1644824184.04762387
-180.472366333007812 -49.5313186645507812 0.847009360790252686 199 0.0450915396213531494 -0.0633886530995368958 2.06731414794921875 1644824184.44746971
-181.162261962890625 -48.2416877746582031 0.970449388027191162 200 0.0472518950700759888 -0.0630258619785308838 2.05298399925231934 1644824184.84895086
-181.731063842773438 -47.0067024230957031 1.04106855392456055 201 0.0516134724020957947 -0.0636070966720581055 2.03494930267333984 1644824185.24709392
-182.25372314453125 -45.9974784851074219 1.14039325714111328 202 0.0515872128307819366 -0.06272849440574646 2.02468419075012207 1644824185.64729905
-182.687591552734375 -45.0400772094726562 1.23002803325653076 203 0.0515010729432106018 -0.062623344361782074 2.01064920425415039 1644824186.04763889
-183.182144165039062 -43.9660263061523438 1.30850005149841309 204 0.0542561337351799011 -0.0659168064594268799 2.01073694229125977 1644824186.64847898
-183.7430419921875 -42.7783012390136719 1.41802442073822021 205 0.0538930594921112061 -0.0867491289973258972 1.99551129341125488 1644824187.44785929
-184.321258544921875 -41.4642868041992188 1.51913321018218994 206 0.0553843118250370026 -0.0813592597842216492 1.99257171154022217 1644824188.04644608
-184.7744140625 -40.4728202819824219 1.60170280933380127 207 0.0561640895903110504 -0.0804715901613235474 1.99145007133483887 1644824188.44834828
-185.219573974609375 -39.4746017456054688 1.6899946928024292 208 0.0546745061874389648 -0.0752143412828445435 1.98883712291717529 1644824188.84692216
-185.791122436523438 -38.1897468566894531 1.79184329509735107 209 0.0546577274799346924 -0.0777682662010192871 1.99685251712799072 1644824189.44723535
-186.387741088867188 -37.0737648010253906 1.90114748477935791 210 0.0496435984969139099 -0.0824484154582023621 2.03191661834716797 1644824190.04650211
-186.992752075195312 -36.0996589660644531 2.0004730224609375 211 0.0439714677631855011 -0.0778703242540359497 2.06771492958068848 1644824190.64662957
-187.526412963867188 -35.2537727355957031 2.10107159614562988 212 0.0339714363217353821 -0.083522796630859375 2.10473871231079102 1644824191.44835782
-188.401031494140625 -34.144775390625 2.17209649085998535 213 0.0290138106793165207 -0.0845032930374145508 2.20572948455810547 1644824192.24727702
-189.149215698242188 -33.3442192077636719 2.28277015686035156 214 0.0198042578995227814 -0.0719893574714660645 2.26114344596862793 1644824192.84814405
-189.940933227539062 -32.39300537109375 2.38013792037963867 215 0.0293645579367876053 -0.0778471976518630981 2.26282048225402832 1644824193.64868784
-190.69378662109375 -31.3930931091308594 2.52173972129821777 216 0.0325515642762184143 -0.0787969157099723816 2.22982263565063477 1644824194.4492557
-191.277389526367188 -30.4301929473876953 2.6137700080871582 217 0.0398150458931922913 -0.0885160565376281738 2.16004109382629395 1644824195.44980454
-191.71990966796875 -29.5250225067138672 2.68890237808227539 218 0.0502943806350231171 -0.0904777944087982178 2.08723068237304688 1644824196.4499588
-192.196243286132812 -28.5422897338867188 2.74717831611633301 219 0.0508584827184677124 -0.0739359483122825623 2.04408550262451172 1644824197.25054216
-192.657684326171875 -27.4786014556884766 2.91040539741516113 220 0.0574349649250507355 -0.0918448120355606079 2.00730204582214355 1644824205.64853072
-193.11968994140625 -26.3446273803710938 2.94887208938598633 221 0.063360750675201416 -0.0783748701214790344 1.97897255420684814 1644824206.25028443
-193.519638061523438 -25.3687744140625 3.05862617492675781 222 0.0630081444978713989 -0.0771729424595832825 1.95563662052154541 1644824206.65015745
-193.997802734375 -24.1446914672851562 3.12395954132080078 223 0.0575641058385372162 -0.0592931471765041351 1.93782222270965576 1644824207.04937243
-194.3692626953125 -23.0755939483642578 3.20636367797851562 224 0.048966534435749054 -0.0572567544877529144 1.91391623020172119 1644824207.44846821
-194.7689208984375 -21.7855339050292969 3.26671957969665527 225 0.0542844496667385101 -0.0587382540106773376 1.87977385520935059 1644824208.04913116
-195.088455200195312 -20.6339321136474609 3.37240386009216309 226 0.0752850845456123352 -0.0654688328504562378 1.86360800266265869 1644824208.84837747
-195.723373413085938 -19.8479290008544922 3.4724280834197998 227 0.0643102526664733887 -0.0873438417911529541 2.08007693290710449 1644824209.65205216
-196.726425170898438 -19.1131229400634766 3.50171232223510742 228 0.0258045773953199387 -0.0919185727834701538 2.3485252857208252 1644824210.25113273
-197.46453857421875 -18.3905982971191406 3.72746682167053223 229 0.00883902329951524734 -0.0697151049971580505 2.33373570442199707 1644824210.85182929
-197.778472900390625 -17.356201171875 3.66928291320800781 230 0.0503802113234996796 -0.08522043377161026 2.07727718353271484 1644824211.64947891
-197.78179931640625 -16.6093120574951172 3.73217248916625977 231 0.0583735257387161255 -0.0491023287177085876 1.86069118976593018 1644824212.05222654
-197.62249755859375 -15.9515762329101562 3.80171656608581543 232 0.0790871679782867432 -0.0370306745171546936 1.64527583122253418 1644824212.45099926
-197.310043334960938 -15.4354104995727539 3.7362067699432373 233 0.097223334014415741 -0.0144818462431430817 1.442391037940979 1644824212.85287809
-196.798583984375 -14.8929271697998047 3.72198033332824707 234 0.0947999954223632812 0.0100544262677431107 1.17418265342712402 1644824213.45427871
-196.284378051757812 -14.6015262603759766 3.73978781700134277 235 0.107919894158840179 0.0203729141503572464 0.950539648532867432 1644824214.05230021
-195.676681518554688 -14.3878240585327148 3.64664959907531738 236 0.0969993770122528076 0.0438065901398658752 0.70080190896987915 1644824214.85147285
-195.082687377929688 -14.3756532669067383 3.69799351692199707 237 0.0855672657489776611 0.0415896810591220856 0.469022035598754883 1644824215.85222054
-194.5352783203125 -14.4663658142089844 3.66202855110168457 238 0.0805748552083969116 0.0412397757172584534 0.265415459871292114 1644824217.05339336
-193.814498901367188 -14.7307462692260742 3.55720210075378418 239 0.0617411546409130096 0.0682804509997367859 -0.0080898478627204895 1644824217.85430431
-193.255523681640625 -15.1667900085449219 3.53088903427124023 240 0.0448944531381130219 0.0854196101427078247 -0.274301916360855103 1644824218.45266986
-192.771774291992188 -15.7907876968383789 3.43640303611755371 241 0.0170194786041975021 0.103616617619991302 -0.563436686992645264 1644824219.05073261
-192.510772705078125 -16.3034896850585938 3.37596392631530762 242 -0.0120754837989807129 0.108839608728885651 -0.769973158836364746 1644824219.45296383
-192.229766845703125 -17.1804828643798828 3.35476136207580566 243 -0.0359596498310565948 0.0977270901203155518 -1.01636767387390137 1644824220.04789591
-191.602890014648438 -18.3183860778808594 3.16123223304748535 244 -0.0454096086323261261 0.104589693248271942 -1.06375086307525635 1644824220.85354042
-191.035873413085938 -19.3051109313964844 3.08211231231689453 245 -0.0486120507121086121 0.104987800121307373 -1.04909312725067139 1644824221.45520687
-190.26220703125 -20.4915294647216797 2.96170616149902344 246 -0.0550469011068344116 0.0783626735210418701 -1.02564918994903564 1644824222.04772854
-189.497283935546875 -21.5570201873779297 2.80863809585571289 247 -0.0572335980832576752 0.0741095766425132751 -1.00624752044677734 1644824222.44941354
-188.747848510742188 -22.8433551788330078 2.71392607688903809 248 -0.0448317602276802063 0.088155403733253479 -1.01488423347473145 1644824222.85384321
-187.996078491210938 -24.1658515930175781 2.66797018051147461 249 -0.0404183678328990936 0.0875983983278274536 -1.05001461505889893 1644824223.2508533
-187.304412841796875 -25.5261554718017578 2.4945981502532959 250 -0.0367582328617572784 0.0867469385266304016 -1.08198308944702148 1644824223.64979649
-186.590499877929688 -26.8918895721435547 2.38098263740539551 251 -0.0415360890328884125 0.0858537554740905762 -1.09722411632537842 1644824224.05074573
-185.944625854492188 -28.2404136657714844 2.26320075988769531 252 -0.0429849028587341309 0.0872446745634078979 -1.12076020240783691 1644824224.44819069
-185.168701171875 -29.6706390380859375 2.16977405548095703 253 -0.0446615107357501984 0.0857752934098243713 -1.10112667083740234 1644824224.84824133
-184.405471801757812 -31.0645999908447266 2.00651001930236816 254 -0.0435361228883266449 0.0883102491497993469 -1.07500612735748291 1644824225.24788666
-183.589447021484375 -32.4630889892578125 1.9178612232208252 255 -0.0378494635224342346 0.0937537923455238342 -1.05679488182067871 1644824225.65013385
-182.74566650390625 -33.8418617248535156 1.7102348804473877 256 -0.038858465850353241 0.0879729762673377991 -1.04458200931549072 1644824226.05138969
-181.9002685546875 -35.3316764831542969 1.59798479080200195 257 -0.0373048931360244751 0.0814812555909156799 -1.05146312713623047 1644824226.44980359
-181.096603393554688 -36.8153038024902344 1.4895319938659668 258 -0.0437423475086688995 0.0888662859797477722 -1.06674277782440186 1644824226.84829998
-180.309707641601562 -38.2747535705566406 1.3248436450958252 259 -0.0247311461716890335 0.0762226730585098267 -1.08372747898101807 1644824227.24887013
-179.615341186523438 -39.7614021301269531 1.16899740695953369 260 -0.0217800792306661606 0.0910284519195556641 -1.10413169860839844 1644824227.65007472
-178.983383178710938 -41.0533523559570312 1.07433462142944336 261 -0.00774233369156718254 0.0976903960108757019 -1.12375736236572266 1644824228.05139995
-178.188461303710938 -42.4220771789550781 0.944503307342529297 262 -0.011819085106253624 0.0921595320105552673 -1.07226395606994629 1644824228.44832659
-177.337905883789062 -43.6782188415527344 0.797144651412963867 263 0.00636922614648938179 0.0763781815767288208 -1.0061410665512085 1644824228.85026336
-176.503768920898438 -44.8695640563964844 0.682008266448974609 264 -0.00939163286238908768 0.115276455879211426 -0.992981195449829102 1644824229.25223231
-175.776748657226562 -46.3246078491210938 0.565034389495849609 265 -0.000786680844612419605 0.0801556557416915894 -1.0435870885848999 1644824229.65063071
-175.181381225585938 -47.3792953491210938 0.410493314266204834 266 -0.0423155277967453003 0.0819875672459602356 -1.09968709945678711 1644824230.04959297
-174.391067504882812 -48.972991943359375 0.339068740606307983 267 -0.0648242160677909851 0.0722373947501182556 -1.13484561443328857 1644824230.45025539
-173.816574096679688 -50.2872238159179688 0.253365308046340942 268 -0.060539737343788147 0.0769927799701690674 -1.14368414878845215 1644824230.84895396
-173.007064819335938 -51.7519569396972656 0.166322305798530579 269 -0.067361883819103241 0.0807557925581932068 -1.12812721729278564 1644824231.25096583
-172.35614013671875 -53.2241401672363281 0.0249911211431026459 270 -0.0631332993507385254 0.0847227349877357483 -1.13076329231262207 1644824231.65084004
-171.607009887695312 -54.6097793579101562 -0.0316451676189899445 271 -0.0718383938074111938 0.0781807899475097656 -1.10481023788452148 1644824232.04876781
-170.759902954101562 -56.0664558410644531 -0.175910010933876038 272 -0.0568915344774723053 0.0856175199151039124 -1.05596005916595459 1644824232.44814777
-169.8385009765625 -57.3828163146972656 -0.400778353214263916 273 -0.0431303828954696655 0.0979902744293212891 -0.99098658561706543 1644824232.85004401
-168.766738891601562 -58.7335052490234375 -0.532260119915008545 274 -0.0475856438279151917 0.0781248509883880615 -0.938168168067932129 1644824233.24824882
-167.765838623046875 -60.0260429382324219 -0.640039801597595215 275 -0.0517886020243167877 0.0948304310441017151 -0.92510753870010376 1644824233.64824677
-166.656784057617188 -61.3682403564453125 -0.754869520664215088 276 -0.0581041425466537476 0.0825561285018920898 -0.90831291675567627 1644824234.04872465
-165.59912109375 -62.6611900329589844 -0.934266030788421631 277 -0.0643505752086639404 0.0977665111422538757 -0.898728907108306885 1644824234.44765663
-164.521026611328125 -63.9278411865234375 -0.929842710494995117 278 -0.071867331862449646 0.0704277381300926208 -0.882193148136138916 1644824234.84810805
-163.489974975585938 -65.1250762939453125 -1.062904953956604 279 -0.0536399036645889282 0.0622939839959144592 -0.869068801403045654 1644824235.25149441
-162.7960205078125 -65.874847412109375 -1.11831438541412354 280 -0.0517478287220001221 0.0697305276989936829 -0.8379555344581604 1644824235.44798779
-161.743759155273438 -66.8755722045898438 -1.13221955299377441 281 -0.052962135523557663 0.0598020628094673157 -0.800670921802520752 1644824235.84945917
-160.454483032226562 -68.0516433715820312 -1.33142411708831787 282 -0.0593968667089939117 0.0707913562655448914 -0.763450920581817627 1644824236.25174093
-159.264892578125 -69.1184768676757812 -1.31327533721923828 283 -0.0632596686482429504 0.0581593066453933716 -0.745673477649688721 1644824236.65024233
-158.024307250976562 -70.173583984375 -1.55080199241638184 284 -0.047316133975982666 0.0646100416779518127 -0.723785102367401123 1644824237.05006814
-156.77447509765625 -71.16650390625 -1.65593969821929932 285 -0.0401577800512313843 0.0616607666015625 -0.697858333587646484 1644824237.45140433
-155.43994140625 -72.2125930786132812 -1.77572071552276611 286 -0.0446174144744873047 0.0697339326143264771 -0.671195447444915771 1644824237.84944129
-154.13763427734375 -73.1962814331054688 -1.71219313144683838 287 -0.0448213927447795868 0.0496199987828731537 -0.649014413356781006 1644824238.24948668
-152.9080810546875 -74.015411376953125 -1.8306276798248291 288 -0.0448763631284236908 0.0551174655556678772 -0.626516997814178467 1644824238.65004301
-151.521560668945312 -74.9492568969726562 -1.90285933017730713 289 -0.0352660119533538818 0.0435355491936206818 -0.603694677352905273 1644824239.04944086
-150.302230834960938 -75.7245101928710938 -2.00916504859924316 290 -0.0390500836074352264 0.0623487979173660278 -0.589145779609680176 1644824239.45037103
-148.91900634765625 -76.5373687744140625 -2.03126883506774902 291 -0.0470906086266040802 0.0397122912108898163 -0.564868628978729248 1644824239.84965348
-147.745223999023438 -77.2425537109375 -2.02535128593444824 292 -0.0564486049115657806 0.0344399809837341309 -0.559987425804138184 1644824240.25039649
-146.386062622070312 -78.0241165161132812 -2.10560369491577148 293 -0.0444145016372203827 0.0264134146273136139 -0.539829552173614502 1644824240.65189219
-144.965850830078125 -78.814300537109375 -2.11680865287780762 294 -0.0471177808940410614 0.0264012515544891357 -0.505034506320953369 1644824241.05024934
-143.46905517578125 -79.4312667846679688 -2.24170684814453125 295 -0.0411103814840316772 0.0381712280213832855 -0.457698971033096313 1644824241.4520874
-141.724899291992188 -80.1926651000976562 -2.24884510040283203 296 -0.0384687967598438263 0.0180344805121421814 -0.407067209482192993 1644824241.85223174
-140.185470581054688 -80.7874984741210938 -2.23536276817321777 297 -0.0398002676665782928 0.0296197161078453064 -0.371095061302185059 1644824242.25081277
-138.565170288085938 -81.2479705810546875 -2.34530138969421387 298 -0.0452756583690643311 0.0326653085649013519 -0.328176885843276978 1644824242.65004992
-137.039276123046875 -81.7627944946289062 -2.32995891571044922 299 -0.0502153970301151276 0.0189887285232543945 -0.321758866310119629 1644824243.05317473
-135.591156005859375 -82.1985626220703125 -2.41190147399902344 300 -0.0549574792385101318 0.0121788457036018372 -0.317526876926422119 1644824243.4509685
-134.387069702148438 -82.6559219360351562 -2.29751324653625488 301 -0.0438570789992809296 0.0056466003879904747 -0.336897134780883789 1644824243.84963322
-132.928543090820312 -83.0645904541015625 -2.25509762763977051 302 -0.0566297732293605804 0.0242384616285562515 -0.311320751905441284 1644824244.25379062
-131.847381591796875 -83.3990020751953125 -2.28966665267944336 303 -0.0600397363305091858 0.00344699481502175331 -0.289235472679138184 1644824244.65202928
-130.679351806640625 -83.6095809936523438 -2.32367467880249023 304 -0.0561767555773258209 -0.00695561105385422707 -0.252052068710327148 1644824245.0534513
-129.432220458984375 -83.9122695922851562 -2.32326245307922363 305 -0.0594289787113666534 -0.0171787794679403305 -0.226072415709495544 1644824245.45397329
-128.206222534179688 -84.1300506591796875 -2.36870503425598145 306 -0.042963515967130661 -0.0155024714767932892 -0.207970544695854187 1644824245.8492806
-126.6846923828125 -84.4272003173828125 -2.308258056640625 307 -0.0316101610660552979 -0.00369851826690137386 -0.183018237352371216 1644824246.25363183
-125.141334533691406 -84.6710357666015625 -2.25863456726074219 308 -0.0447448790073394775 -0.041403111070394516 -0.163376957178115845 1644824246.64970422
-123.532402038574219 -84.9657821655273438 -2.33440113067626953 309 -0.0171697456389665604 -0.0125363115221261978 -0.189852118492126465 1644824247.04904127
-121.815338134765625 -85.3713531494140625 -2.16800427436828613 310 -0.0285502970218658447 -0.00923198089003562927 -0.214161872863769531 1644824247.45327044
-120.060249328613281 -85.7725677490234375 -2.16615009307861328 311 -0.0259379632771015167 -0.00563412858173251152 -0.238865450024604797 1644824247.84855413
-118.268310546875 -86.2154006958007812 -2.29197978973388672 312 -0.0251406729221343994 0.00206494610756635666 -0.261117219924926758 1644824248.24935031
-116.527839660644531 -86.7569580078125 -2.15248990058898926 313 -0.0378221049904823303 -0.0187782887369394302 -0.280724912881851196 1644824248.64947629
-115.530380249023438 -87.0588302612304688 -2.1727757453918457 314 -0.0248483028262853622 -0.0215470399707555771 -0.289761006832122803 1644824248.8486402
-114.565803527832031 -87.3371200561523438 -2.06233072280883789 315 -0.0191626511514186859 -0.0234928447753190994 -0.297556906938552856 1644824249.04786325
-112.723281860351562 -87.8984909057617188 -2.07017707824707031 316 -0.0105916736647486687 -0.0289720091968774796 -0.275138735771179199 1644824249.45145917
-110.829185485839844 -88.3073959350585938 -2.01176238059997559 317 0.00147830252535641193 -0.0485329143702983856 -0.232272818684577942 1644824249.84719753
-109.842208862304688 -88.5163955688476562 -2.01275491714477539 318 0.00390053051523864269 -0.0426202230155467987 -0.218683347105979919 1644824250.05284905
-108.809921264648438 -88.708282470703125 -2.01208281517028809 319 -0.00616579875349998474 -0.0378568731248378754 -0.208641126751899719 1644824250.25242805
-107.786643981933594 -88.90545654296875 -1.88003110885620117 320 -0.019441753625869751 -0.0415446162223815918 -0.205678343772888184 1644824250.44835615
-106.76123046875 -89.1168594360351562 -1.87524926662445068 321 -0.0187551025301218033 -0.0352434255182743073 -0.21559460461139679 1644824250.64994597
-105.780693054199219 -89.3428878784179688 -1.8528975248336792 322 -0.0183454100042581558 -0.0399455316364765167 -0.226224154233932495 1644824250.84947252
-104.720878601074219 -89.6032485961914062 -1.78403866291046143 323 -0.0278395544737577438 -0.0373927094042301178 -0.229924663901329041 1644824251.04767227
-103.673141479492188 -89.791534423828125 -1.76083159446716309 324 -0.0297089125961065292 -0.0433160439133644104 -0.229189589619636536 1644824251.24989986
-101.840538024902344 -90.239532470703125 -1.74987614154815674 325 -0.0325904451310634613 -0.0329851321876049042 -0.246322557330131531 1644824251.64964867
-100.836143493652344 -90.5039520263671875 -1.69120073318481445 326 -0.0370288975536823273 -0.0272521190345287323 -0.246005937457084656 1644824251.84734344
-98.9687881469726562 -90.9911041259765625 -1.61960971355438232 327 -0.0314566455781459808 -0.0299497228115797043 -0.250325918197631836 1644824252.24851584
-97.9841842651367188 -91.202117919921875 -1.53253710269927979 328 -0.0258790440857410431 -0.0436849966645240784 -0.24910379946231842 1644824252.44847941
-97.0041427612304688 -91.4569320678710938 -1.55210709571838379 329 -0.0193005669862031937 -0.0354173406958580017 -0.244537904858589172 1644824252.64678192
-96.0081939697265625 -91.6432647705078125 -1.47158360481262207 330 -0.0344824753701686859 -0.0424624532461166382 -0.236752137541770935 1644824252.84722495
-94.0954666137695312 -92.0697555541992188 -1.35682010650634766 331 -0.042162775993347168 -0.0539917498826980591 -0.231787383556365967 1644824253.24896955
-92.3468704223632812 -92.4889144897460938 -1.41846132278442383 332 -0.0246863160282373428 -0.0477642156183719635 -0.226301655173301697 1644824253.65094042
-91.333282470703125 -92.7119064331054688 -1.38929688930511475 333 -0.0385059341788291931 -0.0561072342097759247 -0.220637872815132141 1644824253.85078216
-90.2478103637695312 -92.9952545166015625 -1.1698843240737915 334 -0.0340483151376247406 -0.057275824248790741 -0.220857158303260803 1644824254.05000234
-89.1015701293945312 -93.1302947998046875 -1.17162239551544189 335 -0.030711788684129715 -0.0486281067132949829 -0.21157132089138031 1644824254.25287533
-87.212127685546875 -93.5766754150390625 -1.1157231330871582 336 -0.0291762426495552063 -0.0459873303771018982 -0.210847079753875732 1644824254.65077472
-86.1384124755859375 -93.8217849731445312 -0.994826078414916992 337 -0.0237677376717329025 -0.0509185940027236938 -0.211338803172111511 1644824254.84990883
-85.022125244140625 -93.9710540771484375 -0.996000111103057861 338 -0.0281384699046611786 -0.0528872385621070862 -0.207481175661087036 1644824255.04798698
-84.0413894653320312 -94.1879959106445312 -0.91674041748046875 339 -0.0384556502103805542 -0.0532688051462173462 -0.211788296699523926 1644824255.24842739
-83.0279617309570312 -94.4965591430664062 -0.910342395305633545 340 -0.0386230312287807465 -0.0510171428322792053 -0.228701084852218628 1644824255.45070553
-81.9039382934570312 -94.7762298583984375 -0.792573511600494385 341 -0.0359677597880363464 -0.0507539696991443634 -0.24123874306678772 1644824255.65077376
-80.7806320190429688 -94.9802093505859375 -0.780490458011627197 342 -0.028520096093416214 -0.0570828467607498169 -0.237699180841445923 1644824255.85206032
-79.7093582153320312 -95.2186203002929688 -0.732931196689605713 343 -0.0349447056651115417 -0.0553569942712783813 -0.231636688113212585 1644824256.04922247
-78.639892578125 -95.5098419189453125 -0.618116080760955811 344 -0.0326676517724990845 -0.0584693737328052521 -0.233618095517158508 1644824256.24897027
-77.5330429077148438 -95.724212646484375 -0.606691420078277588 345 -0.0321764685213565826 -0.054395768791437149 -0.229402884840965271 1644824256.44839406
-76.4637069702148438 -95.9645233154296875 -0.54155653715133667 346 -0.0365234017372131348 -0.0554231628775596619 -0.226478680968284607 1644824256.64798713
-75.3853836059570312 -96.2268905639648438 -0.448085963726043701 347 -0.0378477536141872406 -0.0631898865103721619 -0.227527335286140442 1644824256.85067034
-74.2521209716796875 -96.4626617431640625 -0.418245285749435425 348 -0.0330942906439304352 -0.0609936080873012543 -0.230236291885375977 1644824257.04760766
-73.1832275390625 -96.7000274658203125 -0.349204093217849731 349 -0.0276227723807096481 -0.0546323284506797791 -0.233617201447486877 1644824257.25008845
-72.1256790161132812 -97.0039443969726562 -0.308676362037658691 350 -0.0408198945224285126 -0.0601368993520736694 -0.240611061453819275 1644824257.45014739
-70.9853134155273438 -97.2346343994140625 -0.238445252180099487 351 -0.0362528860569000244 -0.0663452968001365662 -0.24459037184715271 1644824257.65029693
-69.892181396484375 -97.4677047729492188 -0.145781174302101135 352 -0.0391279123723506927 -0.0589596033096313477 -0.247642189264297485 1644824257.84968853
-68.8636627197265625 -97.823150634765625 -0.0681521669030189514 353 -0.0316921845078468323 -0.0613609291613101959 -0.257395923137664795 1644824258.04860115
-67.7315673828125 -98.112274169921875 -0.0709586665034294128 354 -0.0364845767617225647 -0.0493580512702465057 -0.260512977838516235 1644824258.24785447
-66.589019775390625 -98.2933273315429688 0.0127922547981142998 355 -0.0433856546878814697 -0.0523066595196723938 -0.255615442991256714 1644824258.44724107
-64.569610595703125 -98.9449539184570312 0.182262301445007324 356 -0.0350485257804393768 -0.0619138069450855255 -0.265135616064071655 1644824258.84892201
-63.4584770202636719 -99.1368789672851562 0.209767058491706848 357 -0.0321061313152313232 -0.0603311099112033844 -0.256804883480072021 1644824259.04932642
-62.4323234558105469 -99.3883895874023438 0.305509030818939209 358 -0.0386516861617565155 -0.0489296801388263702 -0.248246341943740845 1644824259.25132322
-61.4052391052246094 -99.7160186767578125 0.374857068061828613 359 -0.0363871119916439056 -0.0620633438229560852 -0.244562491774559021 1644824259.44846511
-60.3274955749511719 -99.9372406005859375 0.453387707471847534 360 -0.0347160287201404572 -0.0662451311945915222 -0.238344401121139526 1644824259.64932203
-59.3113441467285156 -100.127296447753906 0.501527070999145508 361 -0.0298429764807224274 -0.0616606511175632477 -0.231518194079399109 1644824259.84892082
-58.3077659606933594 -100.377128601074219 0.609780967235565186 362 -0.0264776758849620819 -0.0583194904029369354 -0.227845475077629089 1644824260.04896903
-57.2599716186523438 -100.602859497070312 0.660192370414733887 363 -0.0209833774715662003 -0.0791652128100395203 -0.220967888832092285 1644824260.24738407
-56.2221527099609375 -100.829216003417969 0.723161578178405762 364 -0.0212083719670772552 -0.0598628632724285126 -0.216486215591430664 1644824260.44791555
-54.1968345642089844 -101.319808959960938 0.819334983825683594 365 -0.0200264062732458115 -0.055832449346780777 -0.21297667920589447 1644824260.84846926
-53.1622657775878906 -101.40625 0.955419063568115234 366 -0.0325443781912326813 -0.0767680779099464417 -0.209716245532035828 1644824261.04821014
-51.2902412414550781 -101.878776550292969 1.09383857250213623 367 -0.0296510383486747742 -0.0694412067532539368 -0.219374090433120728 1644824261.44886422
-49.5439224243164062 -102.227767944335938 1.15672194957733154 368 -0.0296368654817342758 -0.0561957322061061859 -0.240550875663757324 1644824261.84805799
-48.0026664733886719 -102.712150573730469 1.30453014373779297 369 -0.0305570513010025024 -0.0642988830804824829 -0.274240612983703613 1644824262.24951768
-46.4634132385253906 -103.228103637695312 1.35871553421020508 370 -0.0228356271982192993 -0.0658660382032394409 -0.310031503438949585 1644824262.64999056
-44.9653663635253906 -103.748237609863281 1.51652026176452637 371 -0.0310935359448194504 -0.0723819732666015625 -0.342758446931838989 1644824263.04974484
-43.4536857604980469 -104.331809997558594 1.58739328384399414 372 -0.0201875809580087662 -0.0664934888482093811 -0.363364130258560181 1644824263.44896913
-42.1478042602539062 -104.832664489746094 1.75351345539093018 373 -0.0251103602349758148 -0.061856638640165329 -0.370232969522476196 1644824263.84967017
-40.9255905151367188 -105.241249084472656 1.87729001045227051 374 -0.0129922963678836823 -0.0831275880336761475 -0.33537214994430542 1644824264.248595
-39.59722900390625 -105.557327270507812 1.98018038272857666 375 -0.0293229948729276657 -0.0692285746335983276 -0.230529308319091797 1644824264.65099692
-38.1966934204101562 -105.45892333984375 1.98766863346099854 376 -0.0231052879244089127 -0.0698739513754844666 -0.0640191808342933655 1644824265.0491457
-36.6770973205566406 -105.202430725097656 2.07805085182189941 377 -0.0216349530965089798 -0.0619440823793411255 0.13035246729850769 1644824265.44989967
-35.5594596862792969 -104.663230895996094 2.09270548820495605 378 -0.0388738550245761871 -0.0256730485707521439 0.361955881118774414 1644824265.85066938
-34.4696998596191406 -103.453414916992188 2.1653907299041748 379 -0.0804413110017776489 -0.0140472119674086571 0.629073798656463623 1644824266.25099564
