# .PCD v0.7 - Point Cloud Data file format
VERSION 0.7
FIELDS x y z intensity t qx qy qz qw
SIZE 4 4 4 4 8 4 4 4 4
TYPE F F F F F F F F F
COUNT 1 1 1 1 1 1 1 1 1
WIDTH 235
HEIGHT 1
VIEWPOINT 0 0 0 1 0 0 0
POINTS 235
DATA ascii
81.4383163452148438 -18.3098983764648438 3.30654644966125488 0 1645021150.49882555 0.9996224045753479 2.96422258543316275e-05 0.0274573750793933868 -0.00107916479464620352
81.4364242553710938 -18.3130836486816406 3.30620908737182617 1 1645021150.59845424 0.999620437622070312 0.000155429821461439133 0.0275293551385402679 -0.00105961214285343885
81.4294281005859375 -18.3234348297119141 3.30552959442138672 2 1645021150.69852805 0.999618828296661377 0.000322855048580095172 0.0275844410061836243 -0.00108777370769530535
81.4442291259765625 -18.3125934600830078 3.30560994148254395 3 1645021150.79817271 0.999620437622070312 -0.000471724721137434244 0.0275195538997650146 -0.0011815815232694149
81.4452362060546875 -18.3146247863769531 3.30530309677124023 4 1645021150.89834285 0.999612271785736084 0.00015985178470145911 0.0278308168053627014 -0.000843646528664976358
81.446502685546875 -18.3163776397705078 3.30496406555175781 5 1645021150.99806976 0.999619841575622559 1.24691014207201079e-05 0.027547566220164299 -0.00112966482993215322
81.4492645263671875 -18.3118743896484375 3.30575251579284668 6 1645021151.0981636 0.999617278575897217 0.000338675396051257849 0.0276433899998664856 -0.00102461734786629677
81.4466171264648438 -18.3106765747070312 3.30497264862060547 7 1645021151.19794083 0.999618053436279297 0.000149868152220733464 0.0276163499802350998 -0.00101170479319989681
81.443634033203125 -18.3131961822509766 3.30520391464233398 8 1645021151.30060625 0.999620616436004639 -7.82652932684868574e-05 0.0275034736841917038 -0.00148987746797502041
81.4410629272460938 -18.3139877319335938 3.30433154106140137 9 1645021151.40154529 0.999615192413330078 -0.000195110740605741739 0.0277084596455097198 -0.00127175252418965101
81.4413604736328125 -18.3151435852050781 3.30414438247680664 10 1645021151.4976294 0.999637186527252197 0.00030824958230368793 0.0269011575728654861 -0.00133536639623343945
81.4385528564453125 -18.3181400299072266 3.30447506904602051 11 1645021151.59892464 0.999605536460876465 -0.000311992451315745711 0.028053581714630127 -0.00128270906861871481
81.4371337890625 -18.3219070434570312 3.30432558059692383 12 1645021151.69824576 0.999630630016326904 0.000481908064102753997 0.0271320119500160217 -0.00149453163612633944
81.43426513671875 -18.3256263732910156 3.30422043800354004 13 1645021151.79762888 0.999616384506225586 -0.000699188094586133957 0.0276334062218666077 -0.00174139835871756077
81.4269638061523438 -18.3339195251464844 3.30288505554199219 14 1645021151.89812589 0.999638915061950684 0.000363838626071810722 0.0267958585172891617 -0.00197167298756539822
81.4162445068359375 -18.3473968505859375 3.30447077751159668 15 1645021151.99962473 0.999604701995849609 -0.000745019293390214443 0.0280636753886938095 -0.00150758970994502306
81.4094085693359375 -18.3475227355957031 3.3057701587677002 16 1645021152.10217714 0.999586105346679688 0.000664450868498533964 0.0286884848028421402 -0.00204481394030153751
81.4148635864257812 -18.3473796844482422 3.30893063545227051 17 1645021152.20195341 0.999486446380615234 -0.000731076113879680634 0.0319558754563331604 -0.00227210624143481255
81.4289169311523438 -18.3390007019042969 3.31654572486877441 18 1645021152.30083609 0.999194979667663574 -0.00128272827714681625 0.0399075448513031006 -0.00389353581704199314
81.4727554321289062 -18.2949180603027344 3.32188320159912109 19 1645021152.40009785 0.999320387840270996 0.000149162879097275436 0.0367719531059265137 -0.00256860745139420033
81.5304336547851562 -18.2407188415527344 3.32552361488342285 20 1645021152.49884653 0.999347984790802002 -0.00228391820564866066 0.0360027849674224854 -0.00146307935938239098
84.5912246704101562 -15.4224872589111328 3.55898499488830566 21 1645021154.49963331 0.999431431293487549 0.00118947622831910849 0.0335849113762378693 0.00272046076133847237
88.4366378784179688 -11.7492198944091797 3.8591766357421875 22 1645021156.0993154 0.99929279088973999 0.013118417002260685 0.0349192321300506592 0.00474257860332727432
91.9979782104492188 -8.22698497772216797 4.1711125373840332 23 1645021157.39933228 0.998927891254425049 0.0178651288151741028 0.041665542870759964 0.00937365181744098663
95.821533203125 -4.40265750885009766 4.51556682586669922 24 1645021158.70006418 0.999044358730316162 0.0201544687151908875 0.038399573415517807 0.00544714555144309998
99.4701690673828125 -0.654582977294921875 4.85946989059448242 25 1645021159.90597129 0.998863041400909424 0.0278535597026348114 0.0382258333265781403 0.00596091756597161293
103.161392211914062 3.22064590454101562 5.24337387084960938 26 1645021161.10171819 0.998680651187896729 0.0350779369473457336 0.0358058176934719086 0.0111542204394936562
106.803581237792969 7.14731025695800781 5.65429210662841797 27 1645021162.30288482 0.998381733894348145 0.0354606546461582184 0.0432717502117156982 0.0101996669545769691
108.690597534179688 9.03876972198486328 5.77870035171508789 28 1645021162.90328717 0.924501359462738037 0.378518640995025635 0.0441473722457885742 -0.0084800301119685173
112.558998107910156 12.7083606719970703 6.12998199462890625 29 1645021164.10266948 0.931643128395080566 0.360820025205612183 0.0426262356340885162 -0.00573847722262144089
116.524887084960938 16.2537555694580078 6.52345991134643555 30 1645021165.30286169 0.935029506683349609 0.352359563112258911 0.0382792502641677856 -0.00986411049962043762
120.382759094238281 19.8246288299560547 6.91525554656982422 31 1645021166.50291657 0.925370335578918457 0.377172708511352539 0.0352403074502944946 -0.0137324342504143715
123.821525573730469 23.6762332916259766 7.30327320098876953 32 1645021167.70076442 0.910153687000274658 0.412262707948684692 0.0401718355715274811 -0.00677587185055017471
127.144088745117188 27.6504898071289062 7.66300392150878906 33 1645021168.90120316 0.905187070369720459 0.423243612051010132 0.0385441482067108154 -0.00394753925502300262
130.1785888671875 31.8113918304443359 8.01223564147949219 34 1645021170.09945941 0.865852713584899902 0.498745918273925781 0.0347969941794872284 -0.0184598136693239212
130.539657592773438 34.4064521789550781 8.15770721435546875 35 1645021170.70008111 0.742509305477142334 0.669225037097930908 0.0266655329614877701 -0.0103302085772156715
129.87799072265625 36.5162544250488281 8.22545528411865234 36 1645021171.20020652 0.596668243408203125 0.802184700965881348 0.021364821121096611 -0.00549965538084506989
127.896408081054688 39.1134223937988281 8.14774036407470703 37 1645021171.89993644 0.438669502735137939 0.897558271884918213 0.0253246240317821503 0.0362894460558891296
124.048332214355469 42.83477783203125 7.75977373123168945 38 1645021172.89964676 0.370414197444915771 0.928056001663208008 0.017132902517914772 0.0348115675151348114
120.102363586425781 46.6321678161621094 7.71144247055053711 39 1645021173.80033398 0.385864973068237305 0.922493994235992432 0.0104733835905790329 0.0018433217192068696
116.461639404296875 50.3415336608886719 7.69648170471191406 40 1645021174.5985465 0.386687994003295898 0.922125399112701416 0.0103466212749481201 0.00707466807216405869
112.863265991210938 54.0472259521484375 7.67289972305297852 41 1645021175.39938545 0.396819144487380981 0.917788684368133545 0.00101226242259144783 0.0140526676550507545
109.210433959960938 57.8024330139160156 7.67998886108398438 42 1645021176.50610375 0.404790312051773071 0.914085447788238525 0.0207732859998941422 0.0126926172524690628
107.596366882324219 62.8142585754394531 7.69877290725708008 43 1645021177.60319471 0.650115728378295898 0.759636163711547852 0.0026728813536465168 0.0171862822026014328
108.097938537597656 68.1153030395507812 7.68217563629150391 44 1645021178.60135317 0.761876046657562256 0.647697567939758301 -0.0045011560432612896 -0.00352844176813960075
109.335334777832031 73.0712127685546875 7.72970676422119141 45 1645021179.50163865 0.786698818206787109 0.616895139217376709 -0.00674220873042941093 -0.0223590955138206482
109.457466125488281 78.4341583251953125 7.75298261642456055 46 1645021180.40360641 0.674031198024749756 0.738243341445922852 -0.0177016984671354294 -0.0191150419414043427
107.358055114746094 83.62457275390625 7.65058469772338867 47 1645021181.30197787 0.506991267204284668 0.861802518367767334 -0.0159312542527914047 -0.00157288205809891224
103.979545593261719 87.4890670776367188 7.63160943984985352 48 1645021182.10167742 0.391608387231826782 0.920129656791687012 0.000970206689089536667 0.0018378252862021327
100.087326049804688 91.0936431884765625 7.62550640106201172 49 1645021182.90472603 0.368639558553695679 0.929563164710998535 0.00377471302635967731 0.00172364932950586081
96.1527252197265625 94.7572555541992188 7.6172633171081543 50 1645021183.70108604 0.370721638202667236 0.928696155548095703 0.00664085755124688148 0.00669741025194525719
92.317108154296875 98.5946426391601562 7.62726068496704102 51 1645021184.50149941 0.382528305053710938 0.923942744731903076 0.00111509335692971945 -0.000820750428829342127
88.344635009765625 102.332000732421875 7.63684225082397461 52 1645021185.30248618 0.366249501705169678 0.930513501167297363 0.00105467357207089663 0.00218783761374652386
84.2861099243164062 105.961738586425781 7.64979076385498047 53 1645021186.10202193 0.357917755842208862 0.933751463890075684 0.0011380448704585433 0.00133044004905968904
80.2469635009765625 109.6319580078125 7.64520883560180664 54 1645021186.90090799 0.35653918981552124 0.934270322322845459 -0.00276024173945188522 -0.00333980168215930462
76.2767410278320312 113.410263061523438 7.66595697402954102 55 1645021187.70296454 0.378537923097610474 0.925559341907501221 0.00584725895896553993 -0.00384916551411151886
72.6646041870117188 116.960594177246094 7.65940332412719727 56 1645021188.50076127 0.360395073890686035 0.932756602764129639 -0.00828613433986902237 0.00344884465448558331
68.9018402099609375 119.038444519042969 7.71417760848999023 57 1645021189.40162301 0.159959927201271057 0.986684262752532959 -0.0294164549559354782 -0.00128217274323105812
67.1185226440429688 118.78228759765625 7.71738481521606445 58 1645021189.90114045 -0.0418252348899841309 0.998387992382049561 -0.036608278751373291 0.0114843398332595825
64.8711013793945312 117.6336669921875 7.75924348831176758 59 1645021190.70354128 -0.2209320068359375 0.974515438079833984 -0.0384758226573467255 0.00532198091968894005
62.4535255432128906 115.279510498046875 7.78876686096191406 60 1645021191.60236907 -0.40671810507774353 0.913031399250030518 -0.0283262729644775391 0.0123142143711447716
61.595062255859375 112.965034484863281 7.84189319610595703 61 1645021192.20174026 -0.588446855545043945 0.807456016540527344 -0.0382607541978359222 0.0167702753096818924
61.8922805786132812 110.814071655273438 7.86020040512084961 62 1645021192.70196486 -0.756610095500946045 0.652902483940124512 -0.0198275558650493622 0.0294349361211061478
63.2534675598144531 108.677032470703125 7.86634969711303711 63 1645021193.30332541 -0.863026857376098633 0.505154669284820557 0.00128650187980383635 0.00129613559693098068
66.7540054321289062 105.059135437011719 7.87494277954101562 64 1645021194.40679383 -0.926977753639221191 0.375023037195205688 0.00144238281063735485 -0.00823940243571996689
70.7315673828125 101.842781066894531 7.88636875152587891 65 1645021195.40461707 -0.938270688056945801 0.345354855060577393 0.00440166192129254341 -0.0189415495842695236
74.6868972778320312 97.9470977783203125 7.89522743225097656 66 1645021196.40284133 -0.912835836410522461 0.408276170492172241 -0.0063843531534075737 -0.000779179972596466541
78.3887176513671875 94.11322021484375 7.88241243362426758 67 1645021197.30588317 -0.913709163665771484 0.40626099705696106 0.00412113172933459282 -0.00840104836970567703
82.2613143920898438 90.0966262817382812 7.88002252578735352 68 1645021198.20497918 -0.920261859893798828 0.391146302223205566 0.00726161524653434753 -0.00836107507348060608
85.8724594116210938 86.4428558349609375 7.86229324340820312 69 1645021199.00381231 -0.923912584781646729 0.382442772388458252 -0.00233371672220528126 -0.0108465887606143951
89.6161651611328125 82.6063690185546875 7.81531047821044922 70 1645021199.80532551 -0.919811606407165527 0.392211437225341797 0.0107973385602235794 0.000469479506136849523
93.4640579223632812 78.8054351806640625 7.77341508865356445 71 1645021200.60636806 -0.918068110942840576 0.396237611770629883 0.00398006103932857513 -0.0114394770935177803
97.392974853515625 74.9186477661132812 7.69278812408447266 72 1645021201.40681601 -0.924453496932983398 0.381157219409942627 0.00995286926627159119 -0.002430756576359272
101.138999938964844 70.9428787231445312 7.72830867767333984 73 1645021202.20689201 -0.916974127292633057 0.398897379636764526 -0.00627171853557229042 0.000167952763149514794
110.711891174316406 61.1053276062011719 7.67823457717895508 74 1645021204.20830798 -0.926128506660461426 0.37706795334815979 0.00863950140774250031 -0.00557227339595556259
118.248504638671875 53.4904975891113281 7.69312143325805664 75 1645021206.20833659 -0.918355464935302734 0.395535141229629517 0.000402823963668197393 -0.0132312588393688202
125.43597412109375 46.1924591064453125 7.74334859848022461 76 1645021208.20934296 -0.922359824180603027 0.385965019464492798 -0.00804191082715988159 -0.0147876711562275887
132.882614135742188 38.6476364135742188 8.51460742950439453 77 1645021210.2093749 -0.931864380836486816 0.362026959657669067 -0.0196310151368379593 0.0134119242429733276
136.471145629882812 34.907440185546875 8.56844997406005859 78 1645021211.20912933 -0.923818886280059814 0.380743235349655151 -0.020158030092716217 0.0344519056379795074
140.09503173828125 31.4521083831787109 8.51614093780517578 79 1645021212.10851359 -0.930530786514282227 0.363947212696075439 -0.0031992732547223568 0.0405543632805347443
143.829132080078125 27.8124027252197266 8.59409332275390625 80 1645021213.01163912 -0.923092305660247803 0.383184105157852173 -0.0165738090872764587 0.0282112341374158859
147.642242431640625 23.9447917938232422 8.61179733276367188 81 1645021213.90958905 -0.918566405773162842 0.39513629674911499 -0.00330157950520515442 0.00959934480488300323
151.224456787109375 20.3039531707763672 8.47485160827636719 82 1645021214.70705318 -0.926782429218292236 0.374762147665023804 0.0127392997965216637 0.0215737186372280121
155.216705322265625 16.7432193756103516 8.28026676177978516 83 1645021215.50774741 -0.935996115207672119 0.351143866777420044 0.0095754135400056839 0.0227506663650274277
159.361541748046875 12.9673929214477539 8.05027103424072266 84 1645021216.3109982 -0.931055247783660889 0.363603264093399048 0.0142277088016271591 0.0269510187208652496
163.619110107421875 9.21809291839599609 7.8484196662902832 85 1645021217.1128993 -0.940610527992248535 0.338253825902938843 0.00956588331609964371 0.0272889174520969391
167.373611450195312 5.91867971420288086 7.68768072128295898 86 1645021217.80930686 -0.934745490550994873 0.353968650102615356 0.0164940245449542999 0.0261715799570083618
171.403915405273438 1.91251993179321289 7.48391246795654297 87 1645021218.60907221 -0.922847151756286621 0.383984178304672241 0.00134414504282176495 0.0301235504448413849
174.9849853515625 -1.62915992736816406 7.31177997589111328 88 1645021219.31027508 -0.925322413444519043 0.378114283084869385 0.00354661466553807259 0.0282037071883678436
178.568496704101562 -5.15004968643188477 7.14605093002319336 89 1645021220.00873661 -0.926940619945526123 0.373863935470581055 0.00567714124917984009 0.0312182065099477768
182.184738159179688 -8.63223075866699219 6.99621343612670898 90 1645021220.71119642 -0.926599740982055664 0.375312387943267822 0.00414980622008442879 0.0231576263904571533
186.235092163085938 -12.631591796875 6.893035888671875 91 1645021221.51222515 -0.924921333789825439 0.379399031400680542 -0.0106803616508841515 0.0215145833790302277
190.226455688476562 -16.6175556182861328 6.87141084671020508 92 1645021222.31173396 -0.921674430370330811 0.387289077043533325 -0.00694188196212053299 0.0217987671494483948
194.225906372070312 -20.5250701904296875 6.79463577270507812 93 1645021223.11053061 -0.941747546195983887 0.3337421715259552 -0.00414155051112174988 0.0413594245910644531
198.7498779296875 -23.772308349609375 6.70233583450317383 94 1645021223.90857553 -0.954239368438720703 0.298350006341934204 -0.00703085958957672119 0.0191074907779693604
203.293731689453125 -27.0177593231201172 6.62458610534667969 95 1645021224.70627713 -0.94795691967010498 0.317297011613845825 -0.00869719963520765305 0.0249919630587100983
207.766311645507812 -30.3741245269775391 6.60790395736694336 96 1645021225.50745225 -0.952464699745178223 0.303552329540252686 -0.00690245069563388824 0.0248858891427516937
212.369720458984375 -33.4115180969238281 6.62758922576904297 97 1645021226.30705047 -0.962191760540008545 0.270677149295806885 -0.01081051304936409 0.028355063870549202
217.215377807617188 -35.9976463317871094 6.62746095657348633 98 1645021227.10798645 -0.972325503826141357 0.232073977589607239 -0.0100643737241625786 0.0249686725437641144
222.218429565429688 -38.2083282470703125 6.6347804069519043 99 1645021227.90721416 -0.980527222156524658 0.19503021240234375 -0.00784161873161792755 0.0216363109648227692
227.238418579101562 -40.3565940856933594 6.63746118545532227 100 1645021228.70577812 -0.977455854415893555 0.210301682353019714 -0.00407700566574931145 0.0183465182781219482
231.855712890625 -42.4901199340820312 6.6299290657043457 101 1645021229.50681305 -0.97550278902053833 0.219148620963096619 0.0013349080691114068 0.0191424079239368439
236.017791748046875 -45.3329277038574219 6.61060953140258789 102 1645021230.40824127 -0.93264240026473999 0.360679447650909424 0.0093899071216583252 -0.000564303947612643242
238.427276611328125 -49.13092041015625 6.5607295036315918 103 1645021231.30726767 -0.854500472545623779 0.519360065460205078 0.00747527647763490677 0.00618097232654690742
239.777236938476562 -54.2761764526367188 6.43525028228759766 104 1645021232.40461731 -0.769550919532775879 0.638512074947357178 0.00188712845556437969 0.00949159823358058929
239.969161987304688 -59.7660675048828125 6.32215118408203125 105 1645021233.40389609 -0.699097216129302979 0.714947760105133057 0.0106186149641871452 0.000203560077352449298
239.710250854492188 -65.1082382202148438 6.30368661880493164 106 1645021234.30551076 -0.689406394958496094 0.724256038665771484 0.00217391015030443668 -0.0129357101395726204
239.887802124023438 -70.1353225708007812 6.28828811645507812 107 1645021235.1059556 -0.739141941070556641 0.673478245735168457 0.00898729916661977768 -0.00392813514918088913
240.717086791992188 -75.241302490234375 6.27160072326660156 108 1645021235.90567183 -0.767590582370758057 0.640884697437286377 0.00612381706014275551 -0.0058269076980650425
242.0333251953125 -80.3963088989257812 6.24581766128540039 109 1645021236.70572472 -0.795516312122344971 0.605865240097045898 0.00378082739189267159 -0.00817648600786924362
243.7645263671875 -85.53399658203125 6.22387218475341797 110 1645021237.50734282 -0.82153397798538208 0.570107400417327881 0.00595750752836465836 -0.00489490153267979622
245.9173583984375 -90.5264053344726562 6.20138692855834961 111 1645021238.30528808 -0.842812120914459229 0.538160324096679688 0.00381826632656157017 -0.00605203630402684212
248.531692504882812 -95.344482421875 6.1854557991027832 112 1645021239.10494685 -0.866112232208251953 0.499770671129226685 0.00795231200754642487 -0.00395744992420077324
251.636764526367188 -99.84906005859375 6.1677861213684082 113 1645021239.90433526 -0.892936944961547852 0.449977666139602661 0.00398502172902226448 -0.0129558425396680832
255.180679321289062 -104.046745300292969 6.15847301483154297 114 1645021240.70520616 -0.911881089210510254 0.410399705171585083 0.00295938458293676376 -0.00601894129067659378
259.143646240234375 -107.827377319335938 6.14488935470581055 115 1645021241.50675988 -0.931696951389312744 0.362952083349227905 0.00763213727623224258 -0.0121777867898344994
263.382904052734375 -111.190544128417969 6.11642599105834961 116 1645021242.30450273 -0.948590993881225586 0.316230475902557373 0.00846335571259260178 -0.0100879371166229248
267.51995849609375 -114.030014038085938 6.07633543014526367 117 1645021243.10586524 -0.955417275428771973 0.295024871826171875 0.0107129737734794617 -0.00483949342742562294
272.264251708984375 -116.819114685058594 6.02408885955810547 118 1645021244.10450006 -0.968486607074737549 0.24785575270652771 0.0124602392315864563 -0.02111862413585186
276.916046142578125 -119.076217651367188 5.9662470817565918 119 1645021245.20624232 -0.974297404289245605 0.224789753556251526 0.012030244804918766 -0.0083331521600484848
281.613861083984375 -121.348648071289062 5.96037673950195312 120 1645021246.70841074 -0.97226029634475708 0.233302086591720581 0.0165251642465591431 0.00263387407176196575
286.225341796875 -123.735237121582031 5.94326257705688477 121 1645021248.50909567 -0.973455607891082764 0.228389233350753784 -0.0143956663087010384 -0.00391159066930413246
290.76727294921875 -126.46630859375 5.88327169418334961 122 1645021249.8088336 -0.961886584758758545 0.27261844277381897 0.00105304957833141088 0.0212657209485769272
295.29254150390625 -129.49237060546875 5.61046648025512695 123 1645021250.90926242 -0.954166293144226074 0.296077728271484375 0.0303536076098680496 0.0313584581017494202
299.335540771484375 -132.41754150390625 5.18989276885986328 124 1645021251.90925574 -0.947259724140167236 0.317091256380081177 0.0423803701996803284 0.0188697129487991333
303.305816650390625 -135.53961181640625 4.74630165100097656 125 1645021252.90851593 -0.943518936634063721 0.328071326017379761 0.0387225896120071411 0.0253329072147607803
307.48675537109375 -138.65374755859375 4.27952671051025391 126 1645021253.90975571 -0.953045964241027832 0.29911455512046814 0.0384350568056106567 0.0275066681206226349
312.110626220703125 -141.548568725585938 3.80189323425292969 127 1645021254.90961337 -0.96279144287109375 0.265484452247619629 0.0358592420816421509 0.0355627797544002533
316.4429931640625 -144.142120361328125 3.35517072677612305 128 1645021255.81099224 -0.959913730621337891 0.2747364342212677 0.0423256494104862213 0.0359738506376743317
320.50225830078125 -147.270172119140625 2.85883045196533203 129 1645021256.81202412 -0.939465880393981934 0.336323082447052002 0.0474514923989772797 0.0451547876000404358
324.052337646484375 -150.872039794921875 2.35737204551696777 130 1645021258.10955453 -0.917010605335235596 0.39362826943397522 0.040998414158821106 0.0496741309762001038
327.122528076171875 -154.9208984375 1.87896394729614258 131 1645021259.90856314 -0.883092403411865234 0.465187102556228638 0.0405216142535209656 0.0458994470536708832
327.895721435546875 -157.565460205078125 1.59700798988342285 132 1645021261.30748057 -0.775278389453887939 0.62869340181350708 0.0482568442821502686 0.0368679501116275787
327.379150390625 -158.605911254882812 1.47735047340393066 133 1645021261.90747571 -0.627051472663879395 0.775614500045776367 0.0619786307215690613 0.0372460223734378815
326.553802490234375 -159.271560668945312 1.38982903957366943 134 1645021262.40709972 -0.460612475872039795 0.883906245231628418 0.0745123997330665588 0.0315241403877735138
325.565673828125 -159.543365478515625 1.34530913829803467 135 1645021262.90727043 -0.281062513589859009 0.956163108348846436 0.0789599865674972534 0.0228319931775331497
324.50286865234375 -159.437103271484375 1.35674142837524414 136 1645021263.40735483 -0.0869332104921340942 0.992571592330932617 0.0845507755875587463 0.00976538471877574921
323.600860595703125 -159.01019287109375 1.41382718086242676 137 1645021263.80708694 0.100650638341903687 0.990905165672302246 0.0891813188791275024 0.00480984849855303764
322.568267822265625 -158.034133911132812 1.57795262336730957 138 1645021264.40526056 0.277974367141723633 0.957285702228546143 0.0736197084188461304 -0.0302398018538951874
320.69281005859375 -155.58636474609375 1.9436640739440918 139 1645021265.60623097 0.439184248447418213 0.896277189254760742 0.0450814031064510345 -0.0420952141284942627
317.833160400390625 -150.981307983398438 2.56190872192382812 140 1645021267.60626149 0.485511332750320435 0.872762143611907959 0.0334343202412128448 -0.0380413345992565155
314.096954345703125 -146.893539428710938 3.19335365295410156 141 1645021269.6072793 0.375845491886138916 0.92463916540145874 0.0472306720912456512 -0.0393936969339847565
309.886016845703125 -143.259109497070312 3.77480363845825195 142 1645021271.60806489 0.322144001722335815 0.94529426097869873 0.0256885197013616562 -0.0445209145545959473
304.643096923828125 -140.293838500976562 4.29031848907470703 143 1645021273.60842109 0.240359708666801453 0.969587922096252441 0.0310787428170442581 -0.0340668708086013794
298.6773681640625 -137.696807861328125 4.82674264907836914 144 1645021275.6108017 0.198756784200668335 0.978854119777679443 0.0319338850677013397 -0.0363394543528556824
294.049591064453125 -135.386688232421875 5.21838665008544922 145 1645021277.11010361 0.249796509742736816 0.967105090618133545 0.035330895334482193 -0.0325765050947666168
289.546630859375 -133.000808715820312 5.53152275085449219 146 1645021278.51130462 0.232881918549537659 0.971959471702575684 0.0252913162112236023 -0.0205229595303535461
285.036590576171875 -130.626480102539062 5.72669363021850586 147 1645021279.81203675 0.276450276374816895 0.960637986660003662 0.0180389396846294403 -0.0206031706184148788
280.855682373046875 -127.623893737792969 5.92092323303222656 148 1645021281.01079965 0.309998184442520142 0.950402438640594482 0.00917430967092514038 -0.0234979242086410522
276.617034912109375 -124.779632568359375 6.03134346008300781 149 1645021282.10997915 0.274033159017562866 0.961580574512481689 -0.0002534355444367975 -0.0163862388581037521
271.86102294921875 -122.060379028320312 6.09709644317626953 150 1645021283.21199656 0.261952370405197144 0.964978873729705811 -0.00645469408482313156 -0.0124522354453802109
267.357421875 -119.281364440917969 6.13429546356201172 151 1645021284.21238613 0.281671494245529175 0.959417164325714111 -0.00276537635363638401 -0.0131215890869498253
258.466583251953125 -112.037574768066406 6.22850465774536133 152 1645021286.21299529 0.372200429439544678 0.928026318550109863 -0.00890211202204227448 -0.0124380728229880333
249.14166259765625 -102.813468933105469 6.25416231155395508 153 1645021288.31352568 0.398703485727310181 0.917062938213348389 -0.00367565522901713848 -0.00419420702382922173
243.037506103515625 -92.7584075927734375 6.24405574798583984 154 1645021290.10979843 0.558910012245178223 0.82919156551361084 0.00697295879945158958 -0.00350903673097491264
238.639389038085938 -79.3961944580078125 6.31317758560180664 155 1645021292.21102405 0.597174525260925293 0.802036106586456299 -0.00578787364065647125 -0.00933444499969482422
235.611282348632812 -66.2907943725585938 6.34026575088500977 156 1645021294.21354747 0.659131348133087158 0.752017498016357422 0.00294203148223459721 0.00262746517546474934
235.416519165039062 -56.9303398132324219 6.40312623977661133 157 1645021295.61275554 0.69268345832824707 0.721054196357727051 -0.00649336492642760277 -0.015108100138604641
233.480209350585938 -49.8186683654785156 6.45679569244384766 158 1645021296.81506348 0.517129004001617432 0.855439841747283936 -0.0282394271343946457 -0.00165482284501194954
231.063827514648438 -47.5496368408203125 6.50471830368041992 159 1645021297.41338897 0.346501827239990234 0.938032090663909912 0.00439097313210368156 -0.00360469217412173748
220.876068115234375 -42.0511665344238281 6.52159357070922852 160 1645021299.41456866 0.237391337752342224 0.971407949924468994 0.00164800253696739674 -0.00303161703050136566
209.221954345703125 -35.6433258056640625 6.50326871871948242 161 1645021301.51300383 0.263407409191131592 0.964681684970855713 0.00239609554409980774 -3.21546467603184283e-05
198.254806518554688 -28.1649131774902344 6.52629470825195312 162 1645021303.5139277 0.310286462306976318 0.950503766536712646 0.0140970395877957344 -0.00813387054949998856
187.687759399414062 -19.1575431823730469 6.76346206665039062 163 1645021305.60911512 0.379811197519302368 0.924985885620117188 0.0118682617321610451 -0.00193558807950466871
178.046539306640625 -9.13427639007568359 6.96359491348266602 164 1645021307.70877171 0.376782685518264771 0.9261055588722229 0.00680456077679991722 -0.0178062766790390015
168.795822143554688 -0.0529307015240192413 7.39127016067504883 165 1645021309.70972729 0.39608454704284668 0.917823970317840576 0.0183274708688259125 -0.01950090192258358
159.941314697265625 8.63197422027587891 7.86826181411743164 166 1645021311.71208596 0.376769125461578369 0.925798535346984863 0.0255211573094129562 -0.017053212970495224
151.190383911132812 17.5313739776611328 8.36017131805419922 167 1645021313.80908298 0.396323710680007935 0.917822480201721191 0.0128767015412449837 -0.0190678667277097702
143.1553955078125 25.6148567199707031 8.487030029296875 168 1645021315.80988812 0.373201906681060791 0.927537381649017334 0.000802241498604416847 0.0198529176414012909
139.669357299804688 27.5015716552734375 8.33416938781738281 169 1645021316.60996127 0.204686358571052551 0.978194653987884521 0.00739614153280854225 0.0344087369740009308
136.8935546875 27.7037086486816406 8.22909069061279297 170 1645021317.21115613 0.0263223703950643539 0.99947822093963623 0.00388202210888266563 0.0183135587722063065
133.432632446289062 26.7918510437011719 7.97043323516845703 171 1645021317.90912127 -0.154613971710205078 0.987366557121276855 0.00349878170527517796 0.0344908125698566437
129.643798828125 24.1011180877685547 7.62641048431396484 172 1645021318.70938492 -0.342758923768997192 0.938589572906494141 0.00772476755082607269 0.0388111993670463562
119.846397399902344 13.539942741394043 6.54410076141357422 173 1645021320.80849886 -0.408987194299697876 0.91165471076965332 0.0210018809884786606 0.0342651419341564178
114.718894958496094 8.13981533050537109 6.01051950454711914 174 1645021321.80932927 -0.385172903537750244 0.922060787677764893 0.0224009957164525986 0.0307242553681135178
110.983268737792969 4.35488176345825195 5.610015869140625 175 1645021322.50981355 -0.380525738000869751 0.924209475517272949 0.0239522755146026611 0.0215233061462640762
104.9522705078125 -1.72607195377349854 4.97513198852539062 176 1645021323.61269665 -0.379469573497772217 0.924281418323516846 0.0277936570346355438 0.0305648259818553925
101.125106811523438 -5.56954336166381836 4.62523174285888672 177 1645021324.31151915 -0.377060621976852417 0.925677120685577393 0.0224853642284870148 0.0210138987749814987
97.2445449829101562 -9.41579246520996094 4.30317211151123047 178 1645021325.01000953 -0.376796901226043701 0.925823032855987549 0.0171263981610536575 0.0241345390677452087
93.3899154663085938 -13.2377891540527344 4.01120710372924805 179 1645021325.71027255 -0.378672569990158081 0.925177276134490967 0.00953006278723478317 0.0237328372895717621
89.57769775390625 -17.0680408477783203 3.7150871753692627 180 1645021326.41041517 -0.382086604833602905 0.923778295516967773 0.00703751994296908379 0.0243706218898296356
85.7962493896484375 -20.9160652160644531 3.40627503395080566 181 1645021327.11029172 -0.385711312294006348 0.922130942344665527 0.0100181261077523232 0.0283012539148330688
82.0382003784179688 -24.8240909576416016 3.02767634391784668 182 1645021327.81015968 -0.39185863733291626 0.919363260269165039 0.018803691491484642 0.0294010154902935028
78.3264999389648438 -28.6878337860107422 2.78864812850952148 183 1645021328.51028872 -0.393594145774841309 0.919156432151794434 0.0122321266680955887 0.00924715492874383926
74.6099624633789062 -32.5444793701171875 2.59779000282287598 184 1645021329.21216989 -0.390608787536621094 0.920356512069702148 0.0160643141716718674 0.010517096146941185
70.9324493408203125 -36.2722206115722656 2.42348217964172363 185 1645021329.91098142 -0.378731071949005127 0.925338983535766602 0.0142126725986599922 0.0104174017906188965
67.2834320068359375 -39.8894195556640625 2.28241205215454102 186 1645021330.60965776 -0.368817776441574097 0.929236650466918945 0.0221925321966409683 -0.000473220366984605789
63.421142578125 -43.1912918090820312 2.21814942359924316 187 1645021331.31047583 -0.330109655857086182 0.943812847137451172 0.0153695894405245781 -0.00295071746222674847
58.8722343444824219 -46.5332527160644531 2.22400784492492676 188 1645021332.11061883 -0.305265486240386963 0.952263176441192627 -0.00232782308012247086 -0.0015339850215241313
54.2855453491210938 -49.5935859680175781 2.26465725898742676 189 1645021332.90986061 -0.276602327823638916 0.960974931716918945 -0.0029716223943978548 -0.00308560533449053764
49.5895233154296875 -52.3586273193359375 2.32941198348999023 190 1645021333.71119809 -0.253038078546524048 0.967412948608398438 -0.00405544601380825043 -0.00821185950189828873
44.8289909362792969 -54.7929458618164062 2.45647907257080078 191 1645021334.51245546 -0.222441986203193665 0.974803805351257324 -0.00777481915429234505 -0.0147207267582416534
39.9740867614746094 -56.8156585693359375 2.60366392135620117 192 1645021335.31147194 -0.169032007455825806 0.985468506813049316 -0.00295647652819752693 -0.0164685547351837158
34.9411163330078125 -58.0832328796386719 2.81640338897705078 193 1645021336.11167336 -0.10333898663520813 0.994386911392211914 -0.00458210287615656853 -0.022241814061999321
29.9426040649414062 -58.8277359008789062 3.04872298240661621 194 1645021336.91260386 -0.0759460777044296265 0.996634900569915771 -0.0115579795092344284 -0.0285913627594709396
24.4920845031738281 -59.5964546203613281 3.33458209037780762 195 1645021337.81295347 -0.0586103722453117371 0.997808933258056641 -0.00791104231029748917 -0.0296585056930780411
19.22784423828125 -60.0588188171386719 3.64496922492980957 196 1645021338.71241808 -0.0314813591539859772 0.998837471008300781 -0.00415477901697158813 -0.0362679101526737213
14.1829833984375 -60.2034187316894531 3.98612833023071289 197 1645021339.61232662 -0.00283180316910147667 0.999369621276855469 -0.00227843783795833588 -0.0353143699467182159
8.84606456756591797 -59.9738616943359375 4.33276557922363281 198 1645021340.61539674 0.0323570184409618378 0.998939752578735352 -0.00393439969047904015 -0.0325107835233211517
3.76449322700500488 -59.4432525634765625 4.65732383728027344 199 1645021341.61436582 0.0583268441259860992 0.997740447521209717 -0.00731795048341155052 -0.0325336381793022156
-1.60216057300567627 -58.948699951171875 5.0189361572265625 200 1645021342.71476364 0.0394305028021335602 0.998561203479766846 -0.00601121969521045685 -0.0358420126140117645
-6.77566051483154297 -58.7113151550292969 5.38145923614501953 201 1645021343.81314301 0.0237029176205396652 0.999035835266113281 0.00059754418907687068 -0.0369488410651683807
-11.7947053909301758 -58.5217323303222656 5.72159767150878906 202 1645021344.91600347 0.0226235836744308472 0.99900519847869873 0.00262817158363759518 -0.0383385643362998962
-17.1062507629394531 -58.2766380310058594 6.06302118301391602 203 1645021346.11444283 0.0234059840440750122 0.999166011810302734 -0.00372814363799989223 -0.0332505032420158386
-22.2987575531005859 -58.0548210144042969 6.38068914413452148 204 1645021347.31590772 0.0249770097434520721 0.999065816402435303 -0.00549245253205299377 -0.0348346494138240814
-27.4177150726318359 -57.8151206970214844 6.70533323287963867 205 1645021348.51579356 0.0218391437083482742 0.999215662479400635 -0.00666084000840783119 -0.0323536843061447144
-32.4996986389160156 -57.6812095642089844 6.95648574829101562 206 1645021349.71459889 0.0138027956709265709 0.999535977840423584 0.00377775100059807301 -0.0268900096416473389
-37.6400146484375 -57.6366691589355469 7.17609691619873047 207 1645021351.11574388 -0.00114797044079750776 0.999757230281829834 -0.012281171977519989 -0.0182574987411499023
-42.7179756164550781 -57.5492591857910156 7.30426168441772461 208 1645021352.91644716 0.0345290862023830414 0.999336123466491699 0.0095150405541062355 -0.00666889222338795662
-45.0419654846191406 -56.4174423217773438 7.37384557723999023 209 1645021353.91557598 0.270407825708389282 0.962643086910247803 0.0115408832207322121 -0.00804047100245952606
-45.6370697021484375 -55.1359100341796875 7.39925146102905273 210 1645021354.41671467 0.47038578987121582 0.882416427135467529 0.00875986739993095398 0.0013220994733273983
-45.5194282531738281 -53.9069900512695312 7.43335819244384766 211 1645021354.91557717 0.645377039909362793 0.763781845569610596 -0.00285019329749047756 -0.0108447158709168434
-44.9690132141113281 -52.8375091552734375 7.40420866012573242 212 1645021355.41474748 0.782039523124694824 0.623063445091247559 -0.0143518112599849701 0.000289345800410956144
-44.1586151123046875 -52.1741104125976562 7.38699007034301758 213 1645021355.8147409 0.885795354843139648 0.463832974433898926 -0.0149561595171689987 -0.00135081424377858639
-43.1534233093261719 -51.8432807922363281 7.37918853759765625 214 1645021356.21623397 0.953119516372680664 0.302322328090667725 -0.0104898950085043907 -0.00736926775425672531
-41.6296539306640625 -51.7622871398925781 7.33110570907592773 215 1645021356.71648645 0.992933392524719238 0.114933758974075317 -0.0188915189355611801 -0.0227285735309123993
-37.6315536499023438 -52.1205520629882812 7.174835205078125 216 1645021357.81927705 0.997754096984863281 -0.0658059567213058472 -0.0124599374830722809 0.00102254655212163925
-29.9029483795166016 -53.2264556884765625 6.8389582633972168 217 1645021359.41776848 0.997811436653137207 -0.0597648881375789642 -0.0264695845544338226 -0.00998989120125770569
-16.5762786865234375 -54.1925849914550781 5.99109840393066406 218 1645021361.51873779 0.9989205002784729 -0.0325601734220981598 -0.0322250537574291229 0.00769465602934360504
-1.28065478801727295 -55.0292282104492188 4.97578048706054688 219 1645021363.61548781 0.998492300510406494 -0.0411961525678634644 -0.0348362959921360016 0.0101205278187990189
14.7297897338867188 -55.9499778747558594 3.91163063049316406 220 1645021365.7132709 0.999184668064117432 -0.00350725860334932804 -0.0394641496241092682 0.00776463095098733902
31.0131931304931641 -54.7715721130371094 2.89764833450317383 221 1645021367.81238031 0.996203780174255371 0.08423566073179245 -0.0206092223525047302 0.0075909886509180069
45.4248199462890625 -49.8433647155761719 2.32182407379150391 222 1645021369.8162086 0.972412109375 0.232820183038711548 -0.0135951731353998184 0.00496805645525455475
49.8418083190917969 -47.2287254333496094 2.22649073600769043 223 1645021370.51565814 0.96387946605682373 0.266264945268630981 0.00100532907526940107 0.00619469676166772842
54.0768013000488281 -44.4416427612304688 2.16332197189331055 224 1645021371.21537471 0.957775413990020752 0.287326216697692871 -0.00688105542212724686 0.00790657941251993179
58.6294784545898438 -41.1449012756347656 2.17392826080322266 225 1645021372.01428914 0.949223935604095459 0.31455308198928833 0.000660463934764266014 0.00545862643048167229
65.7910079956054688 -34.9470291137695312 2.40463423728942871 226 1645021373.41407561 0.928924798965454102 0.369611352682113647 0.0216453578323125839 -0.0042041754350066185
69.4049224853515625 -31.1338329315185547 2.59861636161804199 227 1645021374.21438885 0.911519229412078857 0.410597085952758789 0.019908582791686058 -0.0120965149253606796
72.6949081420898438 -27.114654541015625 2.74874305725097656 228 1645021375.01303458 0.90069955587387085 0.434229284524917603 0.0122355129569768906 -0.00596337439492344856
75.9222488403320312 -23.2113304138183594 2.90714311599731445 229 1645021375.81302834 0.90997081995010376 0.414036095142364502 0.0224502943456172943 -0.00481468858197331429
78.7049484252929688 -20.3034305572509766 3.12690448760986328 230 1645021376.51421762 0.921906173229217529 0.38628348708152771 0.0275508090853691101 -0.0107238953933119774
80.1141586303710938 -18.9886856079101562 3.21828174591064453 231 1645021376.91239262 0.930651664733886719 0.365622848272323608 0.0123664457350969315 -0.00737885944545269012
80.6909866333007812 -18.460906982421875 3.25740933418273926 232 1645021377.11458278 0.931772887706756592 0.362741053104400635 0.0127231432124972343 -0.00750964786857366562
81.1392974853515625 -18.0317192077636719 3.28905320167541504 233 1645021377.31343675 0.930587112903594971 0.365796089172363281 0.0125836161896586418 -0.00651680584996938705
81.8200302124023438 -17.3535404205322266 3.35385823249816895 234 1645021379.31364417 0.926695585250854492 0.374886065721511841 0.0235513076186180115 -0.0118761863559484482
