# .PCD v0.7 - Point Cloud Data file format
VERSION 0.7
FIELDS x y z intensity t qx qy qz qw
SIZE 4 4 4 4 8 4 4 4 4
TYPE F F F F F F F F F
COUNT 1 1 1 1 1 1 1 1 1
WIDTH 236
HEIGHT 1
VIEWPOINT 0 0 0 1 0 0 0
POINTS 236
DATA ascii
81.451812744140625 -18.2990741729736328 3.30711483955383301 0 1645021150.49882555 0.9996224045753479 2.96422258543316275e-05 0.0274573750793933868 -0.00107916479464620352
81.4505386352539062 -18.3023567199707031 3.30676555633544922 1 1645021150.59845424 0.999620676040649414 0.000169894090504385531 0.0275202877819538116 -0.00107742089312523603
81.4472808837890625 -18.3052825927734375 3.30630946159362793 2 1645021150.69852805 0.999622046947479248 0.000417381786974146962 0.0274590440094470978 -0.00128195423167198896
81.4596939086914062 -18.2936897277832031 3.30615830421447754 3 1645021150.79817271 0.999617099761962891 -3.076404937019106e-06 0.0276502538472414017 -0.00104149593971669674
81.4565658569335938 -18.3011417388916016 3.3057091236114502 4 1645021150.89834285 0.999619543552398682 -0.000450341874966397882 0.0275572389364242554 -0.00110163551289588213
81.4566802978515625 -18.2985877990722656 3.30704236030578613 5 1645021150.99806976 0.99961698055267334 4.03378689952660352e-05 0.0276414863765239716 -0.00135018525179475546
81.4542465209960938 -18.3027858734130859 3.30680274963378906 6 1645021151.0981636 0.999620437622070312 0.000314155797241255641 0.0275173857808113098 -0.00127208326011896133
81.4593963623046875 -18.2976512908935547 3.30593991279602051 7 1645021151.19794083 0.999606609344482422 0.00010866429511224851 0.028016386553645134 -0.0012909487122669816
81.4537734985351562 -18.3010311126708984 3.30619525909423828 8 1645021151.30060625 0.999616861343383789 -0.000126739032566547394 0.0276424586772918701 -0.00142169778700917959
81.4531097412109375 -18.3029041290283203 3.30516982078552246 9 1645021151.40154529 0.9996146559715271 -0.000152296939631924033 0.0277267508208751678 -0.00131365307606756687
81.4525680541992188 -18.3023014068603516 3.30469155311584473 10 1645021151.4976294 0.999634385108947754 0.000326591834891587496 0.0270106028765439987 -0.0011771621648222208
81.4477691650390625 -18.3074798583984375 3.30422472953796387 11 1645021151.59892464 0.999602615833282471 -0.000318617909215390682 0.0281495600938796997 -0.00143892376217991114
81.4464797973632812 -18.3114833831787109 3.3050076961517334 12 1645021151.69824576 0.999628901481628418 0.000539421860594302416 0.0271884575486183167 -0.0015990471001714468
81.445281982421875 -18.3176040649414062 3.30537295341491699 13 1645021151.79762888 0.999612033367156982 -0.000462518248241394758 0.0277841128408908844 -0.0018991854740306735
81.4386367797851562 -18.3258419036865234 3.30389404296875 14 1645021151.89812589 0.999635577201843262 0.000937277683988213539 0.0268946439027786255 -0.00211107009090483189
81.427032470703125 -18.3354663848876953 3.30546021461486816 15 1645021151.99962473 0.999603450298309326 -0.000324270746205002069 0.0281090978533029556 -0.00164020759984850883
81.4239044189453125 -18.3350868225097656 3.30705094337463379 16 1645021152.10217714 0.999580323696136475 0.000890904804691672325 0.0288740750402212143 -0.00216940976679325104
81.4325103759765625 -18.3352699279785156 3.30999541282653809 17 1645021152.20195341 0.999481499195098877 -0.000629316084086894989 0.0321054011583328247 -0.00235134921967983246
81.44720458984375 -18.3246231079101562 3.31764793395996094 18 1645021152.30083609 0.999191105365753174 -0.00120085990056395531 0.0400004535913467407 -0.00395655632019042969
81.4869613647460938 -18.2845420837402344 3.32305335998535156 19 1645021152.40009785 0.99931490421295166 0.000203250878257676959 0.0369166061282157898 -0.00262674386613070965
81.54156494140625 -18.2295722961425781 3.32687973976135254 20 1645021152.49884653 0.999345302581787109 -0.00218951702117919922 0.0360817499458789825 -0.00151796254795044661
83.7915191650390625 -16.1672496795654297 3.50418210029602051 21 1645021154.09967065 0.932717323303222656 0.359047442674636841 0.0320080220699310303 -0.00993934273719787598
87.677154541015625 -12.5029144287109375 3.79001617431640625 22 1645021155.79936171 0.928203284740447998 0.370954722166061401 0.027872106060385704 -0.00737634813413023949
91.4567489624023438 -8.79005622863769531 4.10197114944458008 23 1645021157.19928241 0.926002383232116699 0.376257032155990601 0.0304784942418336868 -0.00461081694811582565
95.2479019165039062 -4.99937343597412109 4.42703342437744141 24 1645021158.50272059 0.924288094043731689 0.380340456962585449 0.0310944393277168274 -0.00811153370887041092
98.8625106811523438 -1.2758641242980957 4.74723148345947266 25 1645021159.70150161 0.921598970890045166 0.38670387864112854 0.0332446470856666565 -0.00319999270141124725
102.531883239746094 2.56659364700317383 5.09615945816040039 26 1645021160.90175033 0.918959259986877441 0.392710626125335693 0.0358005352318286896 -0.00324848806485533714
106.183021545410156 6.48839902877807617 5.47597932815551758 27 1645021162.1022644 0.917799115180969238 0.395227164030075073 0.0377129241824150085 -0.00424412451684474945
109.968704223632812 10.2817888259887695 5.86528921127319336 28 1645021163.30295348 0.927769780158996582 0.371308118104934692 0.0367224626243114471 -0.00499588297680020332
113.883277893066406 13.9069070816040039 6.2537388801574707 29 1645021164.50066471 0.932442784309387207 0.359453856945037842 0.0363851599395275116 -0.00441506411880254745
117.847190856933594 17.419281005859375 6.65454816818237305 30 1645021165.70192838 0.934836149215698242 0.352894753217697144 0.0377657189965248108 -0.0109753590077161789
121.562202453613281 21.0739364624023438 7.04823446273803711 31 1645021166.90150428 0.919472873210906982 0.391153842210769653 0.0374581627547740936 -0.0128539223223924637
124.932395935058594 24.9911441802978516 7.42288780212402344 32 1645021168.09866858 0.906723439693450928 0.419878184795379639 0.0392918549478054047 -0.00332958833314478397
128.224807739257812 28.9790763854980469 7.78541374206542969 33 1645021169.29856849 0.904291391372680664 0.425027757883071899 0.0396970473229885101 -0.00571662839502096176
130.502517700195312 33.083740234375 8.09543228149414062 34 1645021170.3987174 0.812686502933502197 0.581779599189758301 0.0302326232194900513 -0.0126150473952293396
130.375640869140625 35.2848281860351562 8.18703556060791016 35 1645021170.89991307 0.686762213706970215 0.726526558399200439 0.0221489109098911285 -0.00511738425120711327
129.394149780273438 37.2802162170410156 8.23440742492675781 36 1645021171.40012884 0.542509973049163818 0.839660763740539551 0.025264982134103775 0.00379557558335363865
125.716323852539062 41.2973976135253906 7.89712047576904297 37 1645021172.49969029 0.37908443808555603 0.924274027347564697 0.0211653243750333786 0.0395537503063678741
121.867294311523438 44.8801651000976562 7.71270132064819336 38 1645021173.40307641 0.367953032255172729 0.92966771125793457 0.0133381001651287079 0.0122728170827031136
118.289787292480469 48.4717788696289062 7.70757150650024414 39 1645021174.20322776 0.394056737422943115 0.91898047924041748 0.013505963608622551 0.00342894904315471649
114.611541748046875 52.2357368469238281 7.70090150833129883 40 1645021174.9995513 0.388362675905227661 0.921471357345581055 0.00796911958605051041 0.0012326663127169013
111.011650085449219 55.8602752685546875 7.65114688873291016 41 1645021175.90215111 0.403242826461791992 0.914000809192657471 0.00587001070380210876 0.0443088822066783905
107.987564086914062 60.3053817749023438 7.7130894660949707 42 1645021177.10393977 0.546873986721038818 0.836835801601409912 0.024304492399096489 0.00662854081019759178
107.672126770019531 65.3960342407226562 7.67911911010742188 43 1645021178.10073948 0.711682796478271484 0.702499270439147949 -0.000427205523010343313 -0.00148432806599885225
108.764991760253906 70.8430404663085938 7.70635795593261719 44 1645021179.10194182 0.785650372505187988 0.618534505367279053 -0.00192340055946260691 -0.0128377005457878113
109.668853759765625 76.0215606689453125 7.75116729736328125 45 1645021180.00307798 0.731133639812469482 0.681723892688751221 -0.0160443037748336792 -0.0209438949823379517
108.561019897460938 81.4140396118164062 7.67367029190063477 46 1645021180.9007833 0.572370409965515137 0.819579541683197021 -0.0260320231318473816 0.0019638680387288332
105.782791137695312 85.638885498046875 7.63965988159179688 47 1645021181.70179915 0.438235491514205933 0.898833751678466797 -0.00683216238394379616 -0.00092843291349709034
102.084098815917969 89.2734527587890625 7.63596963882446289 48 1645021182.50215626 0.355461031198501587 0.934632718563079834 0.00600682804360985756 -0.00854998268187046051
98.112060546875 92.8897323608398438 7.62440919876098633 49 1645021183.30141902 0.369942784309387207 0.929002761840820312 0.00827697012573480606 0.00526626966893672943
94.2418975830078125 96.6656112670898438 7.62255334854125977 50 1645021184.10114789 0.383689552545547485 0.923455119132995605 0.00294775213114917278 0.00207322370260953903
90.3570556640625 100.46624755859375 7.64758586883544922 51 1645021184.90105367 0.37254217267036438 0.928006291389465332 0.00315455254167318344 -0.00258079404011368752
86.3428192138671875 104.146942138671875 7.65939712524414062 52 1645021185.70164204 0.35833093523979187 0.933580160140991211 -0.00124764873180538416 -0.00504632946103811264
82.2522659301757812 107.779151916503906 7.64884090423583984 53 1645021186.50142908 0.363064706325531006 0.93175429105758667 0.000770158250816166401 0.00416664546355605125
78.2571487426757812 111.496185302734375 7.65990781784057617 54 1645021187.30267739 0.380479902029037476 0.924744606018066406 0.00131193629931658506 -0.00898843258619308472
74.4097366333007812 115.285125732421875 7.65676975250244141 55 1645021188.10212708 0.386831879615783691 0.92212677001953125 0.00351306446827948093 0.00556667707860469818
70.5324172973632812 118.488990783691406 7.67452573776245117 56 1645021189.00399995 0.293272405862808228 0.955912768840789795 -0.0149011621251702309 0.000104841790744103491
68.5070114135742188 119.064102172851562 7.71658134460449219 57 1645021189.50172615 0.118277773261070251 0.992374420166015625 -0.0346831493079662323 0.000642570550553500652
66.8230209350585938 118.637397766113281 7.71813297271728516 58 1645021190.00175118 -0.0837906673550605774 0.996053516864776611 -0.0271562915295362473 0.0109118428081274033
64.0126419067382812 117.011207580566406 7.77516698837280273 59 1645021191.00219512 -0.266019344329833984 0.963394582271575928 -0.0330057777464389801 0.0039062141440808773
62.2507858276367188 114.93975830078125 7.79951810836791992 60 1645021191.70337033 -0.431775301694869995 0.901353001594543457 -0.0331944264471530914 0.00556077715009450912
61.5960235595703125 112.966094970703125 7.84256982803344727 61 1645021192.20174026 -0.588359236717224121 0.807526290416717529 -0.0381040610373020172 0.0168169327080249786
61.8923072814941406 110.814750671386719 7.86010217666625977 62 1645021192.70196486 -0.75664973258972168 0.652857840061187744 -0.0198702476918697357 0.0293770693242549896
63.252838134765625 108.679786682128906 7.86600828170776367 63 1645021193.30332541 -0.862981736660003662 0.505231618881225586 0.0012683189706876874 0.00138117605820298195
66.7555694580078125 105.058677673339844 7.87464475631713867 64 1645021194.40679383 -0.926963090896606445 0.375061184167861938 0.00140044582076370716 -0.00816147774457931519
70.73443603515625 101.841102600097656 7.88512420654296875 65 1645021195.40461707 -0.938302993774414062 0.345280468463897705 0.00436716014519333839 -0.0187035258859395981
74.6916732788085938 97.9456329345703125 7.89341926574707031 66 1645021196.40284133 -0.912783563137054443 0.408391416072845459 -0.00647974805906414986 -0.000769276288338005543
78.3845138549804688 94.1134185791015625 7.88212394714355469 67 1645021197.30588317 -0.913751482963562012 0.406164646148681641 0.00408083479851484299 -0.00847917050123214722
82.2625045776367188 90.0953445434570312 7.88055896759033203 68 1645021198.20497918 -0.920260787010192871 0.391150802373886108 0.00722433580085635185 -0.00830669328570365906
85.8744659423828125 86.4434585571289062 7.8614659309387207 69 1645021199.00381231 -0.923933506011962891 0.382393836975097656 -0.00223606289364397526 -0.0108106369152665138
89.6142807006835938 82.60711669921875 7.81544828414916992 70 1645021199.80532551 -0.919818699359893799 0.392197549343109131 0.0106964129954576492 0.000470736675197258592
93.465423583984375 78.8040542602539062 7.77352190017700195 71 1645021200.60636806 -0.917973816394805908 0.39645916223526001 0.00390050606802105904 -0.0113565390929579735
97.3939132690429688 74.9184646606445312 7.69282245635986328 72 1645021201.40681601 -0.924466609954833984 0.381124883890151978 0.00995311513543128967 -0.00250393501482903957
101.136672973632812 70.9452743530273438 7.72675943374633789 73 1645021202.20689201 -0.916896343231201172 0.399076282978057861 -0.00625148694962263107 0.000342279934557154775
110.714645385742188 61.1026115417480469 7.677947998046875 74 1645021204.20830798 -0.926112771034240723 0.377103328704833984 0.00888457894325256348 -0.00540540413931012154
118.249824523925781 53.4892311096191406 7.6932520866394043 75 1645021206.20833659 -0.918361246585845947 0.395518094301223755 0.00052899279398843646 -0.0133344074711203575
125.4368896484375 46.194580078125 7.74269723892211914 76 1645021208.20934296 -0.922356188297271729 0.385973721742630005 -0.0082251550629734993 -0.0146877262741327286
132.884979248046875 38.65179443359375 8.51460456848144531 77 1645021210.2093749 -0.931856513023376465 0.362050920724868774 -0.0196473132818937302 0.0132890203967690468
136.470443725585938 34.9047889709472656 8.56775379180908203 78 1645021211.20912933 -0.923824608325958252 0.380734920501708984 -0.020063154399394989 0.0344456955790519714
140.096343994140625 31.4514865875244141 8.51595973968505859 79 1645021212.10851359 -0.930506408214569092 0.364000529050827026 -0.00326581625267863274 0.0406291596591472626
143.83062744140625 27.8115558624267578 8.59407520294189453 80 1645021213.01163912 -0.923062026500701904 0.383252114057540894 -0.0166167430579662323 0.0282518807798624039
147.641952514648438 23.9455204010009766 8.61158847808837891 81 1645021213.90958905 -0.918520748615264893 0.395239531993865967 -0.00318802963010966778 0.00975444819778203964
151.224777221679688 20.3015575408935547 8.47369003295898438 82 1645021214.70705318 -0.926779270172119141 0.374772816896438599 0.0128172487020492554 0.0214764215052127838
155.216079711914062 16.7456550598144531 8.28096103668212891 83 1645021215.50774741 -0.935859799385070801 0.351495563983917236 0.00965610798448324203 0.0228932015597820282
159.36163330078125 12.9682464599609375 8.05201053619384766 84 1645021216.3109982 -0.931053459644317627 0.36358112096786499 0.0144557999446988106 0.0271891318261623383
163.622833251953125 9.21509075164794922 7.8469080924987793 85 1645021217.1128993 -0.940624415874481201 0.338232487440109253 0.0096806008368730545 0.0270323939621448517
167.878097534179688 5.44811105728149414 7.65989303588867188 86 1645021217.91104054 -0.92394334077835083 0.382202237844467163 -0.00116815266665071249 0.0157739724963903427
171.937744140625 1.38405859470367432 7.45823240280151367 87 1645021218.71235323 -0.924209713935852051 0.380487293004989624 0.00979253463447093964 0.03114333376288414
175.510696411132812 -2.14752364158630371 7.2818293571472168 88 1645021219.41299987 -0.925553977489471436 0.377586662769317627 0.00465558096766471863 0.0275031793862581253
179.079269409179688 -5.65257978439331055 7.12453699111938477 89 1645021220.11070037 -0.924187719821929932 0.380832791328430176 -0.00133381644263863564 0.0290111713111400604
182.677841186523438 -9.12938976287841797 6.98355770111083984 90 1645021220.8109684 -0.925783753395080566 0.377283990383148193 -0.00608587218448519707 0.0233269389718770981
186.721450805664062 -13.1157445907592773 6.886871337890625 91 1645021221.60684919 -0.923723697662353516 0.382174462080001831 -0.00405159126967191696 0.025706268846988678
190.710037231445312 -17.1002388000488281 6.87172508239746094 92 1645021222.41061997 -0.923685610294342041 0.382605195045471191 -0.0111470706760883331 0.017144886776804924
194.741256713867188 -20.9556846618652344 6.78474760055541992 93 1645021223.20839477 -0.931623876094818115 0.360984772443771362 -0.00175958359614014626 0.0419985130429267883
199.361831665039062 -24.1766891479492188 6.69102239608764648 94 1645021224.0105381 -0.955193817615509033 0.295353204011917114 0.00445795571431517601 0.0187459494918584824
203.869171142578125 -27.4484977722167969 6.62124395370483398 95 1645021224.80813146 -0.949386239051818848 0.313381582498550415 -0.00559844309464097023 0.0206497069448232651
208.306533813476562 -30.7539482116699219 6.61377859115600586 96 1645021225.60394621 -0.94925224781036377 0.313551604747772217 -0.0121283521875739098 0.0214108917862176895
212.950775146484375 -33.760223388671875 6.63411855697631836 97 1645021226.40611243 -0.963301420211791992 0.266497641801834106 -0.013434557244181633 0.0291367322206497192
217.826797485351562 -36.2970657348632812 6.62564563751220703 98 1645021227.2045064 -0.974519550800323486 0.222493156790733337 -0.00396676594391465187 0.0281559024006128311
222.858200073242188 -38.4637031555175781 6.63347530364990234 99 1645021228.00694442 -0.979590535163879395 0.200304552912712097 -0.0017077417578548193 0.0166598595678806305
227.848541259765625 -40.6199836730957031 6.63624668121337891 100 1645021228.80522919 -0.979215502738952637 0.202067732810974121 -0.00335698830895125866 0.0171584952622652054
232.400344848632812 -42.7516250610351562 6.62735366821289062 101 1645021229.60840917 -0.974001705646514893 0.22604776918888092 0.00414800923317670822 0.0143474992364645004
236.693145751953125 -46.1407051086425781 6.59627723693847656 102 1645021230.60748339 -0.916501820087432861 0.399778604507446289 0.0137456580996513367 0.00353694870136678219
238.910842895507812 -50.510986328125 6.4965362548828125 103 1645021231.60699439 -0.831531286239624023 0.554616808891296387 0.00714686047285795212 0.0300808046013116837
239.936798095703125 -55.8602485656738281 6.40239715576171875 104 1645021232.70591378 -0.741055786609649658 0.671362936496734619 0.00871481467038393021 0.00567483203485608101
239.92095947265625 -60.9142646789550781 6.31625890731811523 105 1645021233.60433483 -0.691271305084228516 0.722526073455810547 0.00712537206709384918 -0.00702554034069180489
239.654083251953125 -66.3932647705078125 6.28003549575805664 106 1645021234.50438881 -0.694967031478881836 0.718855142593383789 0.0119272544980049133 0.0112182879820466042
240.018402099609375 -71.4046401977539062 6.28916740417480469 107 1645021235.30653524 -0.745051145553588867 0.667004644870758057 -0.000787837838288396597 -0.00172488437965512276
240.996322631835938 -76.52532958984375 6.26537322998046875 108 1645021236.10501266 -0.776502847671508789 0.630095243453979492 0.00389473768882453442 -0.0028593926690518856
242.427215576171875 -81.6812896728515625 6.24490737915039062 109 1645021236.90547991 -0.79669111967086792 0.604304134845733643 0.00381332216784358025 -0.0092340400442481041
244.264511108398438 -86.79473876953125 6.22001743316650391 110 1645021237.7075932 -0.825438499450683594 0.564439654350280762 0.00394632807001471519 -0.00660105468705296516
246.516586303710938 -91.75244140625 6.19938039779663086 111 1645021238.50515604 -0.849465072154998779 0.527620136737823486 0.000299040664685890079 -0.0050944201648235321
249.257598876953125 -96.4865341186523438 6.18455266952514648 112 1645021239.3044672 -0.87408912181854248 0.485696136951446533 0.00264164106920361519 -0.00777955586090683937
252.48187255859375 -100.929374694824219 6.16986656188964844 113 1645021240.10417557 -0.899864494800567627 0.436031907796859741 0.00140737881883978844 -0.0108687346801161766
256.128936767578125 -105.037864685058594 6.15350580215454102 114 1645021240.90489292 -0.921189427375793457 0.389090985059738159 0.00341190723702311516 -0.00257564382627606392
260.182708740234375 -108.715019226074219 6.14251279830932617 115 1645021241.7066505 -0.93634033203125 0.350894719362258911 0.00413100328296422958 -0.0110708875581622124
264.427825927734375 -111.935928344726562 6.11120033264160156 116 1645021242.50475621 -0.951302886009216309 0.308077365159988403 0.00410060537979006767 -0.00971445720642805099
268.98406982421875 -114.991363525390625 6.05535650253295898 117 1645021243.40587497 -0.956347107887268066 0.292125701904296875 0.00504749361425638199 -0.00610374798998236656
273.608245849609375 -117.481307983398438 6.00847959518432617 118 1645021244.40484238 -0.971529722213745117 0.235531851649284363 0.0146743031218647957 -0.0209611207246780396
278.364715576171875 -119.764358520507812 5.97022581100463867 119 1645021245.60484099 -0.974678277969360352 0.223272457718849182 0.0071320277638733387 -0.0100425127893686295
283.0780029296875 -122.054611206054688 5.95596790313720703 120 1645021247.30675268 -0.975532710552215576 0.219660207629203796 0.00484507344663143158 -0.00786495208740234375
287.52978515625 -124.486305236816406 5.92639923095703125 121 1645021248.90923238 -0.969099581241607666 0.246607750654220581 -0.00236645853146910667 0.00500064855441451073
291.970550537109375 -127.240089416503906 5.83240699768066406 122 1645021250.10877752 -0.960684001445770264 0.276293128728866577 0.0102645037695765495 0.0253566354513168335
296.100860595703125 -130.074447631835938 5.53078937530517578 123 1645021251.10869384 -0.951725780963897705 0.303195863962173462 0.0345854908227920532 0.0330772586166858673
300.12689208984375 -133.033050537109375 5.10289573669433594 124 1645021252.11052895 -0.94529193639755249 0.323143959045410156 0.0403859913349151611 0.0192392952740192413
304.105804443359375 -136.207748413085938 4.6490025520324707 125 1645021253.11057377 -0.941335022449493408 0.333868950605392456 0.0393967367708683014 0.0294578932225704193
308.39263916015625 -139.236984252929688 4.18297243118286133 126 1645021254.1092968 -0.95484691858291626 0.293307393789291382 0.0399621091783046722 0.025320371612906456
313.06793212890625 -142.09521484375 3.71684694290161133 127 1645021255.10814333 -0.963937878608703613 0.261643320322036743 0.0344827920198440552 0.034314081072807312
317.332000732421875 -144.758102416992188 3.2577824592590332 128 1645021256.00721431 -0.955160737037658691 0.291305243968963623 0.0397516451776027679 0.0350578464567661285
321.479156494140625 -148.152130126953125 2.71162652969360352 129 1645021257.1112926 -0.932217836380004883 0.355311721563339233 0.0509171299636363983 0.0461617335677146912
324.879669189453125 -151.846389770507812 2.2369081974029541 130 1645021258.50732923 -0.909488856792449951 0.410885065793991089 0.0360915921628475189 0.0519701018929481506
327.6865234375 -156.075088500976562 1.767547607421875 131 1645021260.50781727 -0.856353044509887695 0.5137900710105896 0.0354013293981552124 0.0377622172236442566
327.84368896484375 -157.74151611328125 1.58063089847564697 132 1645021261.40877533 -0.752878785133361816 0.655415892601013184 0.0480967722833156586 0.0359200015664100647
327.379669189453125 -158.6060791015625 1.47598445415496826 133 1645021261.90747571 -0.627206027507781982 0.775484561920166016 0.0619475506246089935 0.0373999029397964478
326.555419921875 -159.269943237304688 1.3924858570098877 134 1645021262.40709972 -0.460694819688796997 0.883826911449432373 0.0747045576572418213 0.0320861339569091797
325.568206787109375 -159.538772583007812 1.34658348560333252 135 1645021262.90727043 -0.281208395957946777 0.956117510795593262 0.0789697617292404175 0.0229101590812206268
324.50323486328125 -159.432357788085938 1.35374271869659424 136 1645021263.40735483 -0.0869901776313781738 0.992529332637786865 0.0849406793713569641 0.0101640438660979271
323.597259521484375 -159.011795043945312 1.41142177581787109 137 1645021263.80708694 0.100547738373279572 0.990925848484039307 0.0890648216009140015 0.00486024189740419388
322.56634521484375 -158.033416748046875 1.58167588710784912 138 1645021264.40526056 0.277991682291030884 0.957323610782623291 0.0732127651572227478 -0.0298663545399904251
320.694244384765625 -155.589370727539062 1.94432425498962402 139 1645021265.60623097 0.439115047454833984 0.896296679973602295 0.0452582985162734985 -0.0422129929065704346
317.83453369140625 -150.979202270507812 2.56419992446899414 140 1645021267.60626149 0.485445380210876465 0.872799694538116455 0.0335849709808826447 -0.0378881432116031647
314.102294921875 -146.8978271484375 3.19225811958312988 141 1645021269.6072793 0.37607276439666748 0.924555003643035889 0.0471809692680835724 -0.0392597131431102753
309.8890380859375 -143.262161254882812 3.77450418472290039 142 1645021271.60806489 0.322219580411911011 0.945263326168060303 0.0258202496916055679 -0.0445545502007007599
304.64300537109375 -140.290359497070312 4.29035472869873047 143 1645021273.60842109 0.240562140941619873 0.969538271427154541 0.0311298742890357971 -0.0340053513646125793
299.2894287109375 -137.953659057617188 4.77026176452636719 144 1645021275.41054392 0.201449751853942871 0.978356480598449707 0.0329187437891960144 -0.0339550301432609558
294.6715087890625 -135.714004516601562 5.16705942153930664 145 1645021276.91073728 0.246464520692825317 0.968139290809631348 0.0261928755789995193 -0.0357140079140663147
290.231048583984375 -133.3173828125 5.49994134902954102 146 1645021278.31093717 0.237576752901077271 0.970735311508178711 0.021462639793753624 -0.0277424603700637817
285.68048095703125 -131.120819091796875 5.68285512924194336 147 1645021279.610955 0.241970047354698181 0.969111502170562744 0.0458987988531589508 -0.0129112154245376587
281.539764404296875 -128.1475830078125 5.89180183410644531 148 1645021280.8121798 0.307121694087982178 0.951425671577453613 0.0136475143954157829 -0.0167083740234375
277.4248046875 -125.26318359375 6.01099872589111328 149 1645021281.9110558 0.290084332227706909 0.956894874572753906 -0.00211768015287816525 -0.0140977324917912483
272.747772216796875 -122.581230163574219 6.08059167861938477 150 1645021283.01119328 0.257475912570953369 0.96618121862411499 -0.00600890954956412315 -0.0128007391467690468
264.14208984375 -117.047447204589844 6.17592000961303711 151 1645021284.91108322 0.31160438060760498 0.950197577476501465 0.00183477159589529037 -0.00489372806623578072
254.940521240234375 -108.674232482910156 6.22651243209838867 152 1645021287.00946093 0.373415231704711914 0.927543282508850098 -0.0147274211049079895 -0.00276467762887477875
246.373779296875 -99.2072982788085938 6.2167510986328125 153 1645021289.00971723 0.457908898591995239 0.888900578022003174 -0.00896430201828479767 0.00973608717322349548
241.051620483398438 -87.0713043212890625 6.28971767425537109 154 1645021291.01110435 0.578623950481414795 0.815480887889862061 -0.00934792216867208481 -0.00989225972443819046
237.097320556640625 -73.54345703125 6.32955169677734375 155 1645021293.11358857 0.620135009288787842 0.784400820732116699 -0.00866125430911779404 -0.00854014325886964798
235.476547241210938 -63.6008110046386719 6.34246921539306641 156 1645021294.61207485 0.694928646087646484 0.719072520732879639 -0.000147938641021028161 0.00297614326700568199
235.490447998046875 -58.2415962219238281 6.38887977600097656 157 1645021295.41154027 0.699716091156005859 0.714286684989929199 -0.00887724943459033966 -0.0106324832886457443
233.797119140625 -50.3308067321777344 6.4597315788269043 158 1645021296.71204591 0.532060980796813965 0.846320092678070068 -0.0241322685033082962 -0.00842763204127550125
231.495849609375 -47.8528251647949219 6.48792409896850586 159 1645021297.31451893 0.376189768314361572 0.926489591598510742 -0.000448132486781105399 0.00990181788802146912
221.422531127929688 -42.341644287109375 6.52704477310180664 160 1645021299.31488252 0.224028259515762329 0.974475264549255371 0.0112837804481387138 -0.00905198045074939728
209.803680419921875 -36.00628662109375 6.50963592529296875 161 1645021301.41142392 0.278914391994476318 0.960267841815948486 0.00719156069681048393 -0.0063820485956966877
198.807205200195312 -28.565704345703125 6.52082443237304688 162 1645021303.41187859 0.336447149515151978 0.941682934761047363 0.00116734893526881933 -0.00593217834830284119
188.159408569335938 -19.6077880859375 6.75421333312988281 163 1645021305.50871253 0.369359433650970459 0.929254472255706787 0.00765628600493073463 0.00107620819471776485
178.941604614257812 -10.0569543838500977 6.92102909088134766 164 1645021307.50899863 0.392872214317321777 0.919507145881652832 0.0112786553800106049 -0.00555220665410161018
169.218643188476562 -0.507065892219543457 7.3616633415222168 165 1645021309.60860252 0.390610188245773315 0.92031097412109375 0.0201051831245422363 -0.00686452724039554596
160.367401123046875 8.21980571746826172 7.84541749954223633 166 1645021311.61256027 0.372916311025619507 0.927461445331573486 0.0225035417824983597 -0.0155657380819320679
151.595169067382812 17.1184463500976562 8.33201885223388672 167 1645021313.70966768 0.383372306823730469 0.923246562480926514 0.0129490112885832787 -0.0217675995081663132
143.559432983398438 25.2656383514404297 8.50134372711181641 168 1645021315.70989394 0.382699638605117798 0.92375028133392334 -0.000712585402652621269 0.0150298578664660454
140.130386352539062 27.4017448425292969 8.35483074188232422 169 1645021316.51033926 0.216434463858604431 0.975746452808380127 0.000267365918261930346 0.0327856279909610748
136.894027709960938 27.7029895782470703 8.22913455963134766 170 1645021317.21115613 0.0263189785182476044 0.999478042125701904 0.00394392991438508034 0.0183150395750999451
133.430740356445312 26.7894477844238281 7.97020959854125977 171 1645021317.90912127 -0.154622077941894531 0.987364351749420166 0.00357310078106820583 0.0345089659094810486
129.641326904296875 24.0993270874023438 7.62584781646728516 172 1645021318.70938492 -0.342856407165527344 0.938555598258972168 0.00772350095212459564 0.0387711040675640106
119.846099853515625 13.5399770736694336 6.54366683959960938 173 1645021320.80849886 -0.408956766128540039 0.911667227745056152 0.0210711266845464706 0.0342519618570804596
115.758110046386719 9.20978450775146484 6.11851835250854492 174 1645021321.61034513 -0.388503313064575195 0.920552849769592285 0.020487174391746521 0.0350415781140327454
112.037826538085938 5.42622089385986328 5.70829868316650391 175 1645021322.30964494 -0.380921930074691772 0.923683345317840576 0.0247973091900348663 0.0330556444823741913
108.248069763183594 1.61495590209960938 5.31675195693969727 176 1645021323.00962448 -0.381871491670608521 0.923619329929351807 0.0204524863511323929 0.026139136403799057
104.424369812011719 -2.2589409351348877 4.92081642150878906 177 1645021323.70978546 -0.384932249784469604 0.922124624252319336 0.0262041948735713959 0.0287520159035921097
100.563209533691406 -6.12771987915039062 4.5753021240234375 178 1645021324.41044068 -0.38340991735458374 0.922947824001312256 0.0230783578008413315 0.0251310057938098907
96.6959075927734375 -9.96867656707763672 4.25864982604980469 179 1645021325.11000371 -0.382352232933044434 0.923502564430236816 0.0181697625666856766 0.0248928181827068329
92.8368377685546875 -13.8070745468139648 3.96355366706848145 180 1645021325.81127286 -0.381717413663864136 0.923780739307403564 0.0155906341969966888 0.0260367952287197113
89.022247314453125 -17.6220607757568359 3.66644048690795898 181 1645021326.51030231 -0.385654062032699585 0.9221343994140625 0.00681906566023826599 0.0298767443746328354
85.239501953125 -21.4710903167724609 3.34751772880554199 182 1645021327.21144295 -0.382908880710601807 0.923140347003936768 0.00790267158299684525 0.0336186215281486511
81.5066986083984375 -25.3698368072509766 2.98627066612243652 183 1645021327.91045809 -0.388704776763916016 0.920897781848907471 0.0162865705788135529 0.0243017226457595825
77.79290771484375 -29.2464981079101562 2.76688265800476074 184 1645021328.61132455 -0.383683621883392334 0.923330843448638916 0.0147366607561707497 0.00546564767137169838
74.1087646484375 -33.0787925720214844 2.57479953765869141 185 1645021329.3101356 -0.385109931230545044 0.922616839408874512 0.0202595014125108719 0.00761671038344502449
70.4099502563476562 -36.8032951354980469 2.39618372917175293 186 1645021330.00975966 -0.382279127836227417 0.923714697360992432 0.0177575051784515381 0.0172769706696271896
66.7256851196289062 -40.3967552185058594 2.26656389236450195 187 1645021330.71060658 -0.366239070892333984 0.930279552936553955 0.0210103821009397507 0.00274299387820065022
62.8474884033203125 -43.6366958618164062 2.21390366554260254 188 1645021331.41109562 -0.329878509044647217 0.943927228450775146 0.0133968787267804146 -0.0014384459936991334
58.3134231567382812 -46.9264144897460938 2.22864079475402832 189 1645021332.21031976 -0.298999398946762085 0.954242348670959473 -0.00363515457138419151 -0.00277350330725312233
53.7082977294921875 -49.9538803100585938 2.27353072166442871 190 1645021333.01009679 -0.275501906871795654 0.96123206615447998 -0.00484902132302522659 -0.0103974631056189537
48.9872055053710938 -52.6806106567382812 2.34085464477539062 191 1645021333.81242013 -0.249681815505027771 0.968273699283599854 -0.00705528724938631058 -0.0074341651052236557
44.2352333068847656 -55.0721168518066406 2.47251772880554199 192 1645021334.61201668 -0.216628566384315491 0.976091623306274414 -0.00924147013574838638 -0.0152244353666901588
39.3585166931152344 -57.0178604125976562 2.62871384620666504 193 1645021335.41121244 -0.165089026093482971 0.986040174961090088 -0.00320273963734507561 -0.021450309082865715
34.3142967224121094 -58.1887321472167969 2.83734750747680664 194 1645021336.21271062 -0.0884384885430335999 0.995830416679382324 -0.0037900940515100956 -0.0220454689115285873
29.3294582366943359 -58.9213371276855469 3.08162140846252441 195 1645021337.01245427 -0.0752405524253845215 0.996710240840911865 -0.0124740861356258392 -0.0274212155491113663
23.8865127563476562 -59.6661491394042969 3.36779904365539551 196 1645021337.91363168 -0.0569599755108356476 0.997944474220275879 -0.00777327315881848335 -0.028318917378783226
18.6386814117431641 -60.0875091552734375 3.6811068058013916 197 1645021338.81315303 -0.0303729679435491562 0.999049544334411621 -0.00480155367404222488 -0.0308943837881088257
13.6332721710205078 -60.1921806335449219 4.02635335922241211 198 1645021339.71404886 0.00217692367732524872 0.999312460422515869 -0.00437035644426941872 -0.0367531739175319672
8.33846187591552734 -59.9307899475097656 4.36572074890136719 199 1645021340.71402431 0.0375594384968280792 0.998716533184051514 -0.00386536400765180588 -0.033758852630853653
3.26336836814880371 -59.3834609985351562 4.69031429290771484 200 1645021341.71601176 0.0618440546095371246 0.997468769550323486 -0.00573096470907330513 -0.0346193276345729828
-2.08249115943908691 -58.9190292358398438 5.05292606353759766 201 1645021342.81638718 0.0380088202655315399 0.998526394367218018 -0.00345398159697651863 -0.0385796837508678436
-7.24019050598144531 -58.694793701171875 5.41146183013916016 202 1645021343.91294932 0.024096168577671051 0.999123573303222656 -0.000194039326743222773 -0.034226052463054657
-12.2361583709716797 -58.5011825561523438 5.75306463241577148 203 1645021345.01281261 0.0224642548710107803 0.999093830585479736 0.000924533233046531677 -0.036138337105512619
-17.5690517425537109 -58.2523078918457031 6.08900785446166992 204 1645021346.21784687 0.0234853513538837433 0.999289572238922119 -0.00489463144913315773 -0.0290654841810464859
-22.7216968536376953 -58.0369949340820312 6.41237401962280273 205 1645021347.41428661 0.0245708096772432327 0.999040067195892334 -0.00360399368219077587 -0.0360868871212005615
-27.8341522216796875 -57.785064697265625 6.72251224517822266 206 1645021348.61410356 0.0259400960057973862 0.999197244644165039 -0.0107859466224908829 -0.0285598244518041611
-32.9357986450195312 -57.6757545471191406 6.97636699676513672 207 1645021349.81603575 0.0132756549865007401 0.999597430229187012 0.00391249777749180794 -0.0247676875442266464
-37.9753303527832031 -57.6661949157714844 7.16767644882202148 208 1645021351.21463442 -0.00668305112048983574 0.99993133544921875 -0.000605566019657999277 0.00960688665509223938
-42.9825477600097656 -57.450958251953125 7.30782794952392578 209 1645021353.01650906 0.0404966175556182861 0.998999416828155518 -0.0129625499248504639 -0.0138607993721961975
-45.03778076171875 -56.4166107177734375 7.37459182739257812 210 1645021353.91557598 0.270377010107040405 0.962651252746582031 0.011423763819038868 -0.00826527923345565796
-45.6339645385742188 -55.1350135803222656 7.39709234237670898 211 1645021354.41671467 0.47038695216178894 0.882415652275085449 0.00878242310136556625 0.00128139101434499025
-45.5224189758300781 -53.9099845886230469 7.42997169494628906 212 1645021354.91557717 0.64540410041809082 0.763759016990661621 -0.00276459939777851105 -0.0108632864430546761
-44.9681205749511719 -52.8428230285644531 7.40509366989135742 213 1645021355.41474748 0.781976521015167236 0.623140692710876465 -0.0144366882741451263 0.000124221958685666323
-44.1564102172851562 -52.1721916198730469 7.38694524765014648 214 1645021355.8147409 0.885771989822387695 0.463875532150268555 -0.0150009151548147202 -0.00155386666301637888
-43.1525421142578125 -51.8456802368164062 7.37909412384033203 215 1645021356.21623397 0.953140497207641602 0.302258163690567017 -0.0103193558752536774 -0.00752816163003444672
-41.6234130859375 -51.7667579650878906 7.32758712768554688 216 1645021356.71648645 0.992955207824707031 0.114767670631408691 -0.0189110692590475082 -0.0225992836058139801
-37.6330337524414062 -52.1181602478027344 7.17382001876831055 217 1645021357.81927705 0.997755169868469238 -0.0657789558172225952 -0.0125325089320540428 0.000860310334246605635
-30.4645881652832031 -53.1656074523925781 6.87213659286499023 218 1645021359.31663084 0.997639834880828857 -0.0636854246258735657 -0.0241114292293787003 -0.00880744867026805878
-17.3013439178466797 -54.1489143371582031 6.03790426254272461 219 1645021361.41544151 0.998986303806304932 -0.0328782163560390472 -0.0299928952008485794 0.00676526175811886787
-2.76657652854919434 -54.9222679138183594 5.07262706756591797 220 1645021363.41668487 0.998591184616088867 -0.0346841663122177124 -0.0394284948706626892 0.00762263499200344086
13.2088994979858398 -55.93548583984375 4.0199131965637207 221 1645021365.51934862 0.999339699745178223 -0.0142276175320148468 -0.0320896245539188385 0.00937820598483085632
29.489288330078125 -55.0247955322265625 2.95954298973083496 222 1645021367.61200595 0.996826052665710449 0.0738619118928909302 -0.0277141723781824112 0.0106831071898341179
44.0871238708496094 -50.5344085693359375 2.35842370986938477 223 1645021369.61485147 0.977208554744720459 0.211613908410072327 -0.0164906438440084457 0.00332194846123456955
49.2442970275878906 -47.618194580078125 2.23115110397338867 224 1645021370.41537189 0.961667954921722412 0.274109512567520142 -0.00527855753898620605 0.00555270863696932793
53.4918212890625 -44.8470115661621094 2.17053675651550293 225 1645021371.11475325 0.955800950527191162 0.293812155723571777 -0.00731573207303881645 0.00808964949101209641
58.0641670227050781 -41.5688514709472656 2.17464089393615723 226 1645021371.91364241 0.949832379817962646 0.312653183937072754 0.0061178058385848999 0.00538153108209371567
65.3101654052734375 -35.4134597778320312 2.38011813163757324 227 1645021373.31329346 0.9284401535987854 0.370694875717163086 0.0240303594619035721 -0.00260551134124398232
68.94439697265625 -31.6294822692871094 2.58008790016174316 228 1645021374.11498928 0.917988955974578857 0.395276278257369995 0.0304994713515043259 -0.0110769467428326607
72.2932586669921875 -27.6241893768310547 2.73412251472473145 229 1645021374.91363549 0.902248263359069824 0.430907160043716431 0.0135656474158167839 -0.00911551341414451599
75.5329132080078125 -23.6595230102539062 2.87747955322265625 230 1645021375.71354508 0.907120764255523682 0.42064744234085083 0.0133096864446997643 -0.00324172992259263992
78.318756103515625 -20.6912193298339844 3.09393000602722168 231 1645021376.41294169 0.92216801643371582 0.385850816965103149 0.0248954370617866516 -0.0102710137143731117
79.7873458862304688 -19.2894992828369141 3.20163631439208984 232 1645021376.8123982 0.927687942981719971 0.37270045280456543 0.0197160243988037109 -0.0100373039022088051
80.6890411376953125 -18.4626178741455078 3.25653600692749023 233 1645021377.11458278 0.931854128837585449 0.362540692090988159 0.0123921064659953117 -0.00764990970492362976
81.1368637084960938 -18.0344867706298828 3.28783750534057617 234 1645021377.31343675 0.930611908435821533 0.365735709667205811 0.0125202806666493416 -0.00648470083251595497
81.81781005859375 -17.3552474975585938 3.35366940498352051 235 1645021379.31364417 0.926681339740753174 0.37490689754486084 0.0237029176205396652 -0.0120276166126132011
