# .PCD v0.7 - Point Cloud Data file format
VERSION 0.7
FIELDS x y z intensity t qx qy qz qw
SIZE 4 4 4 4 8 4 4 4 4
TYPE F F F F F F F F F
COUNT 1 1 1 1 1 1 1 1 1
WIDTH 275
HEIGHT 1
VIEWPOINT 0 0 0 1 0 0 0
POINTS 275
DATA ascii
233.322494506835938 -43.0138816833496094 6.60676336288452148 215 1645007295.19359112 -0.985666334629058838 0.167258158326148987 -0.00631622644141316414 0.0211339220404624939
238.089752197265625 -44.8404960632324219 6.60187005996704102 216 1645007296.39659667 -0.976869404315948486 0.21336972713470459 0.00354290660470724106 0.0136754754930734634
241.729446411132812 -48.5974311828613281 6.52417659759521484 217 1645007297.79344344 -0.869228124618530273 0.494265943765640259 0.0112426960840821266 0.00415789196267724037
242.205780029296875 -51.1669769287109375 6.43881988525390625 218 1645007298.4950037 -0.767613649368286133 0.640228807926177979 0.0264199171215295792 0.0133539242669939995
241.696258544921875 -54.9488372802734375 6.3146209716796875 219 1645007299.39436626 -0.642543494701385498 0.766163229942321777 0.00826620962470769882 0.00796462781727313995
240.807601928710938 -60.3502082824707031 6.24085569381713867 220 1645007300.49594426 -0.666781783103942871 0.745222330093383789 0.00512929493561387062 0.00440540304407477379
241.088150024414062 -65.8741912841796875 6.21905231475830078 221 1645007301.49528265 -0.741499066352844238 0.670866787433624268 0.00568979885429143906 -0.00919594522565603256
241.7061767578125 -71.0106887817382812 6.21257257461547852 222 1645007302.39353347 -0.741018056869506836 0.671466171741485596 0.000630706257652491331 -0.00500877201557159424
242.412017822265625 -76.1779861450195312 6.23176193237304688 223 1645007303.29475236 -0.752464056015014648 0.65840524435043335 0.00140882190316915512 -0.0172734465450048447
243.436279296875 -81.404541015625 6.21062040328979492 224 1645007304.19350958 -0.785139739513397217 0.619257509708404541 0.000392344169085845351 -0.00869020167738199234
245.199981689453125 -86.6746673583984375 6.19327211380004883 225 1645007305.09487915 -0.818226516246795654 0.574814498424530029 0.00594721594825387001 -0.0076317288912832737
247.316375732421875 -91.3265380859375 6.17057943344116211 226 1645007305.89228415 -0.846755325794219971 0.531960129737854004 0.00330488779582083225 -0.00359908840619027615
249.9537353515625 -95.8040237426757812 6.14714288711547852 227 1645007306.69216728 -0.874514400959014893 0.484922260046005249 0.00367983244359493256 -0.00783950090408325195
252.982772827148438 -100.074508666992188 6.11827230453491211 228 1645007307.49192834 -0.888712942600250244 0.458116292953491211 0.00809442251920700073 -0.0159155186265707016
256.297607421875 -103.992713928222656 6.11521196365356445 229 1645007308.29260826 -0.910357534885406494 0.413074195384979248 0.0100296521559357643 -0.0227643847465515137
260.34136962890625 -107.810104370117188 6.10924959182739258 230 1645007309.19236898 -0.937575221061706543 0.34773176908493042 0.00344027532264590263 -0.0048457486554980278
264.7713623046875 -111.061470031738281 6.08569669723510742 231 1645007310.09127069 -0.952159583568572998 0.305195987224578857 0.00379913719370961189 -0.0152662582695484161
269.188507080078125 -113.986396789550781 6.00427722930908203 232 1645007310.99129367 -0.951737642288208008 0.305586785078048706 0.021236887201666832 -0.0190041251480579376
273.4764404296875 -117.025062561035156 5.99659490585327148 233 1645007311.99327707 -0.959433853626251221 0.281740307807922363 0.00153538689482957125 -0.0103324884548783302
277.974395751953125 -119.290573120117188 5.95325803756713867 234 1645007312.99175072 -0.976238489151000977 0.216464951634407043 0.00810345634818077087 -0.00596806174144148827
282.588775634765625 -121.578750610351562 5.97221946716308594 235 1645007314.79169464 -0.969252586364746094 0.245461508631706238 -0.00934065878391265869 -0.0145216817036271095
286.376312255859375 -123.971282958984375 5.93102073669433594 236 1645007316.79214525 -0.960021913051605225 0.279900491237640381 -0.00266381027176976204 0.00254771322943270206
290.88311767578125 -126.77911376953125 5.87568283081054688 237 1645007318.39209533 -0.962457478046417236 0.27080225944519043 0.00140026828739792109 0.0184338241815567017
295.44976806640625 -129.639617919921875 5.58448600769042969 238 1645007319.4945972 -0.958808004856109619 0.28096771240234375 0.0313602015376091003 0.0275847222656011581
299.677886962890625 -132.51995849609375 5.15422582626342773 239 1645007320.4923799 -0.951097965240478516 0.305466681718826294 0.0419797748327255249 0.0184511318802833557
304.0360107421875 -135.736083984375 4.67194461822509766 240 1645007321.49284101 -0.949616432189941406 0.308940142393112183 0.0438625402748584747 0.0293386727571487427
308.35504150390625 -138.811691284179688 4.20375442504882812 241 1645007322.49351263 -0.952030599117279053 0.301693499088287354 0.0455217435956001282 0.0233782846480607986
312.5255126953125 -141.781341552734375 3.75597953796386719 242 1645007323.4934144 -0.952678143978118896 0.299611896276473999 0.0417290292680263519 0.0299297329038381577
316.777740478515625 -144.819473266601562 3.26984953880310059 243 1645007324.49381685 -0.949455082416534424 0.308194518089294434 0.04253387451171875 0.0417374670505523682
320.73553466796875 -148.30816650390625 2.73728227615356445 244 1645007325.59490204 -0.927542805671691895 0.368408083915710449 0.0462589971721172333 0.0424252226948738098
324.39447021484375 -152.003494262695312 2.23459959030151367 245 1645007326.79403949 -0.916495382785797119 0.395552277565002441 0.044855751097202301 0.0395293235778808594
327.72381591796875 -155.873748779296875 1.7696235179901123 246 1645007328.79380679 -0.910731315612792969 0.409765720367431641 0.0327282063663005829 0.0398665294051170349
330.003509521484375 -158.676040649414062 1.4600752592086792 247 1645007330.79384232 -0.90352177619934082 0.422884106636047363 0.0287068020552396774 0.0631926730275154114
330.6827392578125 -159.840789794921875 1.30890762805938721 248 1645007332.89469147 -0.872666239738464355 0.4829845130443573 0.0377701781690120697 0.0612619742751121521
330.748382568359375 -159.92315673828125 1.26958835124969482 249 1645007339.09226584 -0.875422060489654541 0.478204488754272461 0.0370394028723239899 0.0598731935024261475
330.8548583984375 -161.413986206054688 1.11406135559082031 250 1645007340.3914535 -0.765525519847869873 0.640068173408508301 0.0440648682415485382 0.048391096293926239
330.3743896484375 -162.530288696289062 1.03077518939971924 251 1645007340.99265814 -0.64178997278213501 0.765152633190155029 0.0376960448920726776 0.0350159928202629089
329.462738037109375 -163.561782836914062 0.950213491916656494 252 1645007341.5901041 -0.499598026275634766 0.865281403064727783 0.0246354974806308746 0.0329092070460319519
327.82281494140625 -164.671234130859375 0.845126986503601074 253 1645007342.39283633 -0.332335382699966431 0.942491710186004639 0.0129449581727385521 0.0330908298492431641
323.312652587890625 -166.929443359375 0.544278502464294434 254 1645007344.1943469 -0.22524791955947876 0.973503291606903076 0.0128398817032575607 0.037280350923538208
319.739227294921875 -168.751739501953125 0.372501969337463379 255 1645007346.29521871 -0.268626213073730469 0.9626312255859375 7.31282270862720907e-05 0.0343668237328529358
315.12884521484375 -171.325241088867188 0.068297848105430603 256 1645007347.99346781 -0.224819883704185486 0.973814964294433594 0.0147066907957196236 0.030399620532989502
310.48345947265625 -173.266983032226562 -0.215129226446151733 257 1645007349.19392276 -0.195487871766090393 0.98021620512008667 0.00673428596928715706 0.0302545558661222458
305.873016357421875 -175.305206298828125 -0.507267951965332031 258 1645007350.39383841 -0.211049363017082214 0.976897120475769043 0.00357850268483161926 0.0334275029599666595
301.036285400390625 -177.529464721679688 -0.777206540107727051 259 1645007351.69457793 -0.20507301390171051 0.978516101837158203 -0.00716619426384568214 0.0199978966265916824
296.15130615234375 -179.5364990234375 -0.994669675827026367 260 1645007352.99487424 -0.176570296287536621 0.984030961990356445 0.00585484225302934647 0.0217185858637094498
291.3958740234375 -181.132110595703125 -0.90903007984161377 261 1645007354.49474764 -0.17347930371761322 0.984294414520263672 -0.0190634578466415405 -0.0265716426074504852
286.701904296875 -183.134689331054688 -1.04485177993774414 262 1645007355.79419518 -0.188310861587524414 0.981917798519134521 0.00639335392042994499 0.0183200594037771225
281.643890380859375 -184.765594482421875 -1.23568463325500488 263 1645007357.29360914 -0.143900036811828613 0.989564895629882812 0.000419784948462620378 0.00734175927937030792
276.41973876953125 -186.13861083984375 -1.38451135158538818 264 1645007358.79454374 -0.110550045967102051 0.993745326995849609 -0.00118777260649949312 0.0157309714704751968
271.27532958984375 -187.004653930664062 -1.83026325702667236 265 1645007360.09465718 -0.0641570538282394409 0.99725794792175293 0.00862396880984306335 0.0358626805245876312
266.247283935546875 -187.474945068359375 -1.95005595684051514 266 1645007361.29216123 -0.0488027893006801605 0.998751401901245117 0.00243933964520692825 0.0103913154453039169
261.044189453125 -188.1292724609375 -2.12015628814697266 267 1645007362.39717102 -0.0721851810812950134 0.997265040874481201 0.000700715114362537861 0.0158496219664812088
255.843017578125 -188.858367919921875 -2.29330587387084961 268 1645007363.59188557 -0.0594841092824935913 0.997909367084503174 0.000261959212366491556 0.0252667684108018875
250.735260009765625 -189.355178833007812 -2.42319083213806152 269 1645007364.99051642 -0.0444190800189971924 0.99888455867767334 -0.00250618578866124153 0.015822727233171463
245.338790893554688 -189.98193359375 -2.6263117790222168 270 1645007366.29246593 -0.0588434450328350067 0.998041689395904541 -0.00138073088601231575 0.0211737211793661118
240.0921630859375 -190.461181640625 -2.80714988708496094 271 1645007367.4917767 -0.0431777387857437134 0.998862981796264648 -0.00400501396507024765 0.0198073815554380417
234.948898315429688 -191.163345336914062 -2.94753074645996094 272 1645007368.69164705 -0.0728921666741371155 0.997170746326446533 -0.010082833468914032 0.0153475608676671982
229.91082763671875 -191.980987548828125 -3.0960996150970459 273 1645007369.89458871 -0.0884995982050895691 0.995842039585113525 -0.0150039223954081535 0.0155342072248458862
224.6251220703125 -193.632461547851562 -3.19432258605957031 274 1645007371.09392309 -0.155566081404685974 0.987781703472137451 -0.00738738896325230598 0.00564702320843935013
219.889007568359375 -195.335922241210938 -3.32477116584777832 275 1645007371.99456048 -0.174552679061889648 0.984607696533203125 -0.00650674989446997643 0.00606252020224928856
215.15179443359375 -197.067672729492188 -3.48021936416625977 276 1645007372.79482198 -0.161863505840301514 0.986777305603027344 -0.00160813168622553349 0.00825311802327632904
210.127044677734375 -198.690399169921875 -3.62430500984191895 277 1645007373.59498286 -0.148421570658683777 0.988817811012268066 0.0023399766068905592 0.0143138011917471886
205.100387573242188 -200.296722412109375 -3.77980232238769531 278 1645007374.39628363 -0.150750190019607544 0.988416075706481934 0.00299649778753519058 0.0172933638095855713
200.271331787109375 -201.9639892578125 -3.94145417213439941 279 1645007375.18843555 -0.16159355640411377 0.986629903316497803 0.0126420613378286362 0.0170034915208816528
195.486831665039062 -203.515625 -4.07971048355102539 280 1645007375.99647522 -0.149123325943946838 0.988668501377105713 0.0103707993403077126 0.0137589061632752419
190.27935791015625 -205.053176879882812 -4.2306065559387207 281 1645007376.89175844 -0.142603442072868347 0.989667296409606934 0.00460527790710330009 0.0142024978995323181
185.094329833984375 -206.227996826171875 -4.39231777191162109 282 1645007377.78949285 -0.0766045153141021729 0.996892631053924561 0.0121577056124806404 0.013748939149081707
179.906661987304688 -206.638381958007812 -4.56078815460205078 283 1645007378.68878412 -0.0305704250931739807 0.999416947364807129 0.00826746225357055664 0.0127616953104734421
174.530227661132812 -206.918426513671875 -4.72900676727294922 284 1645007379.58981347 -0.0242683365941047668 0.999608933925628662 0.00960024166852235794 0.0100428340956568718
169.401031494140625 -207.110443115234375 -4.87277746200561523 285 1645007380.38790989 -0.0215542204678058624 0.999733150005340576 -0.00583036011084914207 0.00592541182413697243
164.116806030273438 -207.430801391601562 -4.97458600997924805 286 1645007381.1881156 -0.0283116549253463745 0.999587833881378174 -0.000813706312328577042 0.00468628061935305595
158.78082275390625 -207.691116333007812 -5.06015825271606445 287 1645007381.98808408 -0.017193792387843132 0.999794721603393555 0.0102258864790201187 0.00321580027230083942
153.5440673828125 -207.756973266601562 -5.2168726921081543 288 1645007382.78757262 -0.00957107078284025192 0.999947547912597656 -0.00291412719525396824 -0.00217966595664620399
148.492584228515625 -207.957107543945312 -5.2554478645324707 289 1645007383.58812571 -0.0187563691288232803 0.99981844425201416 -0.00281288847327232361 0.00183647882658988237
143.11920166015625 -208.1982421875 -5.24467992782592773 290 1645007384.48822117 -0.0202900618314743042 0.999768853187561035 0.000381871475838124752 -0.00709896115586161613
137.634307861328125 -208.3458251953125 -5.25070571899414062 291 1645007385.38827467 -0.0112768569961190224 0.999874770641326904 -0.0106698088347911835 -0.00306269945576786995
132.535308837890625 -208.589920043945312 -5.24278640747070312 292 1645007386.18891144 -0.0159603655338287354 0.999861717224121094 -0.00367499538697302341 -0.00287521444261074066
127.363662719726562 -208.9005126953125 -5.25002956390380859 293 1645007386.98733878 -0.0297341421246528625 0.999556422233581543 -0.000182508956640958786 -0.00166881515178829432
122.153526306152344 -209.248092651367188 -5.27852249145507812 294 1645007387.78861642 -0.0300091840326786041 0.999548435211181641 0.000724626646842807531 -0.00134102231822907925
116.942863464355469 -209.541305541992188 -5.32387876510620117 295 1645007388.58794761 -0.0219068732112646103 0.99974513053894043 -0.000343181367497891188 0.00544578209519386292
111.704544067382812 -209.778289794921875 -5.32640504837036133 296 1645007389.38827538 -0.0205202028155326843 0.999783039093017578 0.00299223395995795727 0.00196541938930749893
106.474838256835938 -209.980026245117188 -5.28165626525878906 297 1645007390.18777776 -0.0192503463476896286 0.999811112880706787 -0.00160517438780516386 0.00213315337896347046
101.236953735351562 -210.226959228515625 -5.27746343612670898 298 1645007390.98878765 -0.0214409641921520233 0.999760150909423828 -0.00329414312727749348 0.00301404925994575024
96.0247344970703125 -210.542068481445312 -5.27953290939331055 299 1645007391.78872275 -0.0262495223432779312 0.999644100666046143 -0.0024468032643198967 0.00408583227545022964
90.8226470947265625 -210.76873779296875 -5.27672338485717773 300 1645007392.58786726 -0.0167105551809072495 0.999856054782867432 0.00294621731154620647 5.01571485074236989e-05
85.6086273193359375 -210.921417236328125 -5.26940822601318359 301 1645007393.38796806 -0.00299249356612563133 0.999991953372955322 0.000444617733592167497 -0.00264458544552326202
80.3974227905273438 -211.0419921875 -5.25976276397705078 302 1645007394.18696046 -0.0187881626188755035 0.999750196933746338 -0.0103649711236357689 -0.00625194283202290535
75.1597213745117188 -211.371078491210938 -5.27157783508300781 303 1645007394.99058151 -0.0457446090877056122 0.998795032501220703 -0.0135995103046298027 0.0114449756219983101
70.0216598510742188 -211.618438720703125 -5.27998876571655273 304 1645007395.79052734 -0.0133203119039535522 0.999911248683929443 6.57049313304014504e-05 0.000291156000457704067
64.82537841796875 -211.650558471679688 -5.25599861145019531 305 1645007396.59017539 -0.00115753081627190113 0.999996066093444824 0.00151448114775121212 -0.00206649582833051682
59.5705680847167969 -211.5858154296875 -5.27751064300537109 306 1645007397.39379907 0.0230124350637197495 0.99973142147064209 0.00191969494335353374 0.00195778580382466316
54.4498863220214844 -211.03399658203125 -5.26656341552734375 307 1645007398.19049549 0.0851253941655158997 0.996356844902038574 0.00511389272287487984 0.000753546541091054678
49.5444526672363281 -209.837570190429688 -5.25858020782470703 308 1645007398.99015236 0.136898010969161987 0.990568697452545166 0.00566677795723080635 -0.000681162055116146803
44.7937355041503906 -208.188400268554688 -5.27768087387084961 309 1645007399.79058695 0.189457729458808899 0.981885910034179688 0.00231927260756492615 0.000658076955005526543
39.692108154296875 -205.999420166015625 -5.26295948028564453 310 1645007400.691118 0.219896897673606873 0.975493669509887695 0.00497632427141070366 0.00572191923856735229
35.1645584106445312 -203.5472412109375 -5.2805323600769043 311 1645007401.58961296 0.250474721193313599 0.968096315860748291 -0.000351619819412007928 0.00719843199476599693
30.8193588256835938 -200.595291137695312 -5.24846172332763672 312 1645007402.5901351 0.311746925115585327 0.950164198875427246 -0.000881129701156169176 0.0010181342950090766
26.810272216796875 -197.268783569335938 -5.1633753776550293 313 1645007403.6906476 0.350075960159301758 0.93669736385345459 -0.00119991623796522617 -0.00659373216331005096
22.8442840576171875 -193.815811157226562 -5.05351114273071289 314 1645007404.99130106 0.351227670907974243 0.936214327812194824 0.0113518042489886284 -0.00360747589729726315
18.9710655212402344 -190.388259887695312 -4.86210298538208008 315 1645007406.79143715 0.375293135643005371 0.926286041736602783 0.0066125853918492794 -0.0332497581839561462
15.3773050308227539 -186.52642822265625 -4.72005176544189453 316 1645007408.39207768 0.400412589311599731 0.915973544120788574 0.00748935993760824203 -0.0246188752353191376
11.8429117202758789 -182.818588256835938 -4.49765729904174805 317 1645007409.59230232 0.384546577930450439 0.92249530553817749 0.00591728882864117622 -0.0330352969467639923
7.89867591857910156 -179.180557250976562 -4.27539253234863281 318 1645007410.69349456 0.376594603061676025 0.92611318826675415 0.00930377747863531113 -0.0201073475182056427
4.09852361679077148 -175.608688354492188 -4.0371394157409668 319 1645007411.6926887 0.361780852079391479 0.931957066059112549 0.00586713291704654694 -0.0231558997184038162
0.10322878509759903 -171.989715576171875 -3.72277498245239258 320 1645007412.69398689 0.359764158725738525 0.932494521141052246 0.0139311514794826508 -0.0288034062832593918
-3.89664864540100098 -168.193649291992188 -3.4118645191192627 321 1645007413.69431686 0.374682843685150146 0.926695942878723145 0.00850235018879175186 -0.0278415195643901825
-7.47028923034667969 -164.69512939453125 -3.04913878440856934 322 1645007414.59563637 0.377163231372833252 0.925246715545654297 0.0151674831286072731 -0.0378988422453403473
-11.1401586532592773 -161.307601928710938 -2.67086529731750488 323 1645007415.49478054 0.362724512815475464 0.930625200271606445 0.0175961963832378387 -0.0453656576573848724
-14.8794851303100586 -157.97088623046875 -2.28641819953918457 324 1645007416.39562511 0.363588064908981323 0.930604517459869385 0.0215776804834604263 -0.0362400151789188385
-18.8968448638916016 -154.238754272460938 -1.84814810752868652 325 1645007417.39370131 0.374041736125946045 0.926032841205596924 0.0205561276525259018 -0.0461888872087001801
-22.7684154510498047 -150.405014038085938 -1.41282534599304199 326 1645007418.39492464 0.382274895906448364 0.922507703304290771 0.0017737935995683074 -0.0533132962882518768
-26.6378612518310547 -146.658538818359375 -0.962649762630462646 327 1645007419.39747167 0.377935171127319336 0.924339592456817627 0.0131728937849402428 -0.0508706159889698029
-30.7788944244384766 -143.045242309570312 -0.705057203769683838 328 1645007420.39841819 0.353508979082107544 0.935405075550079346 -0.00135440716985613108 0.00684766471385955811
-34.5426101684570312 -139.7374267578125 -0.237862050533294678 329 1645007421.39698982 0.365472346544265747 0.929762899875640869 0.0203984696418046951 -0.0394311137497425079
-38.5009765625 -135.977645874023438 0.194990351796150208 330 1645007422.49474001 0.373242735862731934 0.926839768886566162 0.0177994612604379654 -0.0366208329796791077
-42.1135330200195312 -132.434967041015625 0.584530055522918701 331 1645007423.49546576 0.39235985279083252 0.918855488300323486 0.0254844743758440018 -0.0332995280623435974
-45.4676856994628906 -128.578384399414062 0.968054056167602539 332 1645007424.49533296 0.433255791664123535 0.900283277034759521 0.0250025484710931778 -0.0339745618402957916
-48.3831214904785156 -124.361213684082031 1.35000956058502197 333 1645007425.49334002 0.479166775941848755 0.876591980457305908 0.0243156757205724716 -0.0373426862061023712
-50.9493827819824219 -119.943008422851562 1.73806357383728027 334 1645007426.59448409 0.509724676609039307 0.859575808048248291 0.0210490170866250992 -0.0294463634490966797
-53.2596817016601562 -115.250762939453125 2.22933745384216309 335 1645007428.39312601 0.548288404941558838 0.834578037261962891 0.0371354706585407257 -0.0384742282330989838
-54.75775146484375 -110.247138977050781 2.74768233299255371 336 1645007430.28902149 0.611512482166290283 0.789307177066802979 0.0369575358927249908 -0.0409980379045009613
-55.6243743896484375 -105.262649536132812 3.26482844352722168 337 1645007432.08959222 0.656461417675018311 0.752414286136627197 0.0341050028800964355 -0.042047698050737381
-56.1691017150878906 -100.162811279296875 3.77251005172729492 338 1645007433.78861189 0.648566126823425293 0.759230494499206543 0.0186609309166669846 -0.0508208200335502625
-57.048736572265625 -95.0420074462890625 4.24127960205078125 339 1645007435.59098077 0.69251936674118042 0.719469547271728516 0.0405056104063987732 -0.0337612181901931763
-56.8207054138183594 -89.972930908203125 4.69498348236083984 340 1645007436.99085331 0.728201150894165039 0.683125495910644531 0.0394805334508419037 -0.038780510425567627
-56.3956451416015625 -84.8867263793945312 5.09391260147094727 341 1645007438.29248929 0.736252546310424805 0.675707995891571045 0.0267448630183935165 -0.0252111721783876419
-56.1127662658691406 -79.8857574462890625 5.52375411987304688 342 1645007439.89033961 0.725261151790618896 0.686845660209655762 0.0306465644389390945 -0.0360565073788166046
-55.4614524841308594 -74.80950927734375 5.94880294799804688 343 1645007441.68972039 0.768136560916900635 0.638865411281585693 0.0273486953228712082 -0.0326996967196464539
-55.1441230773925781 -69.777374267578125 6.37856769561767578 344 1645007443.38877654 0.717482626438140869 0.694609940052032471 0.0395896509289741516 -0.0341810360550880432
-54.8674125671386719 -64.6298751831054688 6.843292236328125 345 1645007444.791996 0.733771204948425293 0.676614224910736084 0.0429481007158756256 -0.0439136028289794922
-54.6562232971191406 -59.6075439453125 7.05870437622070312 346 1645007446.5911262 0.72325664758682251 0.687176942825317383 0.0472150668501853943 0.0495823733508586884
-51.4956588745117188 -55.6196022033691406 7.45850801467895508 347 1645007448.28848433 0.931471049785614014 0.361750572919845581 0.0217363853007555008 -0.0320272259414196014
-43.235870361328125 -52.9396286010742188 7.33993053436279297 348 1645007450.38941455 0.999287426471710205 0.0287811532616615295 -0.0237857028841972351 -0.00552193820476531982
-35.9315605163574219 -52.4187088012695312 7.09721660614013672 349 1645007452.48775792 0.987541675567626953 0.154808714985847473 -0.0151598760858178139 -0.0237888060510158539
-30.1833515167236328 -47.0079231262207031 7.0092015266418457 350 1645007454.2892158 0.896234691143035889 0.442051172256469727 -0.0263539087027311325 -0.0256819445639848709
-29.1822528839111328 -44.1550979614257812 7.14341974258422852 351 1645007455.08937073 0.806171715259552002 0.5905342698097229 -0.00348073267377912998 -0.0366651266813278198
-28.9293460845947266 -38.7386360168457031 7.42723846435546875 352 1645007456.38929486 0.707329332828521729 0.705601394176483154 -0.00120166037231683731 -0.04254952073097229
-28.8153648376464844 -33.4186210632324219 7.69471311569213867 353 1645007457.58865523 0.746221184730529785 0.665463745594024658 0.00354256504215300083 -0.0173021350055932999
-24.7754917144775391 -30.1868610382080078 7.60988283157348633 354 1645007459.19008851 0.977925539016723633 0.202790141105651855 -0.0450775511562824249 -0.0224896762520074844
-19.4488563537597656 -30.3790836334228516 7.26176214218139648 355 1645007460.69074702 0.996375024318695068 -0.0788589343428611755 -0.0304563026875257492 -0.00951032433658838272
-16.1162757873535156 -32.0570068359375 7.08200263977050781 356 1645007461.59173346 0.963983058929443359 -0.264098674058914185 -0.0310312565416097641 -0.00506447907537221909
-12.3467702865600586 -35.7475471496582031 6.61038923263549805 357 1645007462.79137754 0.930597484111785889 -0.361727058887481689 -0.0409378111362457275 -0.0382877923548221588
-7.67157506942749023 -38.2657432556152344 6.15662479400634766 358 1645007463.89311719 0.975530862808227539 -0.216246619820594788 -0.0349324233829975128 -0.0188860073685646057
-2.68309807777404785 -39.9444427490234375 5.80805444717407227 359 1645007464.88739729 0.991186976432800293 -0.126144364476203918 -0.0269134100526571274 -0.030193941667675972
2.76539492607116699 -40.7283973693847656 5.47220325469970703 360 1645007465.78821564 0.99725031852722168 -0.0636718645691871643 -0.0279672462493181229 -0.025602562353014946
8.32780170440673828 -40.9731788635253906 5.18272495269775391 361 1645007466.68809485 0.999054551124572754 -0.00823973026126623154 -0.0273700729012489319 -0.0327570885419845581
13.9050388336181641 -40.9754791259765625 4.88962841033935547 362 1645007467.58850932 0.999244451522827148 -0.00637660175561904907 -0.0276059135794639587 -0.0266039669513702393
19.5035037994384766 -41.0351715087890625 4.57397651672363281 363 1645007468.48802042 0.999270617961883545 -0.00583506841212511063 -0.0301308184862136841 -0.0227232668548822403
24.974517822265625 -40.9041900634765625 4.27585458755493164 364 1645007469.38732719 0.999013662338256836 0.0206237547099590302 -0.0340565145015716553 -0.0196587834507226944
30.2867946624755859 -40.3030776977539062 4.00042152404785156 365 1645007470.38986635 0.994476020336151123 0.0948785841464996338 -0.028937947005033493 -0.034323524683713913
35.1513175964355469 -38.388916015625 3.83635210990905762 366 1645007471.58940101 0.9801139235496521 0.196638152003288269 -0.0230460669845342636 -0.0133775016292929649
39.7777633666992188 -35.7468109130859375 3.69512701034545898 367 1645007472.88646793 0.954276025295257568 0.296123921871185303 -0.0263020303100347519 -0.0312424041330814362
43.1981964111328125 -32.0208702087402344 3.69202303886413574 368 1645007474.08570552 0.892318844795227051 0.449549585580825806 -0.0148764774203300476 -0.038090825080871582
44.4305076599121094 -28.6479072570800781 3.67344045639038086 369 1645007474.88729167 0.797642052173614502 0.60129624605178833 -0.0324821583926677704 -0.0339838601648807526
44.355743408203125 -25.0956954956054688 3.68540287017822266 370 1645007475.68748784 0.677723288536071777 0.733868658542633057 -0.0343198180198669434 -0.0308229811489582062
43.0370903015136719 -21.6636562347412109 3.69725513458251953 371 1645007476.58723116 0.531548619270324707 0.845200240612030029 -0.0479240491986274719 -0.0282117873430252075
40.6881637573242188 -19.2823429107666016 3.81330442428588867 372 1645007477.48932862 0.356227368116378784 0.932582676410675049 -0.0442888215184211731 -0.0378162488341331482
37.6253509521484375 -17.9593410491943359 3.99509596824645996 373 1645007478.28791976 0.169349461793899536 0.983750641345977783 -0.0458911620080471039 -0.0380708128213882446
33.5684814453125 -17.8656234741210938 4.25692367553710938 374 1645007479.18759131 -0.0123554328456521034 0.999081432819366455 -0.0277799554169178009 -0.0301985647529363632
28.3227348327636719 -18.5241451263427734 4.55675077438354492 375 1645007480.28689027 -0.061318475753068924 0.997631251811981201 -0.019827207550406456 -0.0240587256848812103
23.2117805480957031 -19.3058414459228516 4.80964803695678711 376 1645007481.28857136 -0.0807038694620132446 0.996196508407592773 -0.0220073685050010681 -0.0243950020521879196
17.8043098449707031 -20.1003837585449219 5.10492753982543945 377 1645007482.28826404 -0.0630453824996948242 0.997494697570800781 -0.0163905154913663864 -0.0275859814137220383
12.7313346862792969 -20.3714694976806641 5.36160898208618164 378 1645007483.18604159 -0.00443775905296206474 0.999578535556793213 -0.00759336026385426521 -0.0276655200868844986
7.45464134216308594 -20.3130416870117188 5.66158676147460938 379 1645007484.08759618 0.0057748802937567234 0.999519705772399902 -0.0102377384901046753 -0.0286747999489307404
2.13559889793395996 -20.1768550872802734 5.97248315811157227 380 1645007484.98752546 0.0117750391364097595 0.999249577522277832 -0.0176269896328449249 -0.0324176214635372162
-3.06803321838378906 -20.6197261810302734 6.33877801895141602 381 1645007485.88946342 -0.0728180035948753357 0.996370434761047363 -0.0219343062490224838 -0.0382416881620883942
-8.23414993286132812 -22.0444564819335938 6.73595046997070312 382 1645007486.88886976 -0.165576353669166565 0.9851493239402771 -0.0332980640232563019 -0.0309278350323438644
-13.1408014297485352 -24.5109634399414062 7.00006437301635742 383 1645007487.88946557 -0.254552692174911499 0.966623187065124512 -0.0256119761615991592 -0.0136607903987169266
-22.4042186737060547 -30.553070068359375 7.43599319458007812 384 1645007489.89026427 -0.279123604297637939 0.959870815277099609 0.0175344459712505341 -0.0207504648715257645
-28.0155372619628906 -35.8334579467773438 7.54653692245483398 385 1645007491.39013052 -0.441726714372634888 0.896196901798248291 0.0394563972949981689 -0.0123206377029418945
-31.5846004486083984 -44.1315193176269531 7.2051539421081543 386 1645007493.39058971 -0.56248939037322998 0.82592928409576416 0.0371939055621623993 0.00794400926679372787
-33.115631103515625 -51.9591445922851562 6.99933624267578125 387 1645007495.49026656 -0.675425827503204346 0.736961960792541504 0.0258161555975675583 -0.00453291786834597588
-34.278900146484375 -55.5720863342285156 7.02645206451416016 388 1645007496.58957624 -0.515677928924560547 0.855704307556152344 0.0319802351295948029 -0.0286994948983192444
-35.9145431518554688 -56.7560768127441406 7.09752416610717773 389 1645007497.18841267 -0.326659917831420898 0.944635629653930664 0.0205391682684421539 -0.0231293682008981705
-42.2948570251464844 -56.9402809143066406 7.27516889572143555 390 1645007499.19346952 0.0377237275242805481 0.999276399612426758 0.00435822037979960442 0.00213845260441303253
-49.3554458618164062 -56.6388587951660156 7.41249513626098633 391 1645007501.29246688 0.0144504401832818985 0.999805867671966553 0.0130729507654905319 -0.00291550997644662857
-52.5462837219238281 -57.4437408447265625 7.30443239212036133 392 1645007502.18884897 -0.158554494380950928 0.987083971500396729 0.0127874733880162239 0.0190309807658195496
-54.9754905700683594 -59.4263420104980469 7.10273361206054688 393 1645007502.89394832 -0.34124302864074707 0.939084291458129883 0.0333499088883399963 0.0236985329538583755
-57.1561813354492188 -62.7652626037597656 6.84516382217407227 394 1645007503.69203949 -0.50307387113571167 0.863691866397857666 0.0255825649946928024 0.0172798316925764084
-58.6445808410644531 -68.6603775024414062 6.38036727905273438 395 1645007504.69459677 -0.649527370929718018 0.759396255016326904 0.0198499243706464767 0.0322110354900360107
-59.3051490783691406 -83.2325668334960938 5.17531013488769531 396 1645007506.78662181 -0.688974440097808838 0.723549604415893555 0.0339069478213787079 0.0253077186644077301
-60.0144691467285156 -97.924591064453125 3.97120356559753418 397 1645007508.79254436 -0.700403213500976562 0.712303757667541504 0.0402302555739879608 0.0209808219224214554
-56.8273887634277344 -113.99658203125 2.45940208435058594 398 1645007510.8868928 -0.81088632345199585 0.582712531089782715 0.0526764020323753357 0.0116061931475996971
-48.9756584167480469 -128.92626953125 1.07639920711517334 399 1645007512.88722396 -0.894490838050842285 0.445776611566543579 0.0341855175793170929 0.000816664367448538542
-36.4360771179199219 -142.25872802734375 -0.300506263971328735 400 1645007514.98562336 -0.925330221652984619 0.378042727708816528 0.0253552235662937164 0.0143090132623910904
-23.4234161376953125 -154.5428466796875 -1.74451923370361328 401 1645007516.98722339 -0.927764713764190674 0.370657444000244141 0.036533840000629425 0.0230430550873279572
-9.83969306945800781 -167.775009155273438 -3.18283319473266602 402 1645007519.08484292 -0.924364030361175537 0.379295319318771362 0.0390400141477584839 0.0127300526946783066
3.06168818473815918 -180.2763671875 -4.27800321578979492 403 1645007521.08860159 -0.928096771240234375 0.371185332536697388 0.0259042084217071533 0.0136696677654981613
16.43841552734375 -192.485733032226562 -4.91451740264892578 404 1645007523.18652701 -0.934636890888214111 0.35555499792098999 -0.00443945406004786491 0.00384357688017189503
28.8264961242675781 -203.043319702148438 -5.30622243881225586 405 1645007525.18674135 -0.941598117351531982 0.33672681450843811 0.00260958448052406311 -0.00110948202200233936
42.078125 -210.909408569335938 -5.3059840202331543 406 1645007527.2848208 -0.981062829494476318 0.193663746118545532 -0.00128576683346182108 -0.00290831993333995342
55.8093910217285156 -214.613235473632812 -5.29048299789428711 407 1645007529.3845818 -0.995459258556365967 0.0936492457985877991 -0.00291068875230848789 -0.0167991910129785538
69.767120361328125 -215.45599365234375 -5.32019901275634766 408 1645007531.48349023 -0.999946177005767822 -0.00379489362239837646 0.00156851077917963266 -0.00953018665313720703
82.9198532104492188 -214.157363891601562 -5.28836584091186523 409 1645007533.48463011 -0.997750699520111084 -0.0653917416930198669 -0.000654579256661236286 -0.0147311240434646606
96.118927001953125 -213.216171264648438 -5.31148910522460938 410 1645007535.48567772 -0.999589800834655762 -0.0262409914284944534 -2.13604525924893096e-05 -0.0114758051931858063
110.033432006835938 -212.796554565429688 -5.35684299468994141 411 1645007537.58482981 -0.999994754791259766 -0.00166407681535929441 0.0018771318718791008 -0.00205021188594400883
123.3006591796875 -212.391677856445312 -5.39933586120605469 412 1645007539.58611202 -0.999890267848968506 -0.013356674462556839 0.00174629141110926867 -0.00616037985309958458
136.496963500976562 -211.669876098632812 -5.38636636734008789 413 1645007541.58730459 -0.99954521656036377 -0.0260327402502298355 -0.00786717887967824936 -0.0130295474082231522
150.254165649414062 -210.91943359375 -5.31615114212036133 414 1645007543.68602514 -0.999630510807037354 -0.0220874939113855362 -0.00709612015634775162 -0.0141623886302113533
163.2825927734375 -210.323516845703125 -5.15009498596191406 415 1645007545.68853164 -0.999611437320709229 -0.0203063935041427612 -0.0107673844322562218 -0.0157686565071344376
176.721115112304688 -209.548416137695312 -4.80197286605834961 416 1645007547.78511882 -0.999355792999267578 -0.025715777650475502 -0.0198125261813402176 -0.0153037728741765022
189.416824340820312 -209.028579711914062 -4.40771102905273438 417 1645007549.78597832 -0.999638915061950684 -0.0210582427680492401 -0.0158514007925987244 -0.00522328494116663933
194.481369018554688 -208.59149169921875 -4.24010896682739258 418 1645007550.58592415 -0.998503267765045166 -0.0512473396956920624 -0.0190681889653205872 0.00117116188630461693
199.482315063476562 -207.578750610351562 -4.10546207427978516 419 1645007551.38606095 -0.993540585041046143 -0.113442912697792053 -0.00173866050317883492 -0.00217926665209233761
204.392913818359375 -206.245147705078125 -3.96901988983154297 420 1645007552.19090271 -0.991333186626434326 -0.12942148745059967 -0.0195695776492357254 -0.0112077025696635246
209.277496337890625 -204.8717041015625 -3.83006930351257324 421 1645007552.98641992 -0.990121424198150635 -0.139079585671424866 -0.0143978297710418701 -0.0104441707953810692
214.139389038085938 -203.377105712890625 -3.69600033760070801 422 1645007553.78709722 -0.989437758922576904 -0.143619656562805176 -0.0166154839098453522 -0.0104990061372518539
218.966796875 -201.80767822265625 -3.56032896041870117 423 1645007554.58591938 -0.988998234272003174 -0.144024267792701721 -0.0210911855101585388 -0.026355396956205368
223.866195678710938 -200.424774169921875 -3.4073185920715332 424 1645007555.38692832 -0.991779685020446777 -0.124750800430774689 -0.0203846544027328491 -0.0198690425604581833
228.756454467773438 -199.227188110351562 -3.2445979118347168 425 1645007556.18571877 -0.992856621742248535 -0.115266613662242889 -0.0269319694489240646 -0.0149680152535438538
233.706756591796875 -198.130218505859375 -3.0850372314453125 426 1645007556.98577642 -0.994410216808319092 -0.102001480758190155 -0.0246842019259929657 -0.0116062033921480179
238.662185668945312 -197.081634521484375 -2.92335009574890137 427 1645007557.78687572 -0.995259761810302734 -0.0946348682045936584 -0.019488748162984848 -0.0110671455040574074
243.616455078125 -196.114456176757812 -2.77465367317199707 428 1645007558.58564997 -0.995407938957214355 -0.0933165326714515686 -0.021279534325003624 -0.00150753592606633902
248.624191284179688 -195.124786376953125 -2.64114189147949219 429 1645007559.391505 -0.995717465877532959 -0.0910261422395706177 -0.0152870938181877136 -0.00522138271480798721
254.137069702148438 -194.054931640625 -2.44217491149902344 430 1645007560.28661776 -0.99638831615447998 -0.0816499367356300354 -0.0202317666262388229 -0.0115893594920635223
259.48321533203125 -193.16015625 -2.2683570384979248 431 1645007561.18819928 -0.997135400772094727 -0.0710925683379173279 -0.020616382360458374 -0.0155502082780003548
264.7425537109375 -192.588333129882812 -2.07984352111816406 432 1645007562.18788671 -0.998622357845306396 -0.0490621030330657959 -0.00988165661692619324 -0.0157694835215806961
273.280059814453125 -190.880081176757812 -1.80899357795715332 433 1645007564.28787422 -0.988986194133758545 -0.146913662552833557 -0.015316997654736042 -0.0093839084729552269
282.607757568359375 -187.709197998046875 -1.47665441036224365 434 1645007566.28823042 -0.986319005489349365 -0.163195505738258362 -0.00136526196729391813 0.0232414007186889648
292.320892333984375 -184.242828369140625 -1.14380955696105957 435 1645007568.28872848 -0.984388887882232666 -0.174692869186401367 -0.0168805085122585297 0.0132653554901480675
302.299163818359375 -180.264862060546875 -0.804382026195526123 436 1645007570.28942204 -0.980075955390930176 -0.196876853704452515 -0.0251861251890659332 -0.007505832239985466
311.491546630859375 -176.07489013671875 -0.250397831201553345 437 1645007572.38365579 -0.978307902812957764 -0.204267695546150208 -0.0340275727212429047 -0.00551909394562244415
319.51409912109375 -172.281524658203125 0.252658158540725708 438 1645007574.38388991 -0.96664273738861084 -0.254331082105636597 -0.0302043594419956207 0.00228024600073695183
322.724395751953125 -169.055496215820312 0.478125602006912231 439 1645007575.48282361 -0.89860999584197998 -0.437998741865158081 -0.0255577340722084045 0.00200037891045212746
323.618499755859375 -166.29388427734375 0.578515112400054932 440 1645007576.18512797 -0.796197712421417236 -0.604537546634674072 -0.0226708929985761642 0.0094682713970541954
323.534820556640625 -163.511886596679688 0.884286642074584961 441 1645007576.88530469 -0.682191312313079834 -0.727954626083374023 -0.03598785400390625 0.0583258122205734253
321.846923828125 -158.482009887695312 1.5723874568939209 442 1645007578.38302064 -0.555266678333282471 -0.82882225513458252 -0.0420488305389881134 0.0544471442699432373
319.20770263671875 -154.12420654296875 2.18327164649963379 443 1645007579.78276467 -0.479919552803039551 -0.875390112400054932 -0.0393485873937606812 0.0426741912961006165
314.377197265625 -148.095611572265625 3.04807591438293457 444 1645007581.78302217 -0.401561230421066284 -0.913260102272033691 -0.0459402091801166534 0.0509322471916675568
308.02203369140625 -142.967041015625 3.8992469310760498 445 1645007583.78346562 -0.293224543333053589 -0.954632580280303955 -0.0277606882154941559 0.0438793376088142395
299.7906494140625 -138.6092529296875 4.684326171875 446 1645007585.88431907 -0.241597741842269897 -0.969094336032867432 -0.0315448865294456482 0.0386221781373023987
295.22003173828125 -136.163558959960938 5.10597944259643555 447 1645007586.98382378 -0.250219106674194336 -0.967066049575805664 -0.0313839279115200043 0.0344776511192321777
290.425750732421875 -133.612060546875 5.47628307342529297 448 1645007588.08615184 -0.243123859167098999 -0.969091951847076416 -0.030122712254524231 0.0290560182183980942
285.948516845703125 -131.092025756835938 5.66662359237670898 449 1645007589.08733869 -0.285607874393463135 -0.95810312032699585 -0.0213243253529071808 -0.00343744992278516293
281.44781494140625 -128.034011840820312 5.88988399505615234 450 1645007590.18600488 -0.283668696880340576 -0.958621501922607422 -0.0114908032119274139 0.021092703565955162
276.92437744140625 -125.184226989746094 6.01793479919433594 451 1645007591.18858075 -0.277969419956207275 -0.96039426326751709 -0.0004975314368493855 0.0193800795823335648
272.50323486328125 -122.377151489257812 6.08551311492919922 452 1645007592.08822799 -0.279327750205993652 -0.960103034973144531 0.00781557802110910416 0.0108188120648264885
267.847137451171875 -119.363937377929688 6.11054706573486328 453 1645007592.98182344 -0.288402467966079712 -0.95744556188583374 0.010735667310655117 -0.00259371683932840824
263.65155029296875 -116.469390869140625 6.18969345092773438 454 1645007593.78787398 -0.308741629123687744 -0.951093077659606934 -0.00111752923112362623 0.00996821839362382889
259.658355712890625 -113.263031005859375 6.21680879592895508 455 1645007594.58206558 -0.340599238872528076 -0.940163731575012207 0.0087294410914182663 0.00284289754927158356
255.37127685546875 -109.282661437988281 6.23093128204345703 456 1645007595.48118711 -0.38309440016746521 -0.923658549785614014 0.00823336467146873474 0.00508314231410622597
247.101699829101562 -99.1230010986328125 6.21839809417724609 457 1645007597.48230648 -0.468138009309768677 -0.883488893508911133 0.0160074979066848755 -0.00615695212036371231
242.060760498046875 -90.72161865234375 6.255859375 458 1645007598.98270035 -0.518869996070861816 -0.854818284511566162 -0.003622009651735425 0.00682151736691594124
240.092453002929688 -85.8836135864257812 6.29228878021240234 459 1645007599.78136086 -0.582787692546844482 -0.812617361545562744 -0.00165011105127632618 0.00295956362970173359
237.879776000976562 -72.9892730712890625 6.31937646865844727 460 1645007601.78140306 -0.673527181148529053 -0.73913806676864624 0.00179650925565510988 0.00572574557736515999
237.047698974609375 -59.2463951110839844 6.36941146850585938 461 1645007603.88198018 -0.66573035717010498 -0.746007621288299561 0.00842409022152423859 0.0143079347908496857
236.008026123046875 -54.3255577087402344 6.40003681182861328 462 1645007604.68089581 -0.604167759418487549 -0.796577334403991699 0.0187215600162744522 0.00976501684635877609
233.501922607421875 -49.7916412353515625 6.43862819671630859 463 1645007605.58083081 -0.474686324596405029 -0.88006514310836792 0.0110001657158136368 -0.00610250839963555336
227.25146484375 -44.2847785949707031 6.52145099639892578 464 1645007607.0810082 -0.305535048246383667 -0.95206141471862793 -0.0137852365151047707 0.00611009588465094566
216.678863525390625 -38.1249656677246094 6.50995016098022461 465 1645007609.08159995 -0.244100615382194519 -0.969732880592346191 -0.00573672447353601456 -0.000339248392265290022
206.7412109375 -32.5541763305664062 6.51831674575805664 466 1645007611.0819757 -0.280435472726821899 -0.95981299877166748 -0.0093005811795592308 0.0053321043960750103
197.605178833007812 -26.0447673797607422 6.60672330856323242 467 1645007613.08253884 -0.321648687124252319 -0.946613550186157227 -0.020459689199924469 0.00680533936247229576
187.689544677734375 -18.8713207244873047 6.76409196853637695 468 1645007615.08387136 -0.307557612657546997 -0.950941741466522217 -0.0319840535521507263 -0.00975405983626842499
178.126190185546875 -9.49371147155761719 6.94310140609741211 469 1645007617.18441987 -0.39101824164390564 -0.920279145240783691 -0.0103263678029179573 0.00918464642018079758
168.66900634765625 -0.176302999258041382 7.37525606155395508 470 1645007619.28490973 -0.38257145881652832 -0.923479199409484863 -0.0218248572200536728 0.0186795219779014587
159.4727783203125 9.1928253173828125 7.89828205108642578 471 1645007621.38466763 -0.404569923877716064 -0.914170384407043457 -0.0136051736772060394 0.020750630646944046
150.89202880859375 18.2621707916259766 8.374114990234375 472 1645007623.38496161 -0.394629895687103271 -0.91858285665512085 -0.0105135049670934677 0.0190323293209075928
141.88690185546875 27.2843494415283203 8.46191883087158203 473 1645007625.38668394 -0.391031205654144287 -0.92023169994354248 -0.00823213905096054077 -0.0141580021008849144
132.546600341796875 36.4985008239746094 8.40520954132080078 474 1645007627.38696814 -0.367361545562744141 -0.929401755332946777 -0.0281023960560560226 -0.02163713239133358
121.857627868652344 46.09075927734375 7.72438573837280273 475 1645007629.4867053 -0.35448986291885376 -0.935042679309844971 -0.00512410793453454971 0.00242987275123596191
111.733993530273438 54.6650962829589844 7.77810382843017578 476 1645007631.48835945 -0.346981137990951538 -0.935905098915100098 -0.0407797619700431824 0.04497499018907547
102.986984252929688 62.4985313415527344 7.62780952453613281 477 1645007633.48847771 -0.360196471214294434 -0.932841062545776367 -0.00277543021366000175 -0.00763919064775109291
95.9399566650390625 70.2294464111328125 7.68385887145996094 478 1645007635.58857417 -0.412740796804428101 -0.910747885704040527 -0.0132290050387382507 0.0028872236143797636
92.4392547607421875 73.8492431640625 7.76638555526733398 479 1645007636.7830534 -0.364442199468612671 -0.931184351444244385 -0.00140112591907382011 0.00869811978191137314
90.0498046875 74.9152679443359375 7.76835203170776367 480 1645007637.48245287 -0.178708583116531372 -0.983814775943756104 0.0130770811811089516 0.000851384131237864494
88.3133926391601562 74.7851486206054688 7.781402587890625 481 1645007637.98384857 0.0136645045131444931 -0.999668657779693604 0.0209847111254930496 -0.00595529982820153236
86.82171630859375 73.927398681640625 7.79123449325561523 482 1645007638.48779988 0.192017793655395508 -0.98136061429977417 0.00772877316921949387 -0.000886503490619361401
79.070068359375 67.9401626586914062 7.72631692886352539 483 1645007640.58472371 0.361276477575302124 -0.932458221912384033 -0.000594776181969791651 0.000811175908893346786
71.9459075927734375 59.149139404296875 7.68303632736206055 484 1645007642.58608508 0.499241411685943604 -0.866051554679870605 0.0196339469403028488 -0.0180879347026348114
70.8838729858398438 54.613739013671875 7.57868146896362305 485 1645007643.48505449 0.641447544097900391 -0.767000854015350342 0.000680606055539101362 -0.015947854146361351
68.79840087890625 44.358978271484375 7.30972719192504883 486 1645007645.5804894 0.538876116275787354 -0.842248618602752686 -0.00698362523689866066 -0.0134560009464621544
61.9952125549316406 36.5390281677246094 6.98059320449829102 487 1645007647.38040471 0.382569044828414917 -0.923825085163116455 0.0011462171096354723 -0.0136685818433761597
52.3569145202636719 26.4282989501953125 6.57465505599975586 488 1645007649.48092675 0.399486452341079712 -0.916660964488983154 0.000736837799195200205 -0.0119471065700054169
42.9565238952636719 16.1077919006347656 6.54194784164428711 489 1645007651.58006001 0.379540801048278809 -0.925093233585357666 -0.0104295918717980385 0.00652465829625725746
