# .PCD v0.7 - Point Cloud Data file format
VERSION 0.7
FIELDS x y z intensity t qx qy qz qw
SIZE 4 4 4 4 8 4 4 4 4
TYPE F F F F F F F F F
COUNT 1 1 1 1 1 1 1 1 1
WIDTH 275
HEIGHT 1
VIEWPOINT 0 0 0 1 0 0 0
POINTS 275
DATA ascii
9.60993480682373047 -58.3607749938964844 4.30370855331420898 31 1645020889.58100343 0.0394811294972896576 0.998659312725067139 -0.00785672664642333984 -0.0325444377958774567
4.47686624526977539 -57.841827392578125 4.61475372314453125 32 1645020890.48138714 0.0586419999599456787 0.997725188732147217 -0.0108596738427877426 -0.0314270593225955963
-0.583630979061126709 -57.2193527221679688 4.95401096343994141 33 1645020891.38101935 0.0621505193412303925 0.997310459613800049 -0.0088904285803437233 -0.0378173701465129852
-5.61278820037841797 -56.8401718139648438 5.30977344512939453 34 1645020892.28300118 0.0295348018407821655 0.998692631721496582 -0.00950946100056171417 -0.040623493492603302
-11.1213035583496094 -56.8321075439453125 5.68018770217895508 35 1645020893.28308249 -0.00214982754550874233 0.999232590198516846 -0.00864485464990139008 -0.0381434671580791473
-16.569122314453125 -56.8999519348144531 6.03040695190429688 36 1645020894.28216553 -0.00444980710744857788 0.999438583850860596 -0.0139076896011829376 -0.0301543902605772018
-22.0108261108398438 -56.918121337890625 6.36586189270019531 37 1645020895.28347611 0.00721546309068799019 0.999249935150146484 -0.00881974212825298309 -0.0370095930993556976
-27.4440097808837891 -56.7937583923339844 6.69319534301757812 38 1645020896.28245187 0.0103389322757720947 0.999239146709442139 -0.0177075993269681931 -0.0331757105886936188
-32.8733367919921875 -56.7000999450683594 6.97159242630004883 39 1645020897.28242207 0.00837846100330352783 0.999551653861999512 -0.0110947238281369209 -0.0265178661793470383
-37.9785919189453125 -56.6668319702148438 7.14420318603515625 40 1645020898.38504815 0.00564266182482242584 0.99969792366027832 -0.00549260200932621956 0.023281637579202652
-42.9801177978515625 -56.557464599609375 7.3334197998046875 41 1645020900.38338947 0.0189396776258945465 0.999543428421020508 -0.00111773423850536346 -0.0235159825533628464
-48.1730766296386719 -56.3956069946289062 7.41992330551147461 42 1645020902.08233261 0.0106055764481425285 0.999877810478210449 0.0105078937485814095 -0.00463808514177799225
-53.1866912841796875 -57.7466049194335938 7.27118396759033203 43 1645020903.2823112 -0.195964112877845764 0.980127692222595215 0.0257588792592287064 0.0168595071882009506
-56.2667427062988281 -60.3121757507324219 7.02770137786865234 44 1645020904.08357549 -0.367469698190689087 0.929187119007110596 0.0303917825222015381 0.0255657080560922623
-58.0138702392578125 -63.3793487548828125 6.81244945526123047 45 1645020904.78357959 -0.525070130825042725 0.850238978862762451 0.0314942933619022369 0.0200785174965858459
-59.0985565185546875 -68.359283447265625 6.4158635139465332 46 1645020905.68261409 -0.648264765739440918 0.760313332080841064 0.0296546109020709991 0.0282323993742465973
-59.4976997375488281 -73.4772415161132812 5.97829580307006836 47 1645020906.48201346 -0.684426009654998779 0.727869391441345215 0.0347435399889945984 0.0236656181514263153
-59.5186233520507812 -78.87078857421875 5.54364156723022461 48 1645020907.28203702 -0.707783758640289307 0.704812943935394287 0.0403318218886852264 0.0255772694945335388
-59.5997505187988281 -84.1621856689453125 5.08263683319091797 49 1645020908.08221126 -0.690218150615692139 0.720923900604248047 0.0528354905545711517 0.0328023768961429596
-59.9327430725097656 -89.3334503173828125 4.75276899337768555 50 1645020908.9828608 -0.678835868835449219 0.732730686664581299 0.0456615090370178223 0.014235357753932476
-60.2077751159667969 -94.6366729736328125 4.23518514633178711 51 1645020909.88303137 -0.704187691211700439 0.706451058387756348 0.0574313811957836151 0.0418125651776790619
-60.0409355163574219 -99.620269775390625 3.84041333198547363 52 1645020910.68475509 -0.717987716197967529 0.694770157337188721 0.036505330353975296 0.0213396474719047546
-59.4220733642578125 -105.156608581542969 3.36038088798522949 53 1645020911.48370719 -0.753014028072357178 0.656382441520690918 0.0391678288578987122 0.0244512800127267838
-58.1574935913085938 -110.220245361328125 2.8625643253326416 54 1645020912.18480539 -0.798346161842346191 0.599937021732330322 0.048331044614315033 0.019572727382183075
-56.3527297973632812 -115.343559265136719 2.32085490226745605 55 1645020912.88702393 -0.815707743167877197 0.575698256492614746 0.0542154088616371155 0.0159084349870681763
-54.2420616149902344 -120.480270385742188 1.80552005767822266 56 1645020913.58349013 -0.832746505737304688 0.551417350769042969 0.0494531169533729553 0.00514724478125572205
-51.7488059997558594 -125.545639038085938 1.38739860057830811 57 1645020914.28313279 -0.857963383197784424 0.51194608211517334 0.042172510176897049 0.00561822345480322838
-48.4843940734863281 -130.181900024414062 1.01465439796447754 58 1645020914.98466253 -0.908290624618530273 0.416390210390090942 0.0360953249037265778 0.01801331527531147
-44.4927291870117188 -134.194259643554688 0.593953609466552734 59 1645020915.68461108 -0.921475052833557129 0.385646551847457886 0.0464801192283630371 0.000138702103868126869
-40.6317024230957031 -138.380462646484375 0.149667426943778992 60 1645020916.38470078 -0.916111528873443604 0.398723393678665161 0.0398171581327915192 0.0131898541003465652
-36.6286773681640625 -142.468917846679688 -0.295033305883407593 61 1645020917.08608246 -0.924008190631866455 0.381059855222702026 0.0278812423348426819 0.014996514655649662
-32.4365653991699219 -146.434814453125 -0.734831273555755615 62 1645020917.78577638 -0.930192708969116211 0.364750146865844727 0.0370195694267749786 0.018123263493180275
-28.2184047698974609 -150.355194091796875 -1.20449674129486084 63 1645020918.48761201 -0.929335117340087891 0.366820007562637329 0.0352727584540843964 0.0231325123459100723
-23.9467906951904297 -154.240829467773438 -1.69570076465606689 64 1645020919.18685937 -0.930455029010772705 0.363986700773239136 0.036153014749288559 0.0214486774057149887
-19.6785717010498047 -158.115219116210938 -2.11057305335998535 65 1645020919.88707542 -0.93211442232131958 0.359723031520843506 0.0333662144839763641 0.025470539927482605
-15.3920707702636719 -161.9576416015625 -2.5553891658782959 66 1645020920.58552957 -0.930780410766601562 0.363299518823623657 0.0354558117687702179 0.0201035086065530777
-11.6716222763061523 -165.278030395507812 -2.96278262138366699 67 1645020921.18725324 -0.932882845401763916 0.357465684413909912 0.0413977429270744324 0.0153014501556754112
-7.4613037109375 -169.199295043945312 -3.3692009449005127 68 1645020921.88590169 -0.926355183124542236 0.375062137842178345 0.0327093861997127533 0.011159917339682579
-3.32338690757751465 -173.194503784179688 -3.74003911018371582 69 1645020922.5862093 -0.923175394535064697 0.382957726716995239 0.0314403176307678223 0.01010146364569664
0.713913261890411377 -177.232711791992188 -4.06646490097045898 70 1645020923.28746748 -0.919957399368286133 0.391172885894775391 0.0232510846108198166 0.0110262418165802956
4.72063350677490234 -181.241043090820312 -4.37314701080322266 71 1645020923.98459697 -0.921826779842376709 0.386558681726455688 0.0269988439977169037 0.00887640472501516342
8.65993118286132812 -185.223739624023438 -4.60987186431884766 72 1645020924.68581223 -0.92410123348236084 0.381544530391693115 0.0164698828011751175 0.0137610360980033875
12.5896139144897461 -188.949600219726562 -4.65184116363525391 73 1645020925.38687229 -0.929604768753051758 0.367526799440383911 -0.0275442935526371002 -0.000539494387339800596
16.5979385375976562 -192.636123657226562 -4.91298961639404297 74 1645020926.08931828 -0.93166273832321167 0.363195091485977173 -0.00727552780881524086 0.00639694277197122574
20.5416889190673828 -196.237777709960938 -5.07225418090820312 75 1645020926.78695655 -0.932135641574859619 0.361873924732208252 0.0105019975453615189 0.0077538476325571537
24.4448089599609375 -199.790023803710938 -5.2105259895324707 76 1645020927.48362279 -0.935109198093414307 0.353928089141845703 0.0158100631088018417 0.00746701657772064209
28.5885066986083984 -202.8984375 -5.29849576950073242 77 1645020928.18932724 -0.959727287292480469 0.280862659215927124 -5.91841171626583673e-06 0.00629695737734436989
32.923919677734375 -205.61676025390625 -5.34437894821166992 78 1645020928.88506722 -0.961874961853027344 0.273324906826019287 0.00824396591633558273 -0.00469541596248745918
37.2343902587890625 -208.225616455078125 -5.31972455978393555 79 1645020929.58397079 -0.965124130249023438 0.261625915765762329 -0.00232979888096451759 -0.00904544815421104431
41.6807403564453125 -210.584243774414062 -5.30272626876831055 80 1645020930.28780746 -0.975329458713531494 0.220716789364814758 -0.00332237733528017998 -0.00234434544108808041
46.9591827392578125 -212.573440551757812 -5.28826093673706055 81 1645020931.08351135 -0.986570239067077637 0.163283213973045349 0.00129722023848444223 -0.00401527993381023407
52.4352073669433594 -213.919464111328125 -5.27615785598754883 82 1645020931.88493752 -0.99406963586807251 0.108292758464813232 -0.00129353057127445936 -0.00982899684458971024
58.0710601806640625 -214.72747802734375 -5.30050897598266602 83 1645020932.68735719 -0.998090147972106934 0.059903312474489212 0.00150941254105418921 -0.0150120425969362259
63.6799468994140625 -215.159805297851562 -5.30922269821166992 84 1645020933.48359442 -0.999595165252685547 0.0264115594327449799 0.00133397220633924007 -0.0104940114542841911
69.339813232421875 -215.24554443359375 -5.3184361457824707 85 1645020934.28644085 -0.999962568283081055 0.000443731318227946758 0.00114626483991742134 -0.00856270268559455872
74.9704360961914062 -215.032623291015625 -5.31347179412841797 86 1645020935.08694625 -0.999696493148803711 -0.0241788066923618317 0.00111046247184276581 -0.004590615164488554
80.5665512084960938 -214.621795654296875 -5.28102445602416992 87 1645020935.88597631 -0.999548494815826416 -0.0275630578398704529 -0.000545356073416769505 -0.0119487084448337555
86.1806488037109375 -214.311813354492188 -5.26478719711303711 88 1645020936.68571353 -0.999731719493865967 -0.0178558025509119034 -0.00164316873997449875 -0.0146609824150800705
91.8036956787109375 -214.103775024414062 -5.26690244674682617 89 1645020937.487499 -0.999844014644622803 -0.00950730312615633011 0.00167424592655152082 -0.0147903338074684143
97.446624755859375 -213.981918334960938 -5.28235960006713867 90 1645020938.28885627 -0.999872863292694092 -0.00639786245301365852 -0.000649255758617073298 -0.014592672698199749
103.101585388183594 -213.941024780273438 -5.30786657333374023 91 1645020939.0864718 -0.999926626682281494 -0.000421755132265388966 0.003056360874325037 -0.0117119066417217255
108.754791259765625 -213.85015869140625 -5.3203883171081543 92 1645020939.8870368 -0.999882817268371582 -0.0151941748335957527 0.00070808647433295846 -0.00172754714731127024
114.415863037109375 -213.503524780273438 -5.35170602798461914 93 1645020940.69010329 -0.999643862247467041 -0.0253918822854757309 -0.000461667776107788086 -0.00819628965109586716
120.052200317382812 -213.079605102539062 -5.37051534652709961 94 1645020941.48712325 -0.999176621437072754 -0.039833996444940567 0.00243016774766147137 -0.00730969710275530815
125.692253112792969 -212.532333374023438 -5.38612604141235352 95 1645020942.29016185 -0.998958289623260498 -0.0433827117085456848 0.00117912993300706148 -0.0141039937734603882
131.343231201171875 -212.164352416992188 -5.38558340072631836 96 1645020943.08967376 -0.99962615966796875 -0.0211238060146570206 0.00125211640261113644 -0.0173147525638341904
136.91766357421875 -212.004486083984375 -5.35312891006469727 97 1645020943.88528275 -0.999810218811035156 -0.0102865807712078094 -0.00825803261250257492 -0.0143347913399338722
142.559524536132812 -211.8504638671875 -5.32532119750976562 98 1645020944.68610168 -0.999735176563262939 -0.0181150678545236588 0.00670989369973540306 -0.0125038037076592445
148.1453857421875 -211.591598510742188 -5.30510091781616211 99 1645020945.48510814 -0.999637603759765625 -0.0224677249789237976 -0.00147530087269842625 -0.0147550422698259354
153.755569458007812 -211.237991333007812 -5.23979854583740234 100 1645020946.29026103 -0.99951547384262085 -0.0268068984150886536 -0.00363395479507744312 -0.0153952883556485176
159.276077270507812 -210.879791259765625 -5.18011140823364258 101 1645020947.0848279 -0.999483048915863037 -0.028988715261220932 -0.00297215324826538563 -0.0135833369567990303
164.81195068359375 -210.619110107421875 -5.0842585563659668 102 1645020947.888026 -0.999793350696563721 -0.0133031764999032021 -0.00999387633055448532 -0.0116814905777573586
170.304061889648438 -210.529052734375 -4.95332431793212891 103 1645020948.68810081 -0.99985814094543457 -0.00505801057443022728 -0.0135897668078541756 -0.00857248995453119278
175.70965576171875 -210.5118408203125 -4.79114913940429688 104 1645020949.48460603 -0.999701380729675293 0.00963449291884899139 -0.0212626215070486069 -0.00722368527203798294
181.122177124023438 -210.412063598632812 -4.62388324737548828 105 1645020950.28384686 -0.999729394912719727 -0.0119654610753059387 -0.0169718153774738312 -0.0104828830808401108
186.501724243164062 -210.110015869140625 -4.46436643600463867 106 1645020951.0845542 -0.999336540699005127 -0.0333971194922924042 -0.0137673867866396904 -0.00464576669037342072
191.827285766601562 -209.52691650390625 -4.31928539276123047 107 1645020951.8833766 -0.997918188571929932 -0.063074849545955658 -0.0133235780522227287 -0.00181703944690525532
197.128005981445312 -208.678359985351562 -4.1421046257019043 108 1645020952.68550634 -0.996555209159851074 -0.0810671672224998474 -0.0173766221851110458 -0.00198344700038433075
202.388717651367188 -207.56787109375 -3.99283504486083984 109 1645020953.48464036 -0.993685066699981689 -0.110715873539447784 -0.0175058133900165558 -0.00505474535748362541
207.610748291015625 -206.219985961914062 -3.85877466201782227 110 1645020954.28557777 -0.992027819156646729 -0.124139398336410522 -0.0183311440050601959 -0.0115855243057012558
212.761505126953125 -204.689910888671875 -3.71838712692260742 111 1645020955.0845015 -0.989038050174713135 -0.146870717406272888 -0.0146461222320795059 -0.00426708860322833061
217.846221923828125 -202.993972778320312 -3.55640602111816406 112 1645020955.88497353 -0.986656248569488525 -0.160927340388298035 -0.0239741057157516479 -0.00609081098809838295
222.94342041015625 -201.280105590820312 -3.40758967399597168 113 1645020956.68555856 -0.987242043018341064 -0.157875210046768188 -0.0189571604132652283 -0.00831476133316755295
228.048049926757812 -199.6473388671875 -3.26094698905944824 114 1645020957.48488975 -0.988178372383117676 -0.150990575551986694 -0.0195425152778625488 -0.0179837793111801147
233.193817138671875 -198.139297485351562 -3.10367321968078613 115 1645020958.28491831 -0.990441620349884033 -0.135436937212944031 -0.0210406165570020676 -0.0154782775789499283
238.373382568359375 -196.798904418945312 -2.93497276306152344 116 1645020959.08605814 -0.993452072143554688 -0.112516723573207855 -0.0178023017942905426 -0.00871796999126672745
243.626449584960938 -195.811813354492188 -2.7777869701385498 117 1645020959.88526416 -0.99626535177230835 -0.0841221660375595093 -0.0194636322557926178 4.84536576550453901e-05
248.959915161132812 -195.138885498046875 -2.62530660629272461 118 1645020960.68916559 -0.998201310634613037 -0.0577760674059391022 -0.0159088876098394394 -0.00174209917895495892
254.205291748046875 -194.654006958007812 -2.42267799377441406 119 1645020961.48619032 -0.999007999897003174 -0.0382747650146484375 -0.0182998087257146835 -0.0135330986231565475
259.448486328125 -194.1634521484375 -2.23447418212890625 120 1645020962.28616929 -0.998410999774932861 -0.052193567156791687 -0.0204017609357833862 -0.00592300202697515488
264.644989013671875 -193.335174560546875 -2.04280638694763184 121 1645020963.08621526 -0.996402323246002197 -0.0811615362763404846 -0.0236934404820203781 -0.00581276929005980492
269.84326171875 -192.368133544921875 -1.87566864490509033 122 1645020963.88582015 -0.994705617427825928 -0.101012513041496277 -0.0185217615216970444 -0.00375767773948609829
275.010650634765625 -191.177108764648438 -1.7301706075668335 123 1645020964.68770289 -0.993028044700622559 -0.115911006927490234 -0.018810417503118515 -0.0103029171004891396
280.09222412109375 -189.7030029296875 -1.52898085117340088 124 1645020965.48571157 -0.98936927318572998 -0.142927318811416626 -0.0264739990234375 -0.00439968984574079514
285.10809326171875 -187.920486450195312 -1.38499069213867188 125 1645020966.28609443 -0.983336865901947021 -0.180614888668060303 -0.0199830494821071625 -0.00524416705593466759
290.0606689453125 -185.924118041992188 -1.21278321743011475 126 1645020967.08705926 -0.979746878147125244 -0.199126601219177246 -0.0204513650387525558 -0.00513954088091850281
294.9844970703125 -183.879547119140625 -1.06794893741607666 127 1645020967.88629651 -0.981310427188873291 -0.191405072808265686 -0.0149937877431511879 -0.013003278523683548
299.839752197265625 -181.752426147460938 -0.88545680046081543 128 1645020968.6868403 -0.979507744312286377 -0.198727965354919434 -0.0239614993333816528 -0.022307567298412323
304.610809326171875 -179.639678955078125 -0.665854692459106445 129 1645020969.48629022 -0.976873934268951416 -0.21180020272731781 -0.02682473324239254 -0.0117673780769109726
309.30242919921875 -177.514785766601562 -0.383316636085510254 130 1645020970.28906322 -0.978881180286407471 -0.201425880193710327 -0.0334403775632381439 -0.010050908662378788
313.9185791015625 -175.443862915039062 -0.0895457416772842407 131 1645020971.08737612 -0.976753413677215576 -0.21152070164680481 -0.0341767109930515289 -0.00660914229229092598
318.89935302734375 -172.894500732421875 0.227535098791122437 132 1645020971.98810267 -0.966468095779418945 -0.254673302173614502 -0.0326824188232421875 0.00357267842628061771
322.463348388671875 -169.56231689453125 0.47257542610168457 133 1645020972.78677392 -0.906210184097290039 -0.421865522861480713 -0.0261443331837654114 0.0113588087260723114
323.995849609375 -166.275543212890625 0.615145623683929443 134 1645020973.38812494 -0.816436469554901123 -0.576939284801483154 -0.0168980304151773453 0.0169413760304450989
324.220703125 -162.985214233398438 0.967058837413787842 135 1645020973.98738122 -0.67022019624710083 -0.738538980484008789 -0.0205821096897125244 0.070295289158821106
322.804962158203125 -159.78704833984375 1.38853216171264648 136 1645020974.68843722 -0.527948081493377686 -0.846209704875946045 -0.0477424450218677521 0.0540428571403026581
320.30963134765625 -155.449615478515625 2.01410269737243652 137 1645020975.78925776 -0.495281249284744263 -0.866932392120361328 -0.0350500345230102539 0.0435454510152339935
317.451385498046875 -150.8946533203125 2.60692620277404785 138 1645020977.08823776 -0.481508940458297729 -0.874518394470214844 -0.0343031100928783417 0.0467976219952106476
314.253387451171875 -147.007064819335938 3.16973876953125 139 1645020978.38814497 -0.401392072439193726 -0.913920164108276367 -0.0384599156677722931 0.0464234910905361176
310.282501220703125 -143.7191162109375 3.71188783645629883 140 1645020979.78879666 -0.317313611507415771 -0.946780145168304443 -0.0309834461659193039 0.0442650802433490753
305.88848876953125 -141.034637451171875 4.1682887077331543 141 1645020981.1900382 -0.257378876209259033 -0.965150654315948486 -0.0263916775584220886 0.0392905175685882568
301.0513916015625 -138.807357788085938 4.60532712936401367 142 1645020982.59073806 -0.203244581818580627 -0.978067517280578613 -0.0261987261474132538 0.0372718051075935364
296.39715576171875 -136.72857666015625 5.01252937316894531 143 1645020983.89155197 -0.232448101043701172 -0.971236884593963623 -0.0359026677906513214 0.0371186360716819763
291.810089111328125 -134.040771484375 5.4021754264831543 144 1645020985.19294739 -0.26754295825958252 -0.962741553783416748 -0.0276758559048175812 0.027991369366645813
287.283843994140625 -131.68206787109375 5.63070058822631836 145 1645020986.49162245 -0.227658390998840332 -0.973634958267211914 -0.0140697946771979332 0.00294420239515602589
282.643707275390625 -129.022140502929688 5.82892322540283203 146 1645020988.09552932 -0.278259336948394775 -0.960248053073883057 -0.0156197389587759972 0.0158555712550878525
278.28338623046875 -125.975189208984375 5.99338960647583008 147 1645020989.39212155 -0.30677717924118042 -0.951651811599731445 -0.00293261208571493626 0.0154284937307238579
273.978179931640625 -123.019264221191406 6.06742238998413086 148 1645020990.49342203 -0.293695062398910522 -0.955799639225006104 0.00880971085280179977 0.0106135886162519455
269.613128662109375 -120.119804382324219 6.11431026458740234 149 1645020991.49225426 -0.288195192813873291 -0.957473695278167725 0.0126949651166796684 0.00514406664296984673
265.3897705078125 -117.326362609863281 6.16137552261352539 150 1645020992.39241767 -0.293410360813140869 -0.955928921699523926 0.00404190877452492714 0.00969077087938785553
261.150482177734375 -114.074638366699219 6.21005392074584961 151 1645020993.29137278 -0.341890424489974976 -0.939668893814086914 0.00872604921460151672 0.00755874160677194595
257.444366455078125 -110.6876220703125 6.21824359893798828 152 1645020994.09102869 -0.365271270275115967 -0.930828750133514404 0.00665244041010737419 0.00951161421835422516
253.763626098632812 -106.968757629394531 6.22221279144287109 153 1645020994.89363384 -0.403768032789230347 -0.914768218994140625 0.0117069268599152565 0.00578376138582825661
250.207489013671875 -102.957687377929688 6.24536991119384766 154 1645020995.69086504 -0.422554433345794678 -0.90624547004699707 0.0101609956473112106 0.00797959417104721069
246.887039184570312 -98.5743865966796875 6.21368646621704102 155 1645020996.49232864 -0.461380869150161743 -0.887143552303314209 0.00814339332282543182 -0.00613772124052047729
244.10028076171875 -93.8103485107421875 6.22997236251831055 156 1645020997.29346204 -0.519594192504882812 -0.854389667510986328 -0.00535244634374976158 -0.00339927617460489273
242.020370483398438 -88.7015533447265625 6.27094554901123047 157 1645020998.09245872 -0.572200775146484375 -0.820101320743560791 0.0021553821861743927 0.00393331283703446388
240.491836547851562 -83.3968734741210938 6.29053497314453125 158 1645020998.89181018 -0.607924878597259521 -0.793922185897827148 0.00733363442122936249 0.00781705137342214584
239.170440673828125 -78.0011672973632812 6.30383205413818359 159 1645020999.69534779 -0.622785985469818115 -0.782325267791748047 0.00914554949849843979 0.00459465105086565018
238.070602416992188 -72.5968704223632812 6.3244624137878418 160 1645021000.49306297 -0.63754802942276001 -0.77035069465637207 0.00705687236040830612 0.00652367155998945236
237.191085815429688 -67.3406219482421875 6.33497953414916992 161 1645021001.28812146 -0.649860084056854248 -0.760006904602050781 0.0076855081133544445 0.00351339159533381462
236.526535034179688 -62.322265625 6.34864473342895508 162 1645021002.09057593 -0.682900369167327881 -0.730488419532775879 -0.00136394903529435396 0.00564973894506692886
235.9962158203125 -57.0165634155273438 6.41557598114013672 163 1645021002.98958325 -0.677812457084655762 -0.734947860240936279 0.000508668366819620132 0.0205342918634414673
234.597137451171875 -51.7725982666015625 6.46719646453857422 164 1645021003.89159203 -0.568597137928009033 -0.82229989767074585 0.0131308762356638908 0.0186469051986932755
231.368743896484375 -47.7306976318359375 6.4907374382019043 165 1645021004.7900691 -0.384847790002822876 -0.922902047634124756 -0.00378026091493666172 -0.0113893486559391022
226.913131713867188 -44.89703369140625 6.53112363815307617 166 1645021005.69234896 -0.253847271203994751 -0.96723020076751709 -0.00513924797996878624 0.000960562843829393387
221.918365478515625 -42.3809280395507812 6.52665090560913086 167 1645021006.59408784 -0.239402949810028076 -0.970733106136322021 -0.0190317798405885696 -0.00110711820889264345
217.320693969726562 -40.0236701965332031 6.51793289184570312 168 1645021007.38923264 -0.236289441585540771 -0.971411347389221191 -0.0225945357233285904 -0.0041016722097992897
212.665573120117188 -37.3908233642578125 6.51142406463623047 169 1645021008.18997598 -0.268968522548675537 -0.963069379329681396 -0.00917526986449956894 0.00831591244786977768
208.014205932617188 -34.4718666076660156 6.50168752670288086 170 1645021008.99030042 -0.284094274044036865 -0.958663880825042725 -0.0148414066061377525 -0.00581066729500889778
203.452346801757812 -31.3750057220458984 6.51734018325805664 171 1645021009.79018521 -0.300903916358947754 -0.953330397605895996 -0.0234359856694936752 -0.00829109642654657364
199.087921142578125 -28.0354461669921875 6.54781579971313477 172 1645021010.59147191 -0.331924855709075928 -0.94309312105178833 -0.0199567414820194244 -0.00171427708119153976
194.856613159179688 -24.5786628723144531 6.67216968536376953 173 1645021011.39154577 -0.351279854774475098 -0.935742616653442383 -0.0312428101897239685 0.00348665798082947731
190.684432983398438 -21.0979080200195312 6.75525665283203125 174 1645021012.1912744 -0.346892684698104858 -0.937141954898834229 -0.0375361442565917969 -0.00463732145726680756
186.623886108398438 -17.4441146850585938 6.79330635070800781 175 1645021012.99442673 -0.368436992168426514 -0.928782522678375244 -0.0384138301014900208 -0.0118988007307052612
182.871002197265625 -13.5157804489135742 6.81050205230712891 176 1645021013.78975677 -0.400147378444671631 -0.916123628616333008 -0.0243451446294784546 -0.00262812734581530094
179.027267456054688 -9.64811515808105469 6.93145895004272461 177 1645021014.59071112 -0.386423766613006592 -0.921949863433837891 -0.0246641021221876144 -0.00876210629940032959
175.159835815429688 -5.95425224304199219 7.09727048873901367 178 1645021015.39243293 -0.372203648090362549 -0.92726743221282959 -0.0404134094715118408 0.00250963028520345688
171.383743286132812 -2.20587778091430664 7.26614809036254883 179 1645021016.19126296 -0.378980517387390137 -0.92487335205078125 -0.0308321230113506317 0.00569509435445070267
167.654769897460938 1.55588531494140625 7.46932649612426758 180 1645021016.99171638 -0.385439842939376831 -0.92242664098739624 -0.0196234267204999924 0.0134208938106894493
163.890060424804688 5.20511913299560547 7.69884061813354492 181 1645021017.79198742 -0.369438588619232178 -0.929092288017272949 -0.0145554440096020699 0.00952533818781375885
160.087432861328125 8.72949886322021484 7.87296295166015625 182 1645021018.59390736 -0.372588545083999634 -0.927635908126831055 -0.0172476638108491898 0.0192852914333343506
156.2989501953125 12.244471549987793 8.06479549407958984 183 1645021019.39190555 -0.364363938570022583 -0.930992424488067627 -0.0209745336323976517 0.00721820583567023277
152.656143188476562 15.8813247680664062 8.26419639587402344 184 1645021020.19248271 -0.384397000074386597 -0.922866463661193848 -0.0165701862424612045 0.0167885329574346542
149.067672729492188 19.5540809631347656 8.46713542938232422 185 1645021020.99181294 -0.394645273685455322 -0.918599247932434082 -0.0133927194401621819 0.0158495772629976273
145.4915771484375 23.3649864196777344 8.54393291473388672 186 1645021021.7915318 -0.380638331174850464 -0.924452006816864014 0.0184968095272779465 -0.0126800825819373131
141.660263061523438 26.9996833801269531 8.44507217407226562 187 1645021022.59322715 -0.370330363512039185 -0.928822815418243408 -0.00214953976683318615 -0.0117885693907737732
137.531036376953125 30.4893875122070312 8.39822864532470703 188 1645021023.39206409 -0.346743285655975342 -0.937452316284179688 -0.0307067427784204483 -0.0030636501032859087
133.348953247070312 34.1170158386230469 8.36049652099609375 189 1645021024.19318962 -0.355765819549560547 -0.933798611164093018 -0.0331689640879631042 -0.0187254194170236588
129.259140014648438 37.879302978515625 8.26903915405273438 190 1645021024.99127936 -0.370025068521499634 -0.92785334587097168 -0.0453549586236476898 -0.0106103746220469475
125.626724243164062 41.4708671569824219 7.88242244720458984 191 1645021025.69602275 -0.383427351713180542 -0.9222412109375 -0.0229140296578407288 -0.0439265593886375427
122.070777893066406 45.0667152404785156 7.71513462066650391 192 1645021026.39256549 -0.381649702787399292 -0.924153983592987061 -0.0136338155716657639 -0.00985046941787004471
118.474235534667969 48.6306800842285156 7.71299552917480469 193 1645021027.09465885 -0.384795784950256348 -0.922902047634124756 -0.0123939737677574158 -0.00551472511142492294
114.455726623535156 52.6375350952148438 7.70709562301635742 194 1645021027.89285183 -0.380778342485427856 -0.92460024356842041 -0.0110560115426778793 6.34824391454458237e-05
110.574485778808594 56.4969940185546875 7.6786036491394043 195 1645021028.69819641 -0.38430371880531311 -0.922627091407775879 -0.0210440270602703094 0.0250411871820688248
106.677719116210938 60.2287368774414062 7.69405412673950195 196 1645021029.49755502 -0.368144810199737549 -0.929713189601898193 -0.0100844167172908783 0.00102600804530084133
102.77154541015625 64.0439910888671875 7.66998767852783203 197 1645021030.29875708 -0.387392163276672363 -0.921854734420776367 -0.00989261828362941742 -0.00365176075138151646
98.9270706176757812 67.9540481567382812 7.67246532440185547 198 1645021031.09553313 -0.393561363220214844 -0.919171273708343506 -0.0147325647994875908 0.00406617671251296997
95.138763427734375 71.9877395629882812 7.7105560302734375 199 1645021031.89643645 -0.405028164386749268 -0.914255380630493164 -0.00911547336727380753 -0.00248990743421018124
91.5011978149414062 76.0557785034179688 7.80127906799316406 200 1645021032.69744921 -0.411880731582641602 -0.91121596097946167 -0.00404802709817886353 0.00483069755136966705
87.9720687866210938 80.1401443481445312 7.86017656326293945 201 1645021033.49833298 -0.409275144338607788 -0.912123382091522217 -0.0102877207100391388 0.0204680506139993668
84.3738861083984375 84.2667236328125 7.88057613372802734 202 1645021034.29842353 -0.418914437294006348 -0.907977879047393799 -0.00176425534300506115 0.00915134791284799576
80.685272216796875 88.2799911499023438 7.90180158615112305 203 1645021035.09847736 -0.393259733915328979 -0.919287979602813721 0.0119180465117096901 0.0106936609372496605
76.7715225219726562 92.0785598754882812 7.94544601440429688 204 1645021035.89712977 -0.369749635457992554 -0.929062902927398682 0.0040288199670612812 0.0105394963175058365
72.7103424072265625 95.9099197387695312 7.88658237457275391 205 1645021036.69912338 -0.367086440324783325 -0.928725719451904297 0.0234066415578126907 -0.0465636104345321655
68.9553298950195312 99.698028564453125 7.93208456039428711 206 1645021037.49963784 -0.394335746765136719 -0.918916285037994385 0.00164468702860176563 0.00945846270769834518
65.2495498657226562 103.719711303710938 7.90008640289306641 207 1645021038.29693413 -0.415567100048065186 -0.909460067749023438 -0.00205233716405928135 -0.0134955355897545815
62.1718330383300781 108.298355102539062 7.86806201934814453 208 1645021039.19650578 -0.513884663581848145 -0.857857644557952881 -0.00149641965981572866 -0.000738360162358731031
61.1728973388671875 112.0400390625 7.831329345703125 209 1645021039.89578223 -0.656753897666931152 -0.753391802310943604 -0.00111298414412885904 -0.0327693819999694824
61.6604690551757812 115.045112609863281 7.78004789352416992 210 1645021040.49527454 -0.784726381301879883 -0.618806838989257812 -0.00137531210202723742 -0.0357860177755355835
63.1968193054199219 117.470909118652344 7.74359512329101562 211 1645021041.09549522 -0.885251522064208984 -0.464057117700576782 0.00135645736008882523 -0.0312878899276256561
65.3644256591796875 119.039932250976562 7.6934971809387207 212 1645021041.69562507 -0.95701134204864502 -0.287683963775634766 0.0167580246925354004 -0.0329599305987358093
68.0751953125 119.630416870117188 7.72583675384521484 213 1645021042.39713669 -0.995933592319488525 -0.0856758728623390198 -0.0198674649000167847 -0.019525161013007164
71.0818405151367188 119.162681579589844 7.71705913543701172 214 1645021043.09529614 -0.99584496021270752 0.0907721370458602905 0.00588907813653349876 -0.00431077415123581886
74.8871078491210938 117.091651916503906 7.69223690032958984 215 1645021043.99444008 -0.962179839611053467 0.272373795509338379 -0.000774515909142792225 0.00468013063073158264
78.908050537109375 113.506866455078125 7.68532085418701172 216 1645021044.99316025 -0.92413407564163208 0.382060110569000244 -0.0015305839478969574 0.00199012993834912777
82.376373291015625 109.548385620117188 7.67387962341308594 217 1645021045.893291 -0.908482372760772705 0.417534172534942627 -0.0159108247607946396 0.00847651995718479156
85.9230270385742188 105.238677978515625 7.67232418060302734 218 1645021046.79414558 -0.903868794441223145 0.427403002977371216 -0.0127687482163310051 0.0135946935042738914
89.3811264038085938 101.384048461914062 7.65043735504150391 219 1645021047.5942111 -0.917329192161560059 0.397828042507171631 -0.00962169654667377472 0.0121394209563732147
93.1270294189453125 97.5122756958007812 7.62705039978027344 220 1645021048.3937633 -0.921626448631286621 0.387749403715133667 -0.00496731884777545929 0.0151785127818584442
97.0634307861328125 93.7392501831054688 7.62348031997680664 221 1645021049.19381976 -0.927758634090423584 0.372806012630462646 -0.00746587105095386505 0.0149620873853564262
101.093597412109375 90.000396728515625 7.62406635284423828 222 1645021049.99402905 -0.929971992969512939 0.367197573184967041 -0.00644137710332870483 0.0166312344372272491
104.922157287597656 86.113128662109375 7.65438270568847656 223 1645021050.79414868 -0.920538604259490967 0.389260947704315186 -0.0288021452724933624 0.0159702971577644348
108.203117370605469 82.063385009765625 7.66928577423095703 224 1645021051.59565353 -0.88283836841583252 0.469655364751815796 -0.000886928231921046972 -0.00440998002886772156
109.547966003417969 78.3477935791015625 7.75532197952270508 225 1645021052.29586387 -0.778660416603088379 0.627180993556976318 0.0012222361983731389 -0.0181779284030199051
109.264968872070312 75.2437286376953125 7.73877811431884766 226 1645021052.89598823 -0.636288881301879883 0.770722508430480957 0.0323018021881580353 -0.00893708504736423492
107.848503112792969 72.83941650390625 7.73969364166259766 227 1645021053.49506974 -0.480774581432342529 0.876510381698608398 0.0236775185912847519 -0.00497025391086935997
105.847000122070312 71.2456130981445312 7.73518276214599609 228 1645021054.09511566 -0.316968798637390137 0.94801098108291626 0.028375282883644104 -0.000875244848430156708
103.357833862304688 70.5258331298828125 7.75194072723388672 229 1645021054.69639254 -0.125823885202407837 0.99174731969833374 0.0245358813554048538 -0.00190570740960538387
101.043495178222656 70.7464218139648438 7.71833944320678711 230 1645021055.19523835 0.0591959021985530853 0.997695446014404297 0.0292277578264474869 0.015665002167224884
94.0640869140625 77.6432952880859375 7.76321792602539062 231 1645021057.19734693 0.420506775379180908 0.907029211521148682 -0.0156162790954113007 -0.0151051357388496399
88.8627700805664062 81.9870376586914062 7.79087591171264648 232 1645021058.69801426 0.196688368916511536 0.979165971279144287 -0.0499141998589038849 0.00750029738992452621
87.5206985473632812 81.7785263061523438 7.83709859848022461 233 1645021059.19563079 0.0188196208328008652 0.999411106109619141 -0.0285767093300819397 0.00256820162758231163
86.8245086669921875 81.150970458984375 7.83841085433959961 234 1645021059.69778895 -0.167319402098655701 0.985755622386932373 -0.0106839435175061226 0.0132638271898031235
86.443206787109375 80.2769546508789062 7.84429502487182617 235 1645021060.39564919 -0.3679237961769104 0.929672777652740479 -0.0124746579676866531 0.0136029478162527084
86.3719329833984375 79.3957061767578125 7.82059526443481445 236 1645021060.79588079 -0.535298645496368408 0.844058513641357422 -0.015595470555126667 0.0278816763311624527
86.6029281616210938 78.6167221069335938 7.80859041213989258 237 1645021061.09726286 -0.6750527024269104 0.736534953117370605 -0.0181350000202655792 0.0386159159243106842
86.0181121826171875 73.4740524291992188 7.74215126037597656 238 1645021062.79881048 -0.480059117078781128 0.876485228538513184 0.0279342960566282272 0.0231648851186037064
81.9510879516601562 70.1456146240234375 7.73045492172241211 239 1645021064.09793878 -0.362156599760055542 0.931909918785095215 -0.0185672398656606674 0.00646249577403068542
78.0619735717773438 66.3516387939453125 7.71954250335693359 240 1645021065.19743538 -0.377925485372543335 0.925735771656036377 -0.0129960840567946434 0.00408574566245079041
74.5978546142578125 62.0520706176757812 7.72105026245117188 241 1645021066.1979394 -0.466881752014160156 0.883874356746673584 -0.0246344245970249176 0.0134409870952367783
72.9095382690429688 56.9916877746582031 7.66493415832519531 242 1645021067.0986445 -0.62003624439239502 0.784506797790527344 0.00832490064203739166 0.00590428197756409645
72.1128387451171875 52.0387382507324219 7.57192850112915039 243 1645021067.89817071 -0.628838181495666504 0.777292191982269287 0.018371259793639183 -0.0064690224826335907
70.6050949096679688 46.9691543579101562 7.4199061393737793 244 1645021068.69816899 -0.588242530822753906 0.808603048324584961 0.00531659461557865143 0.0101754311472177505
67.7204132080078125 42.2779884338378906 7.23450946807861328 245 1645021069.50048018 -0.409635931253433228 0.911597013473510742 0.0327197499573230743 0.0108963903039693832
63.7753372192382812 38.42620849609375 7.07106733322143555 246 1645021070.29893136 -0.4018687903881073 0.915485143661499023 -0.00397673482075333595 0.0193026065826416016
59.800201416015625 34.3292655944824219 6.88162374496459961 247 1645021071.10126662 -0.377682536840438843 0.92579120397567749 -0.000297092570690438151 0.0163224749267101288
56.2052536010742188 30.842864990234375 6.69960403442382812 248 1645021071.79980206 -0.371136844158172607 0.92835700511932373 -0.00355363031849265099 0.0199515875428915024
52.6210479736328125 27.350006103515625 6.59809350967407227 249 1645021072.50129318 -0.385501652956008911 0.922586679458618164 -0.00892354827374219894 0.0119454022496938705
48.8542900085449219 23.1178359985351562 6.57136058807373047 250 1645021073.30115843 -0.418092072010040283 0.908403992652893066 -0.000803425558842718601 -0.00074683694401755929
45.1688880920410156 18.8974056243896484 6.60277605056762695 251 1645021074.10323024 -0.404656052589416504 0.914367556571960449 0.0101364320144057274 -0.00909474119544029236
41.3340682983398438 14.8361320495605469 6.54074430465698242 252 1645021074.90309501 -0.389582157135009766 0.920965909957885742 0.00689461827278137207 -8.05920262791914865e-06
37.4081764221191406 10.9132814407348633 6.51699352264404297 253 1645021075.69907379 -0.378568112850189209 0.92555767297744751 0.00334235071204602718 0.00424532266333699226
33.3630485534667969 7.05948352813720703 6.49504232406616211 254 1645021076.50355363 -0.375005245208740234 0.926941454410552979 -0.00709102023392915726 0.0100146885961294174
29.4365119934082031 3.18709135055541992 6.49212121963500977 255 1645021077.30209684 -0.379290193319320679 0.925247907638549805 -0.00486322259530425072 0.00562580116093158722
25.4084720611572266 -0.59156334400177002 6.49807977676391602 256 1645021078.10371304 -0.365382373332977295 0.930809557437896729 -0.0093775484710931778 0.00115692417602986097
21.2286911010742188 -4.16346502304077148 6.50683116912841797 257 1645021078.90120029 -0.32255139946937561 0.946546077728271484 0.00324467429891228676 0.000739010924007743597
16.5704307556152344 -6.87263584136962891 6.68987417221069336 258 1645021079.70452595 -0.230263158679008484 0.972850799560546875 -0.0110550513491034508 -0.0204453263431787491
11.7813539505004883 -8.95734024047851562 6.9717254638671875 259 1645021080.49833488 -0.196934640407562256 0.979662001132965088 -0.0251079630106687546 -0.0291319955140352249
6.89914608001708984 -10.2629451751708984 7.35509395599365234 260 1645021081.30177021 -0.08960685133934021 0.99510425329208374 -0.0191762074828147888 -0.0370197072625160217
1.50189828872680664 -10.2652254104614258 7.7854466438293457 261 1645021082.19759226 0.0198698677122592926 0.998594343662261963 -0.0307489633560180664 -0.0383284725248813629
-3.62664675712585449 -9.57817840576171875 8.16823577880859375 262 1645021083.09939909 0.0909554660320281982 0.99507981538772583 -0.0205272845923900604 -0.0334951281547546387
-8.64450931549072266 -8.46800613403320312 8.38989543914794922 263 1645021084.00420094 0.119625262916088104 0.99256134033203125 -0.0128498440608382225 -0.0186193808913230896
-13.7143983840942383 -7.43732976913452148 8.50722694396972656 264 1645021084.89853311 0.0632082447409629822 0.997823536396026611 -0.0175973940640687943 -0.00657279184088110924
-18.8158168792724609 -8.38959503173828125 8.57208156585693359 265 1645021085.79807305 -0.162041723728179932 0.986496508121490479 -0.0237214993685483932 0.00210086698643863201
-23.1429672241210938 -11.5638895034790039 8.59273338317871094 266 1645021086.79982972 -0.332648187875747681 0.942944645881652832 0.0140723409131169319 0.00159892835654318333
-27.6524124145507812 -13.8759517669677734 8.61033821105957031 267 1645021087.8996582 -0.131713807582855225 0.990915179252624512 0.0270683281123638153 0.00243032071739435196
-32.4169845581054688 -12.2029609680175781 8.63147830963134766 268 1645021089.09639382 0.296588748693466187 0.954127371311187744 0.0377561934292316437 0.0158273559063673019
-33.8666725158691406 -10.016383171081543 8.667388916015625 269 1645021089.69909716 0.478719502687454224 0.877337217330932617 0.0307353883981704712 0.0127417584881186485
-34.4397048950195312 -7.36689376831054688 8.75121784210205078 270 1645021090.29833078 0.6444854736328125 0.763972342014312744 0.0299857128411531448 0.00925128906965255737
-33.9538078308105469 -4.71398782730102539 8.79244804382324219 271 1645021090.8993454 0.783789753913879395 0.620401740074157715 0.0215794462710618973 0.0175960566848516464
-32.3984909057617188 -2.36655139923095703 8.81011867523193359 272 1645021091.49795318 0.89232712984085083 0.450448691844940186 0.00803974084556102753 0.0279932115226984024
-30.4458732604980469 -1.03365027904510498 8.80248165130615234 273 1645021091.99838161 0.959787547588348389 0.278173744678497314 9.58756209001876414e-05 0.0377782136201858521
-28.1944198608398438 -0.582044780254364014 8.79158782958984375 274 1645021092.49737096 0.994140148162841797 0.106221996247768402 -0.00405433261767029762 0.019642658531665802
-25.7659683227539062 -0.874902307987213135 8.72434806823730469 275 1645021092.9971292 0.997414588928222656 -0.0681395009160041809 -0.0167724136263132095 0.0154870711266994476
-23.4621181488037109 -1.96643531322479248 8.63968086242675781 276 1645021093.49653649 0.965442895889282227 -0.254500925540924072 -0.0396553166210651398 0.0397087819874286652
-21.8085117340087891 -3.84313273429870605 8.60727214813232422 277 1645021093.99599433 0.903272151947021484 -0.426024049520492554 -0.037990570068359375 0.0340541116893291473
-20.8781585693359375 -6.60326862335205078 8.61936378479003906 278 1645021094.59634185 0.7936057448387146 -0.607035577297210693 -0.0319692790508270264 0.0259931161999702454
-21.1494674682617188 -9.4150543212890625 8.61152362823486328 279 1645021095.19616222 0.6618804931640625 -0.74898916482925415 -0.0288107302039861679 0.00996625982224941254
-22.6384315490722656 -12.4751014709472656 8.58150768280029297 280 1645021095.89573312 0.517701804637908936 -0.855466306209564209 -0.0124605251476168633 0.00264954590238630772
-26.1667728424072266 -18.7161159515380859 8.48975181579589844 281 1645021097.19581771 0.528512179851531982 -0.848775148391723633 -0.00340519286692142487 -0.0156208230182528496
-27.9921016693115234 -23.9700183868408203 8.21415042877197266 282 1645021098.09654927 0.584561645984649658 -0.811065733432769775 -0.0174261108040809631 -0.0125060724094510078
-29.0771579742431641 -29.0691413879394531 7.94644308090209961 283 1645021098.89702845 0.631818532943725586 -0.774063289165496826 -0.0403507016599178314 -0.00177675113081932068
-30.0820426940917969 -34.3223686218261719 7.71939325332641602 284 1645021099.79679942 0.647246003150939941 -0.761622965335845947 -0.0306791942566633224 -0.00786748621612787247
-30.7936496734619141 -39.3552169799804688 7.45094966888427734 285 1645021100.79690385 0.660420417785644531 -0.749894499778747559 -0.0359867960214614868 -0.0144260982051491737
-30.8162269592285156 -44.6266632080078125 7.16041851043701172 286 1645021101.99574304 0.719999194145202637 -0.693177521228790283 -0.0278950296342372894 -0.0181078184396028519
-29.5087680816650391 -49.3257369995117188 6.91989660263061523 287 1645021103.19756961 0.834580659866333008 -0.550060927867889404 -0.0237434320151805878 -0.0185558050870895386
-27.2980937957763672 -51.6562881469726562 6.68425559997558594 288 1645021103.99611378 0.925001442432403564 -0.377741813659667969 -0.0325040966272354126 -0.0250380132347345352
-24.6493587493896484 -52.841094970703125 6.48781824111938477 289 1645021104.59779716 0.979249775409698486 -0.199642106890678406 -0.0320267453789710999 -0.0136800250038504601
-16.4872627258300781 -53.6577301025390625 5.97192192077636719 290 1645021105.99702787 0.998977005481719971 -0.027756011113524437 -0.0310484915971755981 0.0176232922822237015
-2.28134846687316895 -54.1865997314453125 5.02054738998413086 291 1645021107.9983592 0.997577130794525146 -0.0493317022919654846 -0.0432245954871177673 0.0231915675103664398
13.5210714340209961 -55.6399421691894531 3.99156403541564941 292 1645021110.09766984 0.999349236488342285 0.00799895823001861572 -0.033676736056804657 0.0101509736850857735
29.8564186096191406 -54.1814231872558594 2.91192030906677246 293 1645021112.19705129 0.995398640632629395 0.0912149697542190552 -0.0249138940125703812 0.0155118806287646294
37.32305908203125 -52.2951278686523438 2.57382392883300781 294 1645021113.20074224 0.98809516429901123 0.152242988348007202 -0.0210941825062036514 0.0067094867117702961
42.4913215637207031 -50.1323661804199219 2.37102222442626953 295 1645021113.99787903 0.977480888366699219 0.210280850529670715 -0.0142243430018424988 0.010521935299038887
47.2812614440917969 -47.8101577758789062 2.22780990600585938 296 1645021114.79779792 0.973742961883544922 0.226575329899787903 -0.0144006572663784027 0.0167588293552398682
51.9654350280761719 -45.3041038513183594 2.18599939346313477 297 1645021115.59827471 0.968940377235412598 0.247110664844512939 -0.00101397430989891291 0.00947811268270015717
56.5801849365234375 -42.3823699951171875 2.16952681541442871 298 1645021116.39900875 0.955973029136657715 0.293398022651672363 0.00303244730457663536 0.00489930436015129089
60.8770027160644531 -39.0065956115722656 2.21484994888305664 299 1645021117.19915199 0.939835429191589355 0.34138798713684082 0.0122975576668977737 0.00351451453752815723
64.8115234375 -35.2947769165039062 2.35516095161437988 300 1645021117.9985075 0.924574136734008789 0.380350291728973389 0.0222763717174530029 0.000189247803064063191
68.5239791870117188 -31.5318374633789062 2.56985354423522949 301 1645021118.80070519 0.92362678050994873 0.3814869225025177 0.036011330783367157 -0.00919204205274581909
72.2133255004882812 -27.6929378509521484 2.73355436325073242 302 1645021119.60050917 0.918943285942077637 0.393977373838424683 0.0135366125032305717 -0.0119101172313094139
76.0057754516601562 -23.6406459808349609 2.89833617210388184 303 1645021120.50016809 0.920910894870758057 0.389323830604553223 0.0175249595195055008 -0.00655551953241229057
79.6357498168945312 -20.0155525207519531 3.17044401168823242 304 1645021121.49980187 0.926998317241668701 0.37414783239364624 0.0225158724933862686 -0.0134361600503325462
81.4873886108398438 -18.2855281829833984 3.31187009811401367 305 1645021123.60113406 0.931400477886199951 0.363078266382217407 0.02358270063996315 -0.0105439638718962669
