# .PCD v0.7 - Point Cloud Data file format
VERSION 0.7
FIELDS x y z intensity t qx qy qz qw
SIZE 4 4 4 4 8 4 4 4 4
TYPE F F F F F F F F F
COUNT 1 1 1 1 1 1 1 1 1
WIDTH 275
HEIGHT 1
VIEWPOINT 0 0 0 1 0 0 0
POINTS 275
DATA ascii
43.7846488952636719 -54.4222946166992188 2.47785568237304688 50 1644759754.37408829 -0.189446508884429932 0.981513440608978271 -0.011437281034886837 -0.0247103944420814514
38.5373649597167969 -56.2825889587402344 2.66421723365783691 51 1644759755.27249384 -0.156021654605865479 0.987209141254425049 -0.00594180542975664139 -0.0322506241500377655
33.2369842529296875 -57.73760986328125 2.88704681396484375 52 1644759756.17222452 -0.1199345663189888 0.992194950580596924 -0.00185094575863331556 -0.0340798087418079376
27.9314441680908203 -58.7713737487792969 3.1599278450012207 53 1644759757.06911373 -0.0830160602927207947 0.995759844779968262 -0.00697726989164948463 -0.0390128344297409058
22.5896720886230469 -59.4460716247558594 3.45545601844787598 54 1644759757.97353244 -0.0481172390282154083 0.997964382171630859 -0.00390137359499931335 -0.0416730046272277832
17.3153114318847656 -59.7457923889160156 3.78312301635742188 55 1644759758.87136459 -0.0156869050115346909 0.998830556869506836 0.000599021266680210829 -0.0457280166447162628
12.0627498626708984 -59.6955413818359375 4.15192270278930664 56 1644759759.77371025 0.0163232758641242981 0.998626589775085449 0.00249252840876579285 -0.0497225299477577209
6.87939262390136719 -59.419189453125 4.47000694274902344 57 1644759760.66896796 0.0321598425507545471 0.99836266040802002 0.000479299720609560609 -0.0473025292158126831
1.68023538589477539 -59.1184768676757812 4.81130123138427734 58 1644759761.57120514 0.0270045716315507889 0.998336672782897949 -0.00348726380616426468 -0.050818171352148056
-3.48115897178649902 -58.9580078125 5.16010713577270508 59 1644759762.4728508 0.0187331419438123703 0.998591303825378418 0.000746960111428052187 -0.049637969583272934
-8.60599040985107422 -58.7324867248535156 5.50348663330078125 60 1644759763.37053227 0.0298156030476093292 0.998443007469177246 0.00183578219730407 -0.0471089109778404236
-13.7090005874633789 -58.3671379089355469 5.85823774337768555 61 1644759764.27382731 0.0425573773682117462 0.997788906097412109 0.00256281765177845955 -0.0509860999882221222
-18.7881736755371094 -57.9420356750488281 6.16577768325805664 62 1644759765.16979575 0.0361857563257217407 0.998332560062408447 -0.00512610841542482376 -0.0446805953979492188
-23.8869094848632812 -57.7993011474609375 6.48480367660522461 63 1644759766.07145023 0.00992938876152038574 0.998704016208648682 -0.00105149450246244669 -0.0499061383306980133
-28.8972396850585938 -57.7902946472167969 6.78364038467407227 64 1644759767.0669651 0.00452140485867857933 0.999239444732666016 -0.00177196518052369356 -0.0386896729469299316
-34.1108779907226562 -57.8622932434082031 7.04386663436889648 65 1644759768.36827779 -0.0150467501953244209 0.999313592910766602 -0.00607544835656881332 -0.0333012938499450684
-39.1202430725097656 -57.7498703002929688 7.24105310440063477 66 1644759770.16825867 0.0235268548130989075 0.999235391616821289 -0.0121487043797969818 -0.0287665463984012604
-44.2761764526367188 -57.2448158264160156 7.35257720947265625 67 1644759772.1708293 0.077152937650680542 0.996505796909332275 -0.00381234870292246342 -0.0317656621336936951
-49.5358695983886719 -56.6499214172363281 7.42574787139892578 68 1644759773.76781106 0.0124285668134689331 0.999784767627716064 0.00983653217554092407 -0.0133859766647219658
-53.0901107788085938 -57.7725334167480469 7.27886724472045898 69 1644759774.96737003 -0.188608765602111816 0.981635749340057373 0.0272984765470027924 0.00853005982935428619
-54.9187736511230469 -59.5238838195800781 7.10019397735595703 70 1644759775.76782155 -0.356289923191070557 0.933568358421325684 0.037041734904050827 0.0116412770003080368
-57.7162132263183594 -63.6819000244140625 6.79115819931030273 71 1644759777.16711092 -0.51627659797668457 0.855837404727935791 0.0314506739377975464 0.00341755012050271034
-58.8651008605957031 -68.852813720703125 6.37449121475219727 72 1644759778.36673689 -0.656391799449920654 0.753688454627990723 0.0227255690842866898 0.0242301858961582184
-59.1759910583496094 -74.1248245239257812 5.91168928146362305 73 1644759779.46760869 -0.679510414600372314 0.73276221752166748 0.0340781286358833313 0.0127981966361403465
-59.4543838500976562 -79.2090530395507812 5.52144622802734375 74 1644759780.46714759 -0.68984609842300415 0.723062455654144287 0.0332796350121498108 0.013622465543448925
-59.7200202941894531 -84.2827682495117188 5.08601474761962891 75 1644759781.46801496 -0.685631215572357178 0.72659611701965332 0.0405315868556499481 0.0180305428802967072
-59.9153022766113281 -89.749542236328125 4.69243669509887695 76 1644759782.56787014 -0.695663809776306152 0.716456711292266846 0.0476581044495105743 0.0216873008757829666
-60.0077743530273438 -94.8810958862304688 4.23743915557861328 77 1644759783.56855631 -0.698315680027008057 0.714842736721038818 0.0353524275124073029 0.0102606769651174545
-59.911865234375 -100.327812194824219 3.78243112564086914 78 1644759784.56822348 -0.720649480819702148 0.692592620849609375 0.0297157559543848038 0.00983660854399204254
-59.2450637817382812 -105.472114562988281 3.32912325859069824 79 1644759785.46832633 -0.76048201322555542 0.648243904113769531 0.0353944785892963409 0.0139360567554831505
-57.9378929138183594 -110.750968933105469 2.8064267635345459 80 1644759786.36793113 -0.791615426540374756 0.609598398208618164 0.0415073707699775696 0.00345680932514369488
-56.3011856079101562 -115.648330688476562 2.29396820068359375 81 1644759787.16944218 -0.816718816757202148 0.575183689594268799 0.0457344688475131989 0.0065134209580719471
-54.1389427185058594 -120.6361083984375 1.79461109638214111 82 1644759787.96790147 -0.841230094432830811 0.539165019989013672 0.0404041633009910583 -0.000725486548617482185
-51.4185600280761719 -125.646026611328125 1.36597180366516113 83 1644759788.76869631 -0.864872992038726807 0.500931084156036377 0.0318925119936466217 -0.0067502269521355629
-48.5247764587402344 -129.867767333984375 1.03410756587982178 84 1644759789.46948814 -0.893133759498596191 0.448978990316390991 0.0268990229815244675 -0.00253888918086886406
-45.1591453552246094 -133.800567626953125 0.665259480476379395 85 1644759790.16904259 -0.911858737468719482 0.409571528434753418 0.0276298783719539642 -0.00117491104174405336
-41.5090560913085938 -137.60357666015625 0.251395434141159058 86 1644759790.87002826 -0.923865199089050293 0.38171115517616272 0.0274310111999511719 0.00415597017854452133
-37.6535987854003906 -141.381088256835938 -0.185428440570831299 87 1644759791.56947541 -0.925287127494812012 0.378068029880523682 0.0299158655107021332 0.00365878292359411716
-33.735748291015625 -145.232589721679688 -0.585965275764465332 88 1644759792.27028561 -0.925113916397094727 0.379188984632492065 0.0179337300360202789 0.00763848051428794861
-29.6799392700195312 -149.130661010742188 -1.03588557243347168 89 1644759792.97184563 -0.92873072624206543 0.370231270790100098 0.0171492844820022583 0.00969178322702646255
-25.5215015411376953 -153.110931396484375 -1.5340266227722168 90 1644759793.67187858 -0.927468597888946533 0.3723888099193573 0.0270239096134901047 0.0199560821056365967
-21.3203125 -157.121017456054688 -1.97684335708618164 91 1644759794.3703866 -0.925871014595031738 0.376964092254638672 0.0215883627533912659 0.0139604676514863968
-17.7440376281738281 -160.658004760742188 -2.34499764442443848 92 1644759794.97293448 -0.924267768859863281 0.380658477544784546 0.0228435918688774109 0.017504081130027771
-14.1486053466796875 -164.170928955078125 -2.74813175201416016 93 1644759795.57222676 -0.926032423973083496 0.376100301742553711 0.0288574770092964172 0.0134078357368707657
-10.429295539855957 -167.622573852539062 -3.13657903671264648 94 1644759796.1710341 -0.931460559368133545 0.362632483243942261 0.0277529247105121613 0.0104270074516534805
-6.72289228439331055 -170.964202880859375 -3.47394680976867676 95 1644759796.76913619 -0.932309508323669434 0.360781401395797729 0.0249518882483243942 0.00362430047243833542
-2.44301772117614746 -174.86279296875 -3.83302855491638184 96 1644759797.47123003 -0.932269155979156494 0.361059099435806274 0.0209513846784830093 0.00846250541508197784
1.75315701961517334 -178.72369384765625 -4.16577625274658203 97 1644759798.16829276 -0.931052565574645996 0.364414215087890625 0.0168270040303468704 0.00776204513385891914
5.86991643905639648 -182.535415649414062 -4.45490932464599609 98 1644759798.86709833 -0.930168211460113525 0.366741418838500977 0.0161709915846586227 0.00513598509132862091
9.85144519805908203 -186.315658569335938 -4.65443849563598633 99 1644759799.56900215 -0.928678750991821289 0.370814383029937744 0.00408999528735876083 0.00598210655152797699
13.5665521621704102 -189.867813110351562 -4.69562768936157227 100 1644759800.27225637 -0.926710665225982666 0.375745028257369995 -0.00477716093882918358 0.0004082132363691926
17.5833206176757812 -193.704208374023438 -4.95671749114990234 101 1644759801.07276583 -0.927899360656738281 0.372803300619125366 -0.00371962948702275753 0.00258525647222995758
21.6650295257568359 -197.369430541992188 -5.10878992080688477 102 1644759801.86989379 -0.937419772148132324 0.348167210817337036 0.000776450906414538622 0.00481284782290458679
25.8369922637939453 -200.845611572265625 -5.22778034210205078 103 1644759802.6688149 -0.940827906131744385 0.338837623596191406 -1.24317575682653114e-05 -0.00564932962879538536
30.1013870239257812 -204.138900756835938 -5.31425189971923828 104 1644759803.4687252 -0.947327077388763428 0.320053160190582275 -0.00304072140716016293 -0.0113201690837740898
34.4955062866210938 -207.101425170898438 -5.32017183303833008 105 1644759804.26934314 -0.960473120212554932 0.278007656335830688 -0.0112258009612560272 -0.00877894740551710129
39.0997161865234375 -209.521438598632812 -5.30867576599121094 106 1644759805.06827092 -0.974099397659301758 0.22570762038230896 -0.009776274673640728 -0.00953209120780229568
43.851318359375 -211.462814331054688 -5.28761482238769531 107 1644759805.86846018 -0.983582437038421631 0.179615050554275513 -0.0140833938494324684 -0.0102826859802007675
48.7387161254882812 -212.99725341796875 -5.28073692321777344 108 1644759806.66756821 -0.989350199699401855 0.14470084011554718 -0.00979682151228189468 -0.0123259825631976128
53.7648506164550781 -214.1431884765625 -5.27958250045776367 109 1644759807.47042012 -0.994556784629821777 0.102763146162033081 -0.00632364023476839066 -0.0160169117152690887
58.835418701171875 -214.874282836914062 -5.29717588424682617 110 1644759808.2703011 -0.998059630393981934 0.0597283318638801575 -0.00769607769325375557 -0.0158216282725334167
63.9459800720214844 -215.205474853515625 -5.30475378036499023 111 1644759809.06950736 -0.999682128429412842 0.0202567130327224731 -0.0104065807536244392 -0.0108197210356593132
69.0605697631835938 -215.103759765625 -5.31771039962768555 112 1644759809.86695194 -0.999724864959716797 -0.0179994851350784302 -0.0100588798522949219 -0.0111803598701953888
74.1850814819335938 -214.809616088867188 -5.31207275390625 113 1644759810.66854167 -0.99943995475769043 -0.0286829471588134766 -0.0144191673025488853 -0.00943978596478700638
79.2723007202148438 -214.488616943359375 -5.28843402862548828 114 1644759811.46704865 -0.999425828456878662 -0.0273379702121019363 -0.0158200375735759735 -0.0122623099014163017
84.3669586181640625 -214.252243041992188 -5.26623296737670898 115 1644759812.26774907 -0.999622583389282227 -0.0172525029629468918 -0.0160875003784894943 -0.0140788210555911064
89.4963226318359375 -213.998367309570312 -5.27167940139770508 116 1644759813.06976771 -0.999555110931396484 -0.0206385310739278793 -0.0106862578541040421 -0.01869221031665802
94.6134872436523438 -213.779953002929688 -5.27612018585205078 117 1644759813.8691771 -0.999599754810333252 -0.0213368646800518036 -0.011884794570505619 -0.0142750358209013939
99.7509307861328125 -213.56817626953125 -5.28949213027954102 118 1644759814.67041159 -0.999727547168731689 -0.0183409266173839569 -0.0101322038099169731 -0.0102875176817178726
104.913970947265625 -213.357208251953125 -5.32379961013793945 119 1644759815.47128892 -0.999725162982940674 -0.0195571407675743103 -0.00802275072783231735 -0.01013924740254879
110.063087463378906 -213.156967163085938 -5.33662033081054688 120 1644759816.26952195 -0.999782800674438477 -0.0182045307010412216 -0.00793507136404514313 -0.00632618414238095284
115.212242126464844 -212.929580688476562 -5.35983467102050781 121 1644759817.07034612 -0.999733984470367432 -0.0188491195440292358 -0.0104532660916447639 -0.00820682663470506668
120.329521179199219 -212.71295166015625 -5.37152004241943359 122 1644759817.86797619 -0.999712347984313965 -0.0190643370151519775 -0.0118068130686879158 -0.00850762892514467239
125.482032775878906 -212.487747192382812 -5.38531637191772461 123 1644759818.66907239 -0.999727427959442139 -0.0174034368246793747 -0.0103048300370573997 -0.0116641949862241745
130.6280517578125 -212.267105102539062 -5.37845659255981445 124 1644759819.47154546 -0.999638676643371582 -0.0233623888343572617 -0.00736295385286211967 -0.0110692288726568222
135.70880126953125 -212.024093627929688 -5.36678743362426758 125 1644759820.26858878 -0.999594807624816895 -0.0208560824394226074 -0.0145177505910396576 -0.012823210097849369
140.821044921875 -211.783782958984375 -5.31868600845336914 126 1644759821.07195306 -0.999669909477233887 -0.0206761807203292847 -0.0103996265679597855 -0.0111564183607697487
145.878677368164062 -211.501449584960938 -5.31651687622070312 127 1644759821.86805892 -0.999580264091491699 -0.0229163225740194321 -0.0107847582548856735 -0.014063296839594841
150.9591064453125 -211.235763549804688 -5.27366065979003906 128 1644759822.66913867 -0.999446630477905273 -0.0216162409633398056 -0.0187293067574501038 -0.0169805381447076797
156.001663208007812 -211.059310913085938 -5.21058130264282227 129 1644759823.46739817 -0.999531567096710205 -0.0144535014405846596 -0.0228723511099815369 -0.0143042281270027161
161.026840209960938 -210.89849853515625 -5.15433740615844727 130 1644759824.26638436 -0.999623596668243408 -0.0101644210517406464 -0.0195209980010986328 -0.0163787417113780975
166.03253173828125 -210.769180297851562 -5.05706644058227539 131 1644759825.06665611 -0.999563634395599365 -0.0128833241760730743 -0.0241205580532550812 -0.011167256161570549
171.047088623046875 -210.59295654296875 -4.92849922180175781 132 1644759825.87241268 -0.999525249004364014 -0.0164162889122962952 -0.0238262657076120377 -0.0105899469926953316
176.553543090820312 -210.349395751953125 -4.7637176513671875 133 1644759826.76731086 -0.999294042587280273 -0.0219890959560871124 -0.029823988676071167 -0.00619512610137462616
182.04986572265625 -210.003524780273438 -4.59966182708740234 134 1644759827.66703844 -0.99909508228302002 -0.0285957343876361847 -0.0290140807628631592 -0.0122286602854728699
187.582901000976562 -209.631454467773438 -4.43802452087402344 135 1644759828.56991267 -0.999071657657623291 -0.0318819470703601837 -0.0277117174118757248 -0.0084535917267203331
193.09149169921875 -209.201065063476562 -4.27495527267456055 136 1644759829.47272611 -0.998907983303070068 -0.0343293473124504089 -0.0301805604249238968 -0.0096661662682890892
198.539031982421875 -208.825469970703125 -4.09279727935791016 137 1644759830.36623383 -0.998549044132232666 -0.0451706498861312866 -0.0292232688516378403 0.00232411711476743221
203.978408813476562 -207.914947509765625 -3.93830680847167969 138 1644759831.26888084 -0.996277511119842529 -0.0816604197025299072 -0.0263647232204675674 -0.00821943115442991257
209.419158935546875 -206.962448120117188 -3.77964091300964355 139 1644759832.1686728 -0.995945155620574951 -0.0852008089423179626 -0.0277530215680599213 -0.0079906955361366272
214.841217041015625 -205.97552490234375 -3.61739754676818848 140 1644759833.06705093 -0.99556577205657959 -0.0892019942402839661 -0.0296034831553697586 -0.00393438944593071938
220.254440307617188 -204.947525024414062 -3.45602965354919434 141 1644759833.96904755 -0.995054721832275391 -0.0943037867546081543 -0.0310016665607690811 -0.00344257219694554806
225.672760009765625 -203.846298217773438 -3.28905463218688965 142 1644759834.86977935 -0.994286298751831055 -0.10297682136297226 -0.0278791896998882294 -0.00363727682270109653
231.042892456054688 -202.640106201171875 -3.13218927383422852 143 1644759835.76834869 -0.993535161018371582 -0.110112711787223816 -0.027142208069562912 -0.00513104908168315887
236.389999389648438 -201.367462158203125 -2.9436652660369873 144 1644759836.66883683 -0.992777049541473389 -0.115658409893512726 -0.0317765958607196808 -0.00267310952767729759
241.723403930664062 -200.030624389648438 -2.7873237133026123 145 1644759837.56897783 -0.992002129554748535 -0.123228758573532104 -0.0273143220692873001 -0.000600896484684199095
247.02850341796875 -198.61224365234375 -2.6171715259552002 146 1644759838.47006989 -0.99194258451461792 -0.120811790227890015 -0.0363530516624450684 -0.0115276509895920753
252.383346557617188 -197.342208862304688 -2.4490349292755127 147 1644759839.37136316 -0.992360353469848633 -0.119777210056781769 -0.0294471196830272675 -0.00268577598035335541
257.6864013671875 -196.018844604492188 -2.27046489715576172 148 1644759840.27118063 -0.992152988910675049 -0.120409540832042694 -0.0332211330533027649 -0.00550904497504234314
262.97711181640625 -194.65521240234375 -2.08977794647216797 149 1644759841.16979241 -0.991194069385528564 -0.12863495945930481 -0.0313985086977481842 -0.00124787923414260149
268.22021484375 -193.115798950195312 -1.91304981708526611 150 1644759842.06663537 -0.989436089992523193 -0.141585677862167358 -0.0307145863771438599 -0.00513332057744264603
273.507110595703125 -191.483932495117188 -1.779754638671875 151 1644759842.97332072 -0.988613784313201904 -0.147570759057998657 -0.0286915581673383713 -0.0065155569463968277
278.735076904296875 -189.773773193359375 -1.59508681297302246 152 1644759843.87226558 -0.987646996974945068 -0.153417825698852539 -0.0310871358960866928 -0.00707269506528973579
283.941986083984375 -188.05938720703125 -1.42588138580322266 153 1644759844.76956034 -0.98647993803024292 -0.161968335509300232 -0.0245029348880052567 -0.00481875333935022354
289.15716552734375 -186.248855590820312 -1.25051462650299072 154 1644759845.67403078 -0.985688984394073486 -0.166159272193908691 -0.0282707270234823227 -0.00301598128862679005
294.3094482421875 -184.364227294921875 -1.07599413394927979 155 1644759846.57260776 -0.983906328678131104 -0.176537126302719116 -0.0254286229610443115 -0.010788637213408947
299.361480712890625 -182.311721801757812 -0.887163102626800537 156 1644759847.46854758 -0.981028079986572266 -0.190746814012527466 -0.029484255239367485 -0.0181727167218923569
304.320770263671875 -180.159423828125 -0.664531409740447998 157 1644759848.36868548 -0.977836549282073975 -0.204178884625434875 -0.0449481792747974396 -0.0112385451793670654
309.271087646484375 -178.006515502929688 -0.376745641231536865 158 1644759849.26937675 -0.979183077812194824 -0.197407379746437073 -0.0460041649639606476 -0.0106997117400169373
314.0733642578125 -175.862045288085938 -0.0767754837870597839 159 1644759850.16687179 -0.974288523197174072 -0.221446007490158081 -0.0411105155944824219 -0.00578932976350188255
318.845489501953125 -173.091445922851562 0.231516614556312561 160 1644759851.16610384 -0.956769049167633057 -0.287654280662536621 -0.042806573212146759 0.00395555701106786728
322.5006103515625 -169.072891235351562 0.478116691112518311 161 1644759852.26531863 -0.88939976692199707 -0.45548972487449646 -0.0386713333427906036 0.00128681946080178022
324.16802978515625 -164.9163818359375 0.735884189605712891 162 1644759853.26567912 -0.792959213256835938 -0.606318950653076172 -0.0449027307331562042 0.039708748459815979
324.08270263671875 -161.512008666992188 1.14012634754180908 163 1644759854.06706953 -0.661368668079376221 -0.746550202369689941 -0.0399524383246898651 0.0604818873107433319
322.301605224609375 -157.558212280273438 1.7098766565322876 164 1644759855.16453862 -0.51422727108001709 -0.853512227535247803 -0.0531767867505550385 0.0652645379304885864
319.290435791015625 -153.18780517578125 2.29508447647094727 165 1644759856.56522822 -0.451395511627197266 -0.889621317386627197 -0.04479246586561203 0.0530056506395339966
315.80419921875 -149.155364990234375 2.85950970649719238 166 1644759857.96408391 -0.405111044645309448 -0.911512672901153564 -0.0470449738204479218 0.0530701689422130585
311.901580810546875 -145.527633666992188 3.45938825607299805 167 1644759859.36620665 -0.351336210966110229 -0.933324694633483887 -0.043386705219745636 0.0598783306777477264
307.841278076171875 -142.610137939453125 3.94540095329284668 168 1644759860.66468716 -0.285044610500335693 -0.95651775598526001 -0.0320319496095180511 0.0528892800211906433
303.226806640625 -140.149398803710938 4.38944053649902344 169 1644759861.96526361 -0.242148295044898987 -0.968406617641448975 -0.0337122716009616852 0.0491558685898780823
298.787628173828125 -137.822357177734375 4.81462526321411133 170 1644759863.16455269 -0.243614330887794495 -0.967759490013122559 -0.037602689117193222 0.051765047013759613
294.1773681640625 -135.380142211914062 5.22110748291015625 171 1644759864.36491871 -0.244106948375701904 -0.968023777008056641 -0.0383001379668712616 0.0433000214397907257
289.72479248046875 -132.95294189453125 5.53787994384765625 172 1644759865.6665957 -0.251019209623336792 -0.966897070407867432 -0.0306200031191110611 0.0340859554708003998
285.133087158203125 -130.378875732421875 5.73875761032104492 173 1644759867.1674242 -0.250532239675521851 -0.967465996742248535 -0.0158537253737449646 0.0314931571483612061
280.816253662109375 -127.859344482421875 5.92179250717163086 174 1644759868.56677723 -0.26501956582069397 -0.963481485843658447 -0.0104735186323523521 0.0368551462888717651
276.3404541015625 -124.983779907226562 6.05126380920410156 175 1644759869.76693892 -0.276874810457229614 -0.960467517375946045 0.00481813354417681694 0.0286222510039806366
272.026458740234375 -122.323760986328125 6.09914302825927734 176 1644759870.76675892 -0.276214569807052612 -0.960784792900085449 0.0044930814765393734 0.0240391604602336884
267.82855224609375 -119.552764892578125 6.11757278442382812 177 1644759871.66552997 -0.295264452695846558 -0.955346643924713135 0.00405685743317008018 0.0107370391488075256
263.545928955078125 -116.332969665527344 6.19948911666870117 178 1644759872.56668425 -0.333428144454956055 -0.942496240139007568 -0.0052936202846467495 0.0223258882761001587
259.39105224609375 -112.62957763671875 6.21791172027587891 179 1644759873.46796465 -0.366229385137557983 -0.930383682250976562 0.00308371125720441341 0.0158966761082410812
255.803970336914062 -109.104637145996094 6.22801542282104492 180 1644759874.26876736 -0.384108096361160278 -0.923133909702301025 0.00507434504106640816 0.0160942692309617996
252.384231567382812 -105.384124755859375 6.23865890502929688 181 1644759875.06917286 -0.410304546356201172 -0.911792278289794922 0.00297657609917223454 0.0166182965040206909
249.16168212890625 -101.468437194824219 6.24651098251342773 182 1644759875.86798477 -0.439258277416229248 -0.898309767246246338 -0.000662926235236227512 0.00955515727400779724
246.329132080078125 -97.26409912109375 6.22516012191772461 183 1644759876.66804385 -0.487908363342285156 -0.872789382934570312 -0.00904319621622562408 0.0101184463128447533
243.965728759765625 -92.7388381958007812 6.24356698989868164 184 1644759877.46880126 -0.536871433258056641 -0.843544423580169678 -0.0103729330003261566 0.00970744714140892029
242.132064819335938 -87.978271484375 6.27220630645751953 185 1644759878.27119923 -0.57707512378692627 -0.816567838191986084 0.000325152446748688817 0.0141829783096909523
240.651168823242188 -83.165802001953125 6.29715633392333984 186 1644759879.06899476 -0.60060572624206543 -0.799375772476196289 -0.000372569425962865353 0.0164617635309696198
239.412399291992188 -78.2286834716796875 6.30856227874755859 187 1644759879.86934614 -0.623240888118743896 -0.781947672367095947 0.00046697483048774302 0.0113318739458918571
238.51806640625 -73.2465667724609375 6.32094335556030273 188 1644759880.67112637 -0.647792458534240723 -0.761630713939666748 -0.00140074256341904402 0.016780288890004158
237.857040405273438 -67.8432464599609375 6.33404350280761719 189 1644759881.57092404 -0.666962027549743652 -0.744933605194091797 0.000848913390655070543 0.0153246289119124413
237.044418334960938 -62.8213005065917969 6.34862089157104492 190 1644759882.47178268 -0.640716910362243652 -0.767609953880310059 -0.00231574056670069695 0.0158559568226337433
236.068252563476562 -57.7413558959960938 6.40694284439086914 191 1644759883.47075009 -0.642193138599395752 -0.766337215900421143 -0.00563727179542183876 0.016837097704410553
234.757186889648438 -52.7673225402832031 6.46290493011474609 192 1644759884.56887007 -0.588167309761047363 -0.808531105518341064 -0.0102094942703843117 0.0152467098087072372
232.032943725585938 -48.1443252563476562 6.52112722396850586 193 1644759885.67101741 -0.440263599157333374 -0.897367477416992188 -0.0108359064906835556 0.0279665347188711166
228.473922729492188 -45.7202644348144531 6.5280451774597168 194 1644759886.47276855 -0.266610831022262573 -0.963629662990570068 -0.00118566560558974743 0.0183052662760019302
223.84722900390625 -43.4951057434082031 6.53586244583129883 195 1644759887.37134767 -0.214606285095214844 -0.976497113704681396 -0.0181659292429685593 0.00821518152952194214
219.110061645507812 -41.2288970947265625 6.51423358917236328 196 1644759888.27295184 -0.232245787978172302 -0.972545862197875977 -0.0100872684270143509 0.0107109686359763145
214.413482666015625 -38.7149772644042969 6.4939417839050293 197 1644759889.16913915 -0.251683622598648071 -0.967773795127868652 -0.00806351937353610992 0.00205297279171645641
209.746505737304688 -35.9675178527832031 6.50259017944335938 198 1644759890.06886697 -0.277577012777328491 -0.960519313812255859 -0.0142576834186911583 0.0122640868648886681
205.050308227539062 -32.9086761474609375 6.48619222640991211 199 1644759890.96846867 -0.300331592559814453 -0.953699767589569092 -0.0148452529683709145 0.00611082557588815689
200.48651123046875 -29.6231536865234375 6.50690174102783203 200 1644759891.87016845 -0.311225265264511108 -0.950125932693481445 -0.0188141018152236938 0.006752741988748312
196.060317993164062 -26.2297935485839844 6.6024622917175293 201 1644759892.76989579 -0.327196806669235229 -0.94455033540725708 -0.0130353346467018127 0.0244327634572982788
191.7017822265625 -22.6828746795654297 6.70643281936645508 202 1644759893.66992331 -0.349976450204849243 -0.936446189880371094 -0.0148946512490510941 0.0190570242702960968
187.607391357421875 -18.836029052734375 6.77289485931396484 203 1644759894.56949687 -0.385507255792617798 -0.922456920146942139 -0.0212390050292015076 0.00250716041773557663
184.119842529296875 -15.2195634841918945 6.79658079147338867 204 1644759895.37142324 -0.384946554899215698 -0.92282027006149292 -0.00760226510465145111 0.012692413292825222
180.154571533203125 -11.3082160949707031 6.89395999908447266 205 1644759896.26432157 -0.385390371084213257 -0.921975791454315186 -0.0168282724916934967 0.0339377187192440033
176.573471069335938 -7.80292654037475586 7.02120733261108398 206 1644759897.0679152 -0.385731279850006104 -0.922075450420379639 -0.0177320931106805801 0.0259574130177497864
172.554824829101562 -3.98665976524353027 7.18534755706787109 207 1644759897.96937847 -0.377250432968139648 -0.925042271614074707 -0.0389314703643321991 0.0215221401304006577
168.634078979492188 -0.174670964479446411 7.38981771469116211 208 1644759898.8662684 -0.384155243635177612 -0.922362327575683594 -0.0302962847054004669 0.027470029890537262
164.739944458007812 3.69077944755554199 7.59913444519042969 209 1644759899.76963735 -0.382487177848815918 -0.923271477222442627 -0.026727164164185524 0.0236420128494501114
160.921951293945312 7.52893877029418945 7.82321739196777344 210 1644759900.6740756 -0.38675922155380249 -0.921238899230957031 -0.0189738180488348007 0.0370973348617553711
157.07220458984375 11.3314790725708008 8.033111572265625 211 1644759901.57120109 -0.396968573331832886 -0.917084455490112305 -0.0224910024553537369 0.0294315777719020844
153.436599731445312 14.9748868942260742 8.23094940185546875 212 1644759902.47142005 -0.37894555926322937 -0.924814164638519287 -0.0149847967550158501 0.029906928539276123
149.503402709960938 18.6874313354492188 8.43052196502685547 213 1644759903.56351924 -0.372393906116485596 -0.927483558654785156 -0.023641243577003479 0.023197101429104805
145.792678833007812 22.3787021636962891 8.56891155242919922 214 1644759904.86750555 -0.387376636266708374 -0.92177659273147583 -0.0131582170724868774 0.00970097910612821579
142.150405883789062 25.9610443115234375 8.45368194580078125 215 1644759906.47094965 -0.385392874479293823 -0.922438859939575195 -0.0201632417738437653 -0.0131264440715312958
138.063262939453125 29.5466232299804688 8.37656116485595703 216 1644759908.56461906 -0.34966576099395752 -0.936394929885864258 -0.029824012890458107 0.00298557756468653679
133.378799438476562 33.547119140625 8.34335613250732422 217 1644759910.16735649 -0.347951829433441162 -0.936815321445465088 -0.0359309501945972443 -0.00394487427547574043
129.389373779296875 36.8919639587402344 8.21433067321777344 218 1644759911.26547599 -0.357619941234588623 -0.932598412036895752 -0.046746429055929184 -0.013526279479265213
125.675422668457031 40.4896926879882812 7.89102268218994141 219 1644759912.36431742 -0.356331050395965576 -0.933754563331604004 -0.000559633015654981136 -0.0336194634437561035
121.101264953613281 43.0229110717773438 7.65994691848754883 220 1644759913.46840405 -0.194808408617973328 -0.980786681175231934 -0.00391786219552159309 0.00958412047475576401
116.142982482910156 45.1375732421875 7.64980936050415039 221 1644759914.56337762 -0.230535522103309631 -0.972936153411865234 -0.0153303388506174088 0.00369288818910717964
111.715751647949219 48.0720176696777344 7.63024663925170898 222 1644759915.5644877 -0.314390003681182861 -0.949155032634735107 -0.0152853177860379219 0.0054796324111521244
107.690963745117188 51.6923713684082031 7.62656450271606445 223 1644759916.56598282 -0.375486552715301514 -0.926707983016967773 -0.0135461790487170219 0.00622053816914558411
104.441291809082031 55.6565666198730469 7.63867568969726562 224 1644759917.56595993 -0.454686969518661499 -0.890500426292419434 -0.0148439304903149605 0.00696015963330864906
102.037734985351562 60.4299240112304688 7.6308436393737793 225 1644759918.66510487 -0.566113948822021484 -0.824116408824920654 -0.0183376073837280273 -0.00329363672062754631
100.341484069824219 65.5484085083007812 7.6325225830078125 226 1644759919.76666737 -0.552851378917694092 -0.833183169364929199 -0.00425881007686257362 0.0119584901258349419
97.3104324340820312 69.928680419921875 7.7039647102355957 227 1644759920.7626946 -0.443375110626220703 -0.895925283432006836 -0.0172319058328866959 0.0209625791758298874
93.8394775390625 73.8366851806640625 7.76978302001953125 228 1644759921.66347909 -0.397474408149719238 -0.917240917682647705 -0.0100596742704510689 0.0241235159337520599
89.9911041259765625 77.7250137329101562 7.84804821014404297 229 1644759922.56344247 -0.384220749139785767 -0.923011600971221924 -0.00447419937700033188 0.0200982112437486649
85.9726181030273438 81.6177444458007812 7.86172246932983398 230 1644759923.46626258 -0.381031394004821777 -0.924388289451599121 -0.00739789893850684166 0.0163305792957544327
82.0341415405273438 85.63128662109375 7.89181661605834961 231 1644759924.36498785 -0.384844332933425903 -0.922811627388000488 -0.00677512865513563156 0.0163594502955675125
78.078094482421875 89.4613265991210938 7.91481590270996094 232 1644759925.26617527 -0.374815672636032104 -0.9270363450050354 0.000393568247091025114 0.0107996230944991112
74.2134323120117188 93.1888580322265625 7.93497562408447266 233 1644759926.26491761 -0.377465903759002686 -0.925871193408966064 -0.0112237380817532539 0.0124917095527052879
70.308135986328125 96.8739166259765625 7.92976856231689453 234 1644759927.36697769 -0.366123557090759277 -0.930492043495178223 -0.0051085231825709343 0.010584760457277298
66.36834716796875 100.4873046875 7.92684841156005859 235 1644759928.46754098 -0.37629351019859314 -0.926395118236541748 -0.0102882878854870796 0.00945463869720697403
63.0774192810058594 104.675132751464844 7.88817071914672852 236 1644759929.46629238 -0.486314356327056885 -0.873600184917449951 -0.0177544616162776947 -0.00242482987232506275
61.4825592041015625 109.912071228027344 7.88338804244995117 237 1644759930.57123876 -0.645874619483947754 -0.763288319110870361 -0.0134176621213555336 0.00754212774336338043
61.8795661926269531 113.185791015625 7.83703470230102539 238 1644759931.27010298 -0.775877535343170166 -0.630801856517791748 -0.00423182034865021706 -0.00922852754592895508
63.4401359558105469 115.899543762207031 7.77779245376586914 239 1644759931.96944976 -0.881560742855072021 -0.471652835607528687 -0.00623266398906707764 -0.0188511721789836884
66.1437606811523438 117.967735290527344 7.75381708145141602 240 1644759932.76419973 -0.954403102397918701 -0.29805070161819458 -0.00448767468333244324 -0.0161354131996631622
69.2270584106445312 118.94134521484375 7.71592330932617188 241 1644759933.56954575 -0.993252217769622803 -0.115060165524482727 0.00242956634610891342 -0.0143281100317835808
71.6544036865234375 118.586372375488281 7.69251155853271484 242 1644759934.16861415 -0.997799038887023926 0.0662271231412887573 0.00153152132406830788 0.00294635677710175514
74.0115509033203125 117.249465942382812 7.69411849975585938 243 1644759934.76431537 -0.963486135005950928 0.267460018396377563 -0.012521497905254364 0.00167933956254273653
77.8073272705078125 113.813377380371094 7.69105434417724609 244 1644759935.76474357 -0.931848227977752686 0.362305194139480591 -0.0188770443201065063 0.00611784867942333221
81.4899978637695312 110.181594848632812 7.66492223739624023 245 1644759936.66680455 -0.923113822937011719 0.384338974952697754 -0.00972869619727134705 0.00705838901922106743
85.3700408935546875 106.349662780761719 7.67623090744018555 246 1644759937.56407142 -0.927106142044067383 0.3742942214012146 -0.0184570308774709702 0.00611245725303888321
89.0013809204101562 102.881484985351562 7.65476608276367188 247 1644759938.36359882 -0.92888873815536499 0.37023848295211792 -0.00783909205347299576 0.00526988320052623749
92.6619033813476562 99.4092178344726562 7.64168214797973633 248 1644759939.16375971 -0.92838364839553833 0.371429324150085449 -0.0107891140505671501 0.00526049640029668808
96.3047103881835938 95.8614349365234375 7.63324880599975586 249 1644759939.96557403 -0.924272119998931885 0.381506830453872681 -0.0125023107975721359 0.00415908358991146088
99.914703369140625 92.2692337036132812 7.6410517692565918 250 1644759940.76554275 -0.921827435493469238 0.38745582103729248 -0.0102858003228902817 0.00252855313010513783
103.622772216796875 88.1352691650390625 7.62379169464111328 251 1644759941.66461515 -0.907087445259094238 0.420748293399810791 -0.00920033548027276993 0.00886598415672779083
106.703102111816406 84.0196609497070312 7.64533853530883789 252 1644759942.56463647 -0.886926770210266113 0.461572945117950439 -0.0126214809715747833 0.012328730896115303
108.64306640625 79.3286819458007812 7.71162700653076172 253 1644759943.56507921 -0.791296720504760742 0.611220657825469971 -0.00906799361109733582 -0.0132888602092862129
108.527275085449219 76.152862548828125 7.75902318954467773 254 1644759944.26429534 -0.665748417377471924 0.746012985706329346 0.00532134249806404114 -0.0146743692457675934
107.272567749023438 73.5141372680664062 7.7540135383605957 255 1644759944.96423936 -0.506520748138427734 0.861897468566894531 0.0179108623415231705 -0.0157674346119165421
105.173912048339844 71.6882705688476562 7.75570011138916016 256 1644759945.66251493 -0.340690761804580688 0.940051257610321045 0.0125830993056297302 -0.00866344757378101349
102.74395751953125 70.7096633911132812 7.74162197113037109 257 1644759946.26256156 -0.171815186738967896 0.984888374805450439 0.0213401764631271362 -0.0043599582277238369
100.147926330566406 70.7405624389648438 7.7065424919128418 258 1644759946.86303449 0.013779299333691597 0.99985504150390625 0.00997895374894142151 0.000638691068161278963
97.8799972534179688 71.6398086547851562 7.71664047241210938 259 1644759947.46464777 0.189116373658180237 0.981945514678955078 0.00150807865429669619 -0.00396651821210980415
91.8071517944335938 75.499481201171875 7.79393625259399414 260 1644759949.46467447 0.16442437469959259 0.986262500286102295 -0.00312571763060986996 -0.0155295096337795258
86.6558151245117188 73.89361572265625 7.78684043884277344 261 1644759950.86309552 -0.260927528142929077 0.965290546417236328 0.010966799221932888 -0.00326785724610090256
82.9841842651367188 70.113739013671875 7.7324981689453125 262 1644759952.16493058 -0.392911642789840698 0.919523000717163086 0.004363297950476408 -0.00888301059603691101
79.5889511108398438 66.4311141967773438 7.6999201774597168 263 1644759953.26482677 -0.399424850940704346 0.916670441627502441 0.00757682137191295624 -0.0108462916687130928
76.17510986328125 62.70123291015625 7.71793270111083984 264 1644759954.36470795 -0.400716453790664673 0.916051924228668213 0.0142207881435751915 -0.00854381173849105835
73.2768707275390625 58.2769317626953125 7.6818084716796875 265 1644759955.56715441 -0.516749382019042969 0.856044352054595947 0.00850197393447160721 -0.00926367007195949554
72.275421142578125 53.5067977905273438 7.59619569778442383 266 1644759956.76654649 -0.659328699111938477 0.751685976982116699 0.0055196983739733696 -0.0149453096091747284
71.7929840087890625 48.5005683898925781 7.47725677490234375 267 1644759958.06725526 -0.645848393440246582 0.76343083381652832 0.00338285649195313454 0.00646798685193061829
69.316497802734375 43.8529014587402344 7.32065248489379883 268 1644759959.36822248 -0.465692311525344849 0.88484656810760498 -0.0083028813824057579 0.0104052666574716568
65.83319091796875 40.2194023132324219 7.15160179138183594 269 1644759960.37086535 -0.388776332139968872 0.921282589435577393 -0.00472595216706395149 0.00830608420073986053
62.2152252197265625 36.4506874084472656 6.97528076171875 270 1644759961.26840401 -0.378600567579269409 0.925520122051239014 -0.00358474045060575008 0.0078298225998878479
58.4454498291015625 32.4678230285644531 6.79013252258300781 271 1644759962.16820669 -0.392311722040176392 0.919801115989685059 -0.00309056066907942295 0.00691663287580013275
54.8654823303222656 28.8829917907714844 6.64084672927856445 272 1644759962.96890354 -0.377241164445877075 0.926089942455291748 -0.0020548822358250618 0.00650509167462587357
51.1925125122070312 25.2969741821289062 6.56759405136108398 273 1644759963.76489711 -0.379480987787246704 0.92516857385635376 -0.00753827858716249466 -0.000670162786263972521
47.62017822265625 21.5727958679199219 6.5647587776184082 274 1644759964.5671134 -0.389879375696182251 0.920790553092956543 0.00164174300152808428 -0.011667042039334774
44.1271896362304688 17.7901153564453125 6.54597568511962891 275 1644759965.36469054 -0.389942944049835205 0.920576035976409912 0.0219673197716474533 0.00129254732746630907
40.4925613403320312 14.1921453475952148 6.52699995040893555 276 1644759966.16581964 -0.379172295331954956 0.925269126892089844 0.00515068834647536278 -0.00888219289481639862
36.8683395385742188 10.5290441513061523 6.49303340911865234 277 1644759966.96614337 -0.38569033145904541 0.922602951526641846 0.00310137472115457058 -0.00609696004539728165
33.2357559204101562 6.88490009307861328 6.46772623062133789 278 1644759967.76761198 -0.386509507894515991 0.922176361083984375 -0.0136695625260472298 -0.00378781533800065517
29.5863876342773438 3.28786969184875488 6.47603607177734375 279 1644759968.56621504 -0.374455809593200684 0.927158832550048828 -0.0125731378793716431 0.00110104761552065611
25.8767032623291016 -0.182920157909393311 6.49499416351318359 280 1644759969.36672831 -0.360430240631103516 0.932755351066589355 -0.00688264193013310432 -0.0031781333964318037
21.6715373992919922 -3.65685296058654785 6.50525903701782227 281 1644759970.26687884 -0.315427839756011963 0.948896825313568115 -0.00168358033988624811 -0.00986308511346578598
16.9365310668945312 -6.40810918807983398 6.66551351547241211 282 1644759971.16709518 -0.233799189329147339 0.971881330013275146 -0.0147916702553629875 -0.0237875264137983322
11.8156070709228516 -8.17697238922119141 6.93357467651367188 283 1644759972.06742883 -0.136478930711746216 0.989726245403289795 -0.0216921325773000717 -0.0366724543273448944
6.62539386749267578 -9.11463260650634766 7.31994342803955078 284 1644759972.96681523 -0.0687552914023399353 0.996082425117492676 -0.0216795522719621658 -0.0512099489569664001
1.5040515661239624 -9.44387435913085938 7.76269912719726562 285 1644759973.86571121 -0.0118373297154903412 0.998456597328186035 -0.0161779634654521942 -0.0517937019467353821
-3.52107906341552734 -9.19337177276611328 8.15203189849853516 286 1644759974.76445317 0.0300238952040672302 0.998385071754455566 -0.0195261966437101364 -0.0440965518355369568
-8.59643650054931641 -8.73739242553710938 8.38387393951416016 287 1644759975.7623198 0.0609393194317817688 0.997844517230987549 -0.00875564292073249817 -0.022717893123626709
-13.7428207397460938 -8.01527881622314453 8.49978256225585938 288 1644759976.96448255 0.0665097907185554504 0.997687935829162598 0.000764872762374579906 -0.013953033834695816
-18.0040874481201172 -6.37965583801269531 8.5523681640625 289 1644759978.16177678 0.245888277888298035 0.96920931339263916 0.00455242302268743515 -0.0123090296983718872
-21.5563869476318359 -2.85456252098083496 8.60828304290771484 290 1644759979.46223497 0.386145263910293579 0.922092914581298828 -0.012286684475839138 -0.0220347512513399124
-26.4950733184814453 -0.904055535793304443 8.74275684356689453 291 1644759980.76171708 0.0819144397974014282 0.99621051549911499 -0.0160358194261789322 -0.0244425646960735321
-31.4617424011230469 -1.99310743808746338 8.81941795349121094 292 1644759982.05877185 -0.1914653480052948 0.98127138614654541 -0.0207401979714632034 -0.00415948359295725822
-33.5057754516601562 -3.85653996467590332 8.81052875518798828 293 1644759982.76017046 -0.376889526844024658 0.925898075103759766 -0.0257868189364671707 0.00146042928099632263
-34.5826911926269531 -6.0696568489074707 8.75557518005371094 294 1644759983.3637886 -0.542446136474609375 0.83934253454208374 -0.0269740018993616104 0.0229950081557035446
-34.6172447204589844 -8.52954006195068359 8.69931697845458984 295 1644759983.96194386 -0.702447474002838135 0.710650265216827393 -0.0222867745906114578 0.0323584936559200287
-33.5755500793457031 -11.2177581787109375 8.62470436096191406 296 1644759984.66225886 -0.824239015579223633 0.565465748310089111 -0.012279631569981575 0.0269774030894041061
-32.0407829284667969 -16.1190204620361328 8.49486064910888672 297 1644759985.9628427 -0.77133256196975708 0.636311829090118408 0.00663738418370485306 0.0104532232508063316
-31.9519138336181641 -21.1303882598876953 8.304046630859375 298 1644759987.16484594 -0.705249369144439697 0.708490490913391113 -0.0047545330598950386 0.0253375452011823654
-32.2100906372070312 -26.2493343353271484 8.07398700714111328 299 1644759988.36234522 -0.685538709163665771 0.727651834487915039 0.000351279391907155514 0.0236492529511451721
-32.3407936096191406 -31.3987064361572266 7.84342002868652344 300 1644759989.56041026 -0.704488277435302734 0.709341347217559814 -0.00196184753440320492 0.0229613762348890305
-31.8957443237304688 -36.5513114929199219 7.60292720794677734 301 1644759990.76051235 -0.740926504135131836 0.671218216419219971 0.0101475398987531662 0.0197764448821544647
-31.0648918151855469 -41.6870880126953125 7.34547662734985352 302 1644759991.96196008 -0.7585563063621521 0.651161015033721924 0.0209659971296787262 0.0119205387309193611
-29.9246540069580078 -46.8349456787109375 7.04520177841186523 303 1644759993.15875673 -0.802604615688323975 0.59625929594039917 0.000640679500065743923 0.0173283219337463379
-27.6798858642578125 -50.2866020202636719 6.75013399124145508 304 1644759994.06014013 -0.894211113452911377 0.446105390787124634 0.0321644432842731476 0.0184907484799623489
-24.9667072296142578 -52.1463508605957031 6.48643684387207031 305 1644759994.75980401 -0.960387170314788818 0.27678447961807251 0.0319074131548404694 0.00536674121394753456
-21.1589012145996094 -53.0218544006347656 6.21798133850097656 306 1644759995.56112146 -0.994410216808319092 0.100713856518268585 0.025906980037689209 -0.0182734783738851547
-16.1550636291503906 -53.5813102722167969 5.94605445861816406 307 1644759996.4598515 -0.998372197151184082 0.0512500330805778503 0.0171516593545675278 -0.0182275436818599701
-11.0955114364624023 -54.1090469360351562 5.62237405776977539 308 1644759997.25966167 -0.997338593006134033 0.0636618658900260925 0.0262800641357898712 -0.023921595886349678
2.52166581153869629 -55.5413970947265625 4.72872400283813477 309 1644759999.26018906 -0.998691022396087646 0.0433872155845165253 0.0270648282021284103 -0.00112176837865263224
17.6860675811767578 -56.1595726013183594 3.71290016174316406 310 1644760001.35888839 -0.999487519264221191 0.00212304363958537579 0.0304164346307516098 -0.00975015014410018921
32.3926353454589844 -54.2114067077636719 2.82155442237854004 311 1644760003.36169744 -0.994140386581420898 -0.105966106057167053 0.0181227941066026688 -0.0112985270097851753
46.7049522399902344 -48.9361953735351562 2.27676129341125488 312 1644760005.46107221 -0.973135471343994141 -0.229885026812553406 0.0109498696401715279 -0.00634912680834531784
58.0229225158691406 -41.5438156127929688 2.17222261428833008 313 1644760007.46168327 -0.948465287685394287 -0.316708952188491821 -0.00927999988198280334 -0.00478582503274083138
64.2659149169921875 -36.0987586975097656 2.32400107383728027 314 1644760008.76138759 -0.930338680744171143 -0.365590780973434448 -0.0284752212464809418 -0.00157855241559445858
68.1593246459960938 -32.136962890625 2.52375483512878418 315 1644760009.66245008 -0.918410301208496094 -0.394612610340118408 -0.0281058289110660553 0.00367630040273070335
71.911224365234375 -28.1137447357177734 2.717193603515625 316 1644760010.56321931 -0.917379975318908691 -0.397424042224884033 -0.0194374304264783859 0.00950229912996292114
75.6986236572265625 -24.1782455444335938 2.87512993812561035 317 1644760011.46266818 -0.924267232418060303 -0.38092803955078125 -0.0240493789315223694 0.00674984138458967209
79.5691452026367188 -20.4394683837890625 3.16061186790466309 318 1644760012.36313891 -0.92705148458480835 -0.372736603021621704 -0.0358084142208099365 0.0189915988594293594
83.8051376342773438 -16.3282318115234375 3.49910187721252441 319 1644760013.3644588 -0.927215456962585449 -0.372196108102798462 -0.0401601418852806091 0.0113458139821887016
87.5447998046875 -12.6055231094360352 3.7801513671875 320 1644760014.26359653 -0.924513399600982666 -0.379192531108856201 -0.0378267616033554077 0.00756154907867312431
94.9465560913085938 -5.16992950439453125 4.40957117080688477 321 1644760016.06510353 -0.919915556907653809 -0.389761894941329956 -0.0411908738315105438 0.0120143704116344452
98.5560379028320312 -1.41101765632629395 4.72689485549926758 322 1644760016.96499538 -0.921167731285095215 -0.386950582265853882 -0.0412284620106220245 0.00441238004714250565
102.123641967773438 2.30353784561157227 5.07118320465087891 323 1644760017.86158323 -0.91939014196395874 -0.390437155961990356 -0.047378983348608017 0.0059877871535718441
105.639228820800781 6.08266401290893555 5.42182064056396484 324 1644760018.76077914 -0.915024757385253906 -0.400813102722167969 -0.0454503297805786133 0.0035842149518430233
