# .PCD v0.7 - Point Cloud Data file format
VERSION 0.7
FIELDS x y z intensity t qx qy qz qw
SIZE 4 4 4 4 8 4 4 4 4
TYPE F F F F F F F F F
COUNT 1 1 1 1 1 1 1 1 1
WIDTH 275
HEIGHT 1
VIEWPOINT 0 0 0 1 0 0 0
POINTS 275
DATA ascii
24.3687763214111328 -1.2803809642791748 6.49383974075317383 133 1645018985.23077059 -0.370947271585464478 0.92862015962600708 -0.00626600440591573715 0.00484114699065685272
20.4563407897949219 -4.59151697158813477 6.52108097076416016 134 1645018985.93189573 -0.315686851739883423 0.948851346969604492 0.000307138834614306688 -0.00478338217362761497
15.4087867736816406 -7.23142671585083008 6.74534988403320312 135 1645018986.73034239 -0.195486858487129211 0.980345785617828369 -0.0157374367117881775 -0.0214316640049219131
9.98681640625 -8.59414005279541016 7.05399656295776367 136 1645018987.52952337 -0.0981583669781684875 0.994268238544464111 -0.0244108345359563828 -0.0346374809741973877
4.63509225845336914 -9.36067390441894531 7.51141881942749023 137 1645018988.33064318 -0.0630512088537216187 0.996170639991760254 -0.0239660441875457764 -0.0556254424154758453
-0.506427526473999023 -9.69641304016113281 7.93551301956176758 138 1645018989.13198757 -0.0244774576276540756 0.998701274394989014 -0.0178263280540704727 -0.0409740246832370758
-5.50828647613525391 -9.60094928741455078 8.27833080291748047 139 1645018990.03429413 0.0194979477673768997 0.999213218688964844 -0.0241155009716749191 -0.0247230157256126404
-10.5762300491333008 -9.46293067932128906 8.47038555145263672 140 1645018991.1331141 -0.000406092993216589093 0.999591052532196045 -0.0210609566420316696 -0.0193391870707273483
-15.7653379440307617 -10.0543088912963867 8.5471343994140625 141 1645018992.23611116 -0.073445931077003479 0.997232496738433838 -0.00138403347227722406 -0.0114515209570527077
-20.9804039001464844 -11.4890623092651367 8.57978916168212891 142 1645018993.33383727 -0.142505347728729248 0.989751517772674561 -0.00858992896974086761 0.0032249081414192915
-26.0594730377197266 -13.3451547622680664 8.61604499816894531 143 1645018994.53349662 -0.155347079038619995 0.987806439399719238 0.0102373184636235237 -0.000973825633991509676
-31.2420425415039062 -13.0290708541870117 8.62486362457275391 144 1645018995.83222628 0.137298285961151123 0.990266144275665283 0.0215631015598773956 0.00756129901856184006
-33.4353141784667969 -11.5371160507202148 8.63600730895996094 145 1645018996.43084717 0.319617956876754761 0.946866452693939209 0.0339548662304878235 0.01163436658680439
-34.69439697265625 -9.61307716369628906 8.66036033630371094 146 1645018996.93565583 0.484415322542190552 0.874157071113586426 0.0309931859374046326 0.0151854949072003365
-35.1929054260253906 -7.15385103225708008 8.72596549987792969 147 1645018997.53047395 0.63710629940032959 0.770266592502593994 0.0256616510450839996 0.0112420860677957535
-34.7307395935058594 -4.51295852661132812 8.77353858947753906 148 1645018998.23084497 0.77479475736618042 0.631821930408477783 0.016636015847325325 0.014744526706635952
-33.3300552368164062 -2.20158123970031738 8.79242229461669922 149 1645018998.93000364 0.876282811164855957 0.481259703636169434 0.00819159112870693207 0.0212229155004024506
-31.1907787322998047 -0.653646707534790039 8.81043243408203125 150 1645018999.63003802 0.952584981918334961 0.304068922996520996 0.00200229557231068611 0.010953943245112896
-28.536224365234375 0.0869152173399925232 8.79311847686767578 151 1645019000.33231568 0.99257659912109375 0.120867550373077393 -0.00290897046215832233 0.0132023859769105911
-26.0133876800537109 -0.180653393268585205 8.73227596282958984 152 1645019000.92988348 0.998228013515472412 -0.0561140626668930054 -0.0169037971645593643 0.0103127220645546913
-23.6703872680664062 -1.32444071769714355 8.66046142578125 153 1645019001.53103256 0.970545709133148193 -0.239560142159461975 -0.0209318473935127258 0.0146232983097434044
-21.9164371490478516 -3.25017309188842773 8.61003208160400391 154 1645019002.12887359 0.907808840274810791 -0.418556541204452515 -0.0199971664696931839 0.017137596383690834
-20.9894924163818359 -5.70365762710571289 8.61377906799316406 155 1645019002.73128605 0.813002288341522217 -0.581688523292541504 -0.0184604339301586151 0.0180266816169023514
-21.0382614135742188 -8.27641010284423828 8.62138557434082031 156 1645019003.3285315 0.696269333362579346 -0.717495918273925781 -0.0179969780147075653 0.00920564495027065277
-22.3015708923339844 -11.5250530242919922 8.58409690856933594 157 1645019004.12641978 0.55247420072555542 -0.833396196365356445 -0.014100637286901474 -0.00491984887048602104
-25.9380989074707031 -18.7445545196533203 8.48668766021728516 158 1645019005.73080063 0.547907710075378418 -0.836223125457763672 0.00425673369318246841 -0.0225818585604429245
-27.4935626983642578 -23.9754791259765625 8.20507049560546875 159 1645019006.73064351 0.612817227840423584 -0.789930403232574463 -0.0214183107018470764 -0.0025000798050314188
-28.4461250305175781 -28.9711818695068359 7.92830753326416016 160 1645019007.62849069 0.638812541961669922 -0.768796324729919434 -0.0281073860824108124 -0.00898828264325857162
-29.1227588653564453 -33.9762458801269531 7.69883060455322266 161 1645019008.52764034 0.662526071071624756 -0.748479068279266357 -0.0274768155068159103 -0.0091265849769115448
-29.5691890716552734 -38.9557952880859375 7.43524503707885742 162 1645019009.42737103 0.673405170440673828 -0.738522648811340332 -0.032361980527639389 -0.00790628138929605484
-29.8901557922363281 -44.1332588195800781 7.14911127090454102 163 1645019010.42740965 0.6849861741065979 -0.727598845958709717 -0.0341711230576038361 -0.0150387817993760109
-30.4270591735839844 -49.1256256103515625 6.97799348831176758 164 1645019011.62819242 0.646682918071746826 -0.762472212314605713 -0.0208540279418230057 0.00156543427146971226
-32.1687698364257812 -53.8390159606933594 6.94277667999267578 165 1645019013.02768207 0.520072519779205322 -0.853707253932952881 -0.0199867542833089828 0.0175803098827600479
-34.2752532958984375 -55.8732681274414062 7.02836179733276367 166 1645019013.92880726 0.347042620182037354 -0.937307834625244141 -0.0169783458113670349 0.0269674565643072128
-36.3647270202636719 -56.5230941772460938 7.11737966537475586 167 1645019014.62733483 0.171045467257499695 -0.985174119472503662 0.00491784326732158661 0.0122992247343063354
-39.3877487182617188 -56.5328636169433594 7.23695182800292969 168 1645019016.12763834 -0.00263208826072514057 -0.999771833419799805 0.00967359635978937149 0.018860895186662674
-44.3848915100097656 -55.9506950378417969 7.36970138549804688 169 1645019018.13088989 -0.0669383853673934937 -0.997564435005187988 0.00406421208754181862 0.0191822387278079987
-49.4099655151367188 -56.2041130065917969 7.43123292922973633 170 1645019019.72883415 0.0645662695169448853 -0.997849345207214355 -0.011168844997882843 0.00178065593354403973
-54.0219078063964844 -58.25933837890625 7.21715164184570312 171 1645019021.2300415 0.254070699214935303 -0.966167986392974854 -0.0408151969313621521 -0.0173658840358257294
-57.1669197082519531 -62.2932014465332031 6.89348602294921875 172 1645019022.62938309 0.503820240497589111 -0.86312568187713623 -0.0242657307535409927 -0.0242982972413301468
-58.5359840393066406 -67.5330581665039062 6.4851679801940918 173 1645019023.83007097 0.638639390468597412 -0.768619894981384277 -0.0228628460317850113 -0.0289898943156003952
-58.8286285400390625 -72.5481719970703125 6.04041957855224609 174 1645019024.82977676 0.694330036640167236 -0.718105137348175049 -0.0330062992870807648 -0.0337844081223011017
-58.9603500366210938 -77.8604965209960938 5.61632442474365234 175 1645019025.82872534 0.689683735370635986 -0.72279810905456543 -0.0307146254926919937 -0.0309173520654439926
-59.3065643310546875 -83.1377182006835938 5.17214441299438477 176 1645019026.82906294 0.680425047874450684 -0.73097151517868042 -0.0371018089354038239 -0.0364118851721286774
-59.4702987670898438 -88.4556045532226562 4.81908464431762695 177 1645019028.02987981 0.689629554748535156 -0.723106920719146729 -0.0360464416444301605 -0.0151047240942716599
-59.6671981811523438 -93.7110671997070312 4.34382009506225586 178 1645019029.23060107 0.69325786828994751 -0.71940147876739502 -0.0406268984079360962 -0.0142999580129981041
-59.7234954833984375 -99.1486740112304688 3.86791491508483887 179 1645019030.33044004 0.711925685405731201 -0.700890064239501953 -0.0362346433103084564 -0.0245356783270835876
-59.14105224609375 -104.411598205566406 3.41037964820861816 180 1645019031.32999063 0.7577323317527771 -0.651051640510559082 -0.0385200083255767822 -0.0221290718764066696
-57.8798484802246094 -109.716285705566406 2.87425565719604492 181 1645019032.23158407 0.785485148429870605 -0.61695486307144165 -0.0466735474765300751 -0.0141902770847082138
-56.5461692810058594 -114.51483154296875 2.39318156242370605 182 1645019032.93197894 0.79751664400100708 -0.601123392581939697 -0.0494291000068187714 -0.0132122170180082321
-54.6820793151855469 -119.541450500488281 1.89542305469512939 183 1645019033.63065886 0.829698145389556885 -0.556233227252960205 -0.0453842468559741974 -0.0120751615613698959
-52.1305732727050781 -124.444931030273438 1.45640707015991211 184 1645019034.33106303 0.865343987941741943 -0.499789208173751831 -0.0361317954957485199 -0.00922179408371448517
-48.8622703552246094 -129.003936767578125 1.07492244243621826 185 1645019035.03112507 0.899240612983703613 -0.436439335346221924 -0.0296598300337791443 -0.0026959259994328022
-45.0832710266113281 -133.283294677734375 0.670168519020080566 186 1645019035.7324934 0.912110567092895508 -0.408024311065673828 -0.0395939014852046967 -0.00166455528233200312
-41.2057762145996094 -137.54217529296875 0.22888462245464325 187 1645019036.43287158 0.915678322315216064 -0.400102823972702026 -0.0373325273394584656 -0.00756159191951155663
-37.7025566101074219 -141.128555297851562 -0.178156927227973938 188 1645019037.03403115 0.925526022911071777 -0.376860350370407104 -0.0342712365090847015 -0.0142594175413250923
-34.0788764953613281 -144.670547485351562 -0.54946589469909668 189 1645019037.6344471 0.925611317157745361 -0.376719385385513306 -0.0301361307501792908 -0.0204458311200141907
-30.3622512817382812 -148.192779541015625 -0.950683355331420898 190 1645019038.23261619 0.929175317287445068 -0.366947978734970093 -0.0373588576912879944 -0.0242219902575016022
-26.6133041381835938 -151.741744995117188 -1.39613890647888184 191 1645019038.83070874 0.927856564521789551 -0.369349628686904907 -0.0403702594339847565 -0.0321457497775554657
-22.8074951171875 -155.3326416015625 -1.8113330602645874 192 1645019039.43350434 0.927010834217071533 -0.373394161462783813 -0.029919816181063652 -0.0182339642196893692
-19.0563812255859375 -159.002151489257812 -2.19137477874755859 193 1645019040.03127813 0.925264060497283936 -0.377377897500991821 -0.0303199291229248047 -0.0235166363418102264
-15.2113380432128906 -162.698486328125 -2.61256051063537598 194 1645019040.63414407 0.926579833030700684 -0.373090952634811401 -0.0403313338756561279 -0.0250276867300271988
-11.3073148727416992 -166.260848999023438 -3.02740859985351562 195 1645019041.23416948 0.931902885437011719 -0.36043211817741394 -0.0362004302442073822 -0.0183102507144212723
-7.32392072677612305 -169.795272827148438 -3.40317726135253906 196 1645019041.83633852 0.933645188808441162 -0.356607437133789062 -0.0317916162312030792 -0.0112735861912369728
-3.40412163734436035 -173.316726684570312 -3.74103069305419922 197 1645019042.43284059 0.932093262672424316 -0.360764890909194946 -0.0298227276653051376 -0.012704094871878624
0.46624678373336792 -176.906173706054688 -4.04656457901000977 198 1645019043.03278303 0.929405450820922852 -0.367820113897323608 -0.0262563731521368027 -0.0149810714647173882
4.25996637344360352 -180.524948120117188 -4.33189916610717773 199 1645019043.63314819 0.926790237426757812 -0.374594599008560181 -0.024068320170044899 -0.0126293860375881195
7.98175287246704102 -184.153472900390625 -4.56429958343505859 200 1645019044.23524261 0.925742506980895996 -0.377743244171142578 -0.0137030649930238724 -0.0110939955338835716
11.6249065399169922 -187.725631713867188 -4.72394180297851562 201 1645019044.8318882 0.925199031829833984 -0.379027694463729858 -0.0150677403435111046 -0.010850212536752224
15.246464729309082 -191.312088012695312 -4.89621400833129883 202 1645019045.43424106 0.925176024436950684 -0.376529484987258911 -0.0353058278560638428 -0.0320675596594810486
19.2568206787109375 -195.240509033203125 -5.029296875 203 1645019046.13351846 0.924301505088806152 -0.381361246109008789 -0.00731055298820137978 -0.0132976975291967392
23.463287353515625 -198.916656494140625 -5.16907835006713867 204 1645019046.83391643 0.942791998386383057 -0.332855045795440674 -0.00896838586777448654 -0.0164409372955560684
27.9105682373046875 -202.133834838867188 -5.29253387451171875 205 1645019047.53487134 0.949577808380126953 -0.3132304847240448 -0.0134440166875720024 0.0028134533204138279
32.2616844177246094 -205.29498291015625 -5.33727121353149414 206 1645019048.23447561 0.954143822193145752 -0.299344182014465332 0.00144469458609819412 0.000708692648913711309
36.8521919250488281 -207.976791381835938 -5.32194852828979492 207 1645019048.93398523 0.968903303146362305 -0.24741913378238678 -0.00316092045977711678 -0.000451633153716102242
41.5534210205078125 -210.325454711914062 -5.30785655975341797 208 1645019049.63464928 0.976422607898712158 -0.215823516249656677 0.00435105012729763985 0.00034741099807433784
46.4385757446289062 -212.162322998046875 -5.29576969146728516 209 1645019050.33615494 0.986423075199127197 -0.164204329252243042 0.00175759370904415846 0.00182461901567876339
51.4527740478515625 -213.467758178710938 -5.28250408172607422 210 1645019051.03418684 0.99310678243637085 -0.117021545767784119 -4.89793274027761072e-05 0.00670027360320091248
56.5816688537597656 -214.328155517578125 -5.30230093002319336 211 1645019051.73269844 0.997515320777893066 -0.0700318142771720886 -0.00277417292818427086 0.00714690377935767174
61.7544898986816406 -214.86083984375 -5.30913686752319336 212 1645019052.43353796 0.998990535736083984 -0.0442229285836219788 0.00181645725388079882 0.00767931621521711349
66.862518310546875 -215.0775146484375 -5.3145146369934082 213 1645019053.1342063 0.999882221221923828 -0.013377784751355648 0.00140830513555556536 0.00738870725035667419
72.5261077880859375 -214.982528686523438 -5.32259607315063477 214 1645019053.93334866 0.99987328052520752 0.0143816471099853516 0.00218984996899962425 0.00646927021443843842
78.0425033569335938 -214.72283935546875 -5.29620647430419922 215 1645019054.73330212 0.999731540679931641 0.0198875386267900467 0.00579291488975286484 0.0103807924315333366
83.3276824951171875 -214.481048583984375 -5.26989364624023438 216 1645019055.53385997 0.999788343906402588 0.0170726794749498367 0.00229045585729181767 0.0112490886822342873
88.5989456176757812 -214.256805419921875 -5.27759599685668945 217 1645019056.3335247 0.999763071537017822 0.0148887448012828827 -0.00471820170059800148 0.0151610281318426132
93.9059906005859375 -214.08148193359375 -5.27158594131469727 218 1645019057.13408303 0.999785959720611572 0.0163601022213697433 -0.00333766266703605652 0.0122170718386769295
99.0187301635742188 -213.9000244140625 -5.29018545150756836 219 1645019057.93553925 0.999762594699859619 0.0186906792223453522 -0.00377075816504657269 0.0105451028794050217
104.488479614257812 -213.696670532226562 -5.32399654388427734 220 1645019058.83245873 0.999819040298461914 0.0162268746644258499 -0.00399303901940584183 0.00909216422587633133
109.676712036132812 -213.516021728515625 -5.32668018341064453 221 1645019059.73299885 0.99983525276184082 0.0175172090530395508 -0.00147898693103343248 0.00452230358496308327
115.075027465820312 -213.303253173828125 -5.35606479644775391 222 1645019060.73308372 0.999818027019500732 0.0175140667706727982 -0.000343070190865546465 0.00755125749856233597
120.111724853515625 -213.109115600585938 -5.3715062141418457 223 1645019061.73172617 0.999813318252563477 0.0179191790521144867 -0.00424056500196456909 0.00585049903020262718
125.247657775878906 -212.843917846679688 -5.38179349899291992 224 1645019062.83017111 0.999665379524230957 0.0238837897777557373 -0.00261005666106939316 0.0095852334052324295
130.340560913085938 -212.490982055664062 -5.37935543060302734 225 1645019064.03135419 0.999351203441619873 0.033884245902299881 -0.00256453198380768299 0.0119363414123654366
135.601028442382812 -212.196151733398438 -5.3809356689453125 226 1645019065.42997527 0.999667584896087646 0.0218785908073186874 -0.000449706625659018755 0.0136317852884531021
140.659698486328125 -211.991622924804688 -5.33665704727172852 227 1645019067.03392935 0.999786376953125 0.0173118636012077332 -0.0045204521156847477 0.0103464080020785332
144.5113525390625 -211.799102783203125 -5.33339548110961914 228 1645019069.13103175 0.99970167875289917 0.0208992306143045425 -0.000128147235955111682 0.0126396054401993752
146.026016235351562 -211.714508056640625 -5.33145380020141602 229 1645019071.23090243 0.999629318714141846 0.023533625528216362 -0.00395605806261301041 0.0131051167845726013
147.873764038085938 -211.610519409179688 -5.32284736633300781 230 1645019073.33225846 0.999643564224243164 0.0213633440434932709 0.00324485637247562408 0.0156797133386135101
148.355194091796875 -211.585494995117188 -5.3159480094909668 231 1645019075.3336575 0.99959564208984375 0.0238234084099531174 0.00285238283686339855 0.015260607935488224
148.496490478515625 -211.573745727539062 -5.29277276992797852 232 1645019081.03549242 0.999449610710144043 0.0246028658002614975 0.0151638779789209366 0.0162859857082366943
153.694915771484375 -211.252105712890625 -5.25877237319946289 233 1645019083.03557849 0.99945366382598877 0.0282469689846038818 0.0097491871565580368 0.0141201186925172806
158.966934204101562 -210.938552856445312 -5.18523216247558594 234 1645019084.43564582 0.999512672424316406 0.0276278816163539886 0.00923718605190515518 0.0112142805010080338
164.33709716796875 -210.6624755859375 -5.10185146331787109 235 1645019085.73259807 0.999669253826141357 0.0201802309602499008 0.0128971412777900696 0.00936856493353843689
169.453353881835938 -210.475875854492188 -4.98121261596679688 236 1645019086.93255997 0.999722719192504883 0.0149902813136577606 0.0168716702610254288 0.00671908538788557053
174.804763793945312 -210.297378540039062 -4.83527183532714844 237 1645019088.13097072 0.999664366245269775 0.0169475339353084564 0.0183033812791109085 0.00699085742235183716
180.213668823242188 -209.936492919921875 -4.67815780639648438 238 1645019089.33203769 0.999203860759735107 0.0342452488839626312 0.0177913215011358261 0.010116911493241787
185.28656005859375 -209.487945556640625 -4.52058649063110352 239 1645019090.53437638 0.998862385749816895 0.0441344194114208221 0.0153438262641429901 0.0095240296795964241
190.451583862304688 -208.964828491210938 -4.37434768676757812 240 1645019091.83097935 0.998526036739349365 0.05033150315284729 0.019698314368724823 0.00495153432711958885
195.585418701171875 -208.432510375976562 -4.20438766479492188 241 1645019093.13425493 0.998373687267303467 0.0529535487294197083 0.0209101196378469467 -0.00294203474186360836
200.7940673828125 -207.793777465820312 -4.0495448112487793 242 1645019094.33196425 0.998286902904510498 0.0556310862302780151 0.0177714582532644272 0.00355062074959278107
206.0223388671875 -207.19866943359375 -3.89597964286804199 243 1645019095.53109694 0.99846196174621582 0.0526036694645881653 0.0158259179443120956 0.00749246729537844658
211.17919921875 -206.638717651367188 -3.74364161491394043 244 1645019096.73143864 0.998401343822479248 0.0547140613198280334 0.0139607740566134453 0.00250038737431168556
216.163162231445312 -205.929580688476562 -3.5888063907623291 245 1645019097.93154645 0.996833622455596924 0.0773354321718215942 0.0183805450797080994 0.0020269730594009161
221.280029296875 -204.888458251953125 -3.44945025444030762 246 1645019099.13185978 0.994292259216308594 0.1052260622382164 0.0175899583846330643 0.000970742839854210615
226.163223266601562 -203.592742919921875 -3.30025839805603027 247 1645019100.2317481 0.990827441215515137 0.134232684969902039 0.0152516774833202362 0.00314713129773736
231.101669311523438 -201.966506958007812 -3.16592574119567871 248 1645019101.33280611 0.986320912837982178 0.163580819964408875 0.0186205282807350159 0.00810125842690467834
236.02838134765625 -200.129898071289062 -2.9813077449798584 249 1645019102.43288279 0.984042704105377197 0.175087511539459229 0.0314332135021686554 0.0040268762968480587
240.874557495117188 -198.447021484375 -2.85069370269775391 250 1645019103.43288374 0.987321615219116211 0.158223137259483337 0.0120752174407243729 -0.00395584013313055038
246.071624755859375 -196.854049682617188 -2.6828610897064209 251 1645019104.43591475 0.99088054895401001 0.130591884255409241 0.0323633812367916107 0.00735630141571164131
250.996231079101562 -195.702484130859375 -2.53449416160583496 252 1645019105.33592033 0.993859291076660156 0.107538297772407532 0.0247985795140266418 0.00801326893270015717
256.182769775390625 -194.676651000976562 -2.35968375205993652 253 1645019106.23741651 0.99524766206741333 0.0947731360793113708 0.0209615603089332581 0.0077920905314385891
261.541229248046875 -193.717666625976562 -2.16528463363647461 254 1645019107.13590765 0.99646759033203125 0.0807661265134811401 0.0203178524971008301 0.0107849119231104851
266.964691162109375 -192.831558227539062 -1.97095906734466553 255 1645019108.03470397 0.99618995189666748 0.084994778037071228 0.0179138053208589554 0.0077815554104745388
272.31695556640625 -191.654129028320312 -1.81740152835845947 256 1645019108.93479109 0.9922637939453125 0.12303740531206131 0.0165147855877876282 0.00126118573825806379
277.53692626953125 -190.009002685546875 -1.64435672760009766 257 1645019109.83457494 0.987076818943023682 0.158060163259506226 0.0254484452307224274 0.0069798552431166172
282.690185546875 -188.199981689453125 -1.45445644855499268 258 1645019110.73484302 0.984922647476196289 0.172272101044654846 0.0155337555333971977 -0.00289768632501363754
287.8203125 -186.29180908203125 -1.29565489292144775 259 1645019111.63490987 0.984123110771179199 0.176192626357078552 0.0210972093045711517 -0.00356836523860692978
292.5416259765625 -184.568466186523438 -1.13655126094818115 260 1645019112.4354775 0.984277963638305664 0.175613477826118469 0.0165443960577249527 -0.00911346171051263809
297.312957763671875 -182.662429809570312 -0.972473621368408203 261 1645019113.23840666 0.981865286827087402 0.185781434178352356 0.036624029278755188 0.00919057149440050125
302.10107421875 -180.672103881835938 -0.787737071514129639 262 1645019114.03966427 0.980975568294525146 0.192116469144821167 0.0268307588994503021 0.0076386244036257267
307.16912841796875 -178.455322265625 -0.515260994434356689 263 1645019114.9374752 0.979055523872375488 0.200487092137336731 0.0340046584606170654 0.00994683895260095596
312.055450439453125 -176.339981079101562 -0.205538257956504822 264 1645019115.83876109 0.979480445384979248 0.199512585997581482 0.0282370131462812424 0.00393225112929940224
316.68853759765625 -174.242843627929688 0.0862728431820869446 265 1645019116.73722816 0.975109398365020752 0.219897940754890442 0.0280646663159132004 0.00434642191976308823
321.07696533203125 -171.57489013671875 0.366943478584289551 266 1645019117.73774719 0.953437268733978271 0.299607753753662109 0.0344961397349834442 -0.00162130175158381462
323.550384521484375 -168.519607543945312 0.54053044319152832 267 1645019118.53779173 0.87624824047088623 0.481409251689910889 0.0200919453054666519 -0.0055157030001282692
324.380279541015625 -165.228775024414062 0.684660732746124268 268 1645019119.23963666 0.771471917629241943 0.635720312595367432 0.0240763742476701736 -0.010538899339735508
324.172271728515625 -161.545364379882812 1.13504612445831299 269 1645019120.03843045 0.644748687744140625 0.761800765991210938 0.0298726372420787811 -0.0553744621574878693
321.907928466796875 -156.798599243164062 1.81115341186523438 270 1645019121.23968506 0.50515139102935791 0.860356032848358154 0.0447582043707370758 -0.0510518290102481842
318.90185546875 -152.731674194335938 2.35096287727355957 271 1645019122.44036674 0.441203534603118896 0.89562070369720459 0.0370332635939121246 -0.0427957884967327118
315.621490478515625 -148.910720825195312 2.8941657543182373 272 1645019123.63739586 0.409284442663192749 0.910357475280761719 0.0409452542662620544 -0.0453760549426078796
311.969390869140625 -145.481826782226562 3.45676374435424805 273 1645019124.84062433 0.352078527212142944 0.933910787105560303 0.0350602194666862488 -0.0512064844369888306
307.86444091796875 -142.5810546875 3.95037508010864258 274 1645019126.04135108 0.28365248441696167 0.957419633865356445 0.0269843451678752899 -0.0464843995869159698
303.2879638671875 -140.063522338867188 4.38838815689086914 275 1645019127.24001646 0.247537896037101746 0.967625975608825684 0.0260914377868175507 -0.0417630299925804138
298.4876708984375 -137.575958251953125 4.85290813446044922 276 1645019128.43968582 0.239050254225730896 0.969516158103942871 0.030551813542842865 -0.0442718788981437683
293.94635009765625 -135.146728515625 5.24261569976806641 277 1645019129.53903174 0.255077064037322998 0.965894579887390137 0.0299696102738380432 -0.0329421274363994598
289.303070068359375 -132.415359497070312 5.57224512100219727 278 1645019130.63720512 0.261251270771026611 0.964818477630615234 0.0209849122911691666 -0.0208020564168691635
284.63916015625 -129.946334838867188 5.75406599044799805 279 1645019131.8471694 0.248344361782073975 0.968187451362609863 0.0274008810520172119 -0.0136861084029078484
280.3748779296875 -127.319961547851562 5.91058540344238281 280 1645019133.14177322 0.284918874502182007 0.95827096700668335 0.0146474763751029968 -0.0179846324026584625
276.219879150390625 -124.359542846679688 6.03452396392822266 281 1645019134.23814082 0.307373613119125366 0.951484143733978271 -0.00233125337399542332 -0.0139248659834265709
271.99261474609375 -121.218666076660156 6.09721612930297852 282 1645019135.23798084 0.318322151899337769 0.94784778356552124 -0.0056949155405163765 -0.0149368783459067345
267.812774658203125 -118.047080993652344 6.13929605484008789 283 1645019136.1428895 0.319142669439315796 0.947494268417358398 -0.00575267709791660309 -0.0192223656922578812
263.323150634765625 -114.682991027832031 6.18615007400512695 284 1645019137.03843689 0.317133784294128418 0.948223710060119629 -0.0109274573624134064 -0.0133619755506515503
259.18035888671875 -111.442718505859375 6.21461057662963867 285 1645019137.84285474 0.33029019832611084 0.943719685077667236 -0.014046836644411087 -0.0102103259414434433
254.993865966796875 -107.900001525878906 6.22038698196411133 286 1645019138.64003491 0.357786089181900024 0.933704793453216553 -0.0123083312064409256 -0.00574391009286046028
250.988632202148438 -103.921340942382812 6.23798465728759766 287 1645019139.43826866 0.399707138538360596 0.91660386323928833 -0.00514177838340401649 -0.00671486649662256241
247.765243530273438 -99.9915847778320312 6.24146175384521484 288 1645019140.14123154 0.450361043214797974 0.892834663391113281 -0.00386630394496023655 0.00249440548941493034
245.144317626953125 -95.6670684814453125 6.23034238815307617 289 1645019140.83738923 0.509657561779022217 0.860312700271606445 0.010541270487010479 0.000385905324947088957
242.9984130859375 -90.9949951171875 6.25396013259887695 290 1645019141.53789282 0.549274682998657227 0.835614204406738281 0.00360456155613064766 -0.00576123641803860664
241.215347290039062 -86.1973648071289062 6.28002119064331055 291 1645019142.23869419 0.578495681285858154 0.815648794174194336 -0.00681747449561953545 -0.00365211069583892822
239.603485107421875 -80.9024429321289062 6.29786825180053711 292 1645019143.03751612 0.603933274745941162 0.796964406967163086 -0.0100557059049606323 -0.00335230352357029915
238.41412353515625 -75.805084228515625 6.31448888778686523 293 1645019143.83929634 0.630431950092315674 0.776213943958282471 -0.00581482984125614166 -0.00370444171130657196
237.739791870117188 -70.329498291015625 6.32591390609741211 294 1645019144.73983359 0.676024913787841797 0.736842811107635498 -0.00658056745305657387 -0.00310141337104141712
237.526336669921875 -65.1709671020507812 6.32839536666870117 295 1645019145.6371665 0.686808168888092041 0.726690888404846191 -0.0136003075167536736 -0.00547088123857975006
236.911788940429688 -59.9198036193847656 6.36857175827026367 296 1645019146.63783813 0.65655362606048584 0.754133462905883789 -0.00875392835587263107 -0.0119760017842054367
235.839431762695312 -54.798858642578125 6.42279863357543945 297 1645019147.73650813 0.619035601615905762 0.785301327705383301 0.00375509494915604591 -0.00909055024385452271
234.032501220703125 -49.9226646423339844 6.46702384948730469 298 1645019148.93811631 0.544231295585632324 0.838928878307342529 -0.000434747111285105348 -0.00322835356928408146
231.162155151367188 -45.7678680419921875 6.54285144805908203 299 1645019150.03933811 0.432990819215774536 0.901358604431152344 0.00766692915931344032 -0.00357790105044841766
227.141433715820312 -42.2689056396484375 6.59180068969726562 300 1645019151.14131689 0.321658879518508911 0.946830391883850098 0.00181364093441516161 -0.00667049968615174294
222.721786499023438 -39.9275894165039062 6.60343313217163086 301 1645019152.13712382 0.226615428924560547 0.973957300186157227 0.00725031271576881409 0.000335321732563897967
217.911605834960938 -37.7467803955078125 6.59913492202758789 302 1645019153.1372571 0.215967044234275818 0.976325511932373047 0.0115072987973690033 0.003778842743486166
212.98065185546875 -35.512847900390625 6.57561063766479492 303 1645019154.13725948 0.213262513279914856 0.976901471614837646 0.012112853117287159 0.00599088007584214211
208.437362670898438 -33.2847023010253906 6.54872894287109375 304 1645019155.03734088 0.232995077967643738 0.972439408302307129 0.00411515450105071068 0.00761133059859275818
203.927581787109375 -30.3724746704101562 6.54313039779663086 305 1645019156.03675556 0.302613407373428345 0.953078866004943848 -0.00731827132403850555 0.003497689263895154
199.918380737304688 -27.0215950012207031 6.59170675277709961 306 1645019157.03776622 0.361948370933532715 0.932181596755981445 0.00315552321262657642 -0.00457335542887449265
196.426223754882812 -23.0855712890625 6.701995849609375 307 1645019158.1387763 0.476824641227722168 0.878819942474365234 0.017693275585770607 0.0008475517388433218
195.727462768554688 -20.2313365936279297 6.80651712417602539 308 1645019158.83713269 0.634431838989257812 0.772782802581787109 0.016358010470867157 -0.00594622408971190453
195.634658813476562 -15.1665267944335938 6.97971487045288086 309 1645019160.0369184 0.684263288974761963 0.728954434394836426 0.00230518169701099396 -0.020097019150853157
194.688079833984375 -11.7263975143432617 7.08729648590087891 310 1645019160.9372406 0.596198976039886475 0.802717924118041992 0.0126126166433095932 -0.0056253368966281414
194.018814086914062 -9.73018169403076172 7.13161993026733398 311 1645019161.53902197 0.602057576179504395 0.798237979412078857 0.0181442070752382278 0.00368194305337965488
194.054000854492188 -7.80431509017944336 7.15893888473510742 312 1645019162.14011526 0.710363090038299561 0.703621387481689453 0.0119766369462013245 0.0125608555972576141
194.788742065429688 -6.50028514862060547 7.17903518676757812 313 1645019162.63775921 0.831934630870819092 0.554567217826843262 0.00909086503088474274 0.0160398148000240326
195.757080078125 -5.9091796875 7.19900369644165039 314 1645019163.03826308 0.925802052021026611 0.377648323774337769 0.00556924473494291306 0.015532253310084343
196.817306518554688 -5.83100128173828125 7.22136545181274414 315 1645019163.43803525 0.982256650924682617 0.187279313802719116 0.00343276234343647957 0.00930579658597707748
198.454010009765625 -6.7532343864440918 7.23376274108886719 316 1645019164.24070001 0.984112262725830078 -0.177489966154098511 -0.00386779941618442535 -0.00233209575526416302
198.939605712890625 -7.68253421783447266 7.23068904876708984 317 1645019164.7384305 0.927982330322265625 -0.372559666633605957 -0.00545508600771427155 -0.00428129732608795166
199.021209716796875 -8.69345569610595703 7.21128559112548828 318 1645019165.23960614 0.837960958480834961 -0.545600175857543945 -0.00858831312507390976 -0.00825260207056999207
198.677215576171875 -9.79870128631591797 7.18125629425048828 319 1645019165.74078274 0.699090301990509033 -0.714791178703308105 -0.0160010680556297302 -0.00950499251484870911
197.99041748046875 -10.5779342651367188 7.15452337265014648 320 1645019166.13973117 0.54511868953704834 -0.837998569011688232 -0.0211759898811578751 -0.0124747976660728455
197.029830932617188 -11.0306291580200195 7.13129568099975586 321 1645019166.54032278 0.360216468572616577 -0.932438850402832031 -0.0243340916931629181 -0.0144829722121357918
195.983230590820312 -11.0796012878417969 7.12153387069702148 322 1645019166.9389956 0.167322620749473572 -0.985450446605682373 -0.0274066254496574402 -0.0118095334619283676
195.006622314453125 -10.7516641616821289 7.14296770095825195 323 1645019167.34046865 -0.0108555126935243607 -0.999698162078857422 -0.0220386963337659836 0.000220554255065508187
193.404800415039062 -9.82281780242919922 7.12924957275390625 324 1645019167.94087243 -0.206885099411010742 -0.978334546089172363 -0.00699784606695175171 -0.00333873624913394451
185.311111450195312 -7.06882572174072266 7.0683588981628418 325 1645019169.9425528 -0.1043204665184021 -0.994425952434539795 -0.0142302224412560463 0.00564065715298056602
174.73077392578125 -3.19198989868164062 7.24263620376586914 326 1645019171.94337583 -0.270650476217269897 -0.962149322032928467 -0.0303008053451776505 0.00994574464857578278
165.09588623046875 5.67175960540771484 7.71547460556030273 327 1645019174.04305196 -0.383688658475875854 -0.923055768013000488 -0.0156002584844827652 0.0225310269743204117
155.677932739257812 15.3333377838134766 8.22164821624755859 328 1645019176.13950014 -0.384033024311065674 -0.922765374183654785 -0.0220228135585784912 0.0231869146227836609
146.730804443359375 23.9815425872802734 8.59564113616943359 329 1645019178.2402072 -0.361497402191162109 -0.932334601879119873 0.00846801791340112686 0.000267632945906370878
138.581832885742188 28.0614948272705078 8.31171131134033203 330 1645019180.2387445 -0.0836627483367919922 -0.995914459228515625 -0.00853598583489656448 -0.0328941754996776581
135.543563842773438 27.4751033782958984 8.14918994903564453 331 1645019180.94053984 0.109445832669734955 -0.993575513362884521 -0.00750983785837888718 -0.0278015881776809692
131.413818359375 25.149383544921875 7.77639055252075195 332 1645019181.83873391 0.283603757619857788 -0.958418369293212891 -0.0131072020158171654 -0.028832094743847847
127.155532836914062 21.4914836883544922 7.36786174774169922 333 1645019182.73989129 0.364421665668487549 -0.930588722229003906 -0.0170234963297843933 -0.0301946047693490982
123.460342407226562 17.6664676666259766 6.95254850387573242 334 1645019183.53881264 0.396291494369506836 -0.917228758335113525 -0.0201201960444450378 -0.0352089144289493561
119.688766479492188 13.7057590484619141 6.55272340774536133 335 1645019184.33885169 0.391764789819717407 -0.919181883335113525 -0.021211378276348114 -0.0342792496085166931
115.75994873046875 9.70459747314453125 6.15226936340332031 336 1645019185.13834524 0.388061970472335815 -0.920891463756561279 -0.016879720613360405 -0.0328928828239440918
112.165939331054688 6.04226016998291016 5.76689720153808594 337 1645019185.83873081 0.379844158887863159 -0.924154400825500488 -0.0251632016152143478 -0.0319986715912818909
108.402549743652344 2.19341945648193359 5.36661863327026367 338 1645019186.54115367 0.38499411940574646 -0.922169983386993408 -0.0234607495367527008 -0.0288375560194253922
104.587211608886719 -1.75343990325927734 4.96383333206176758 339 1645019187.23925805 0.388848990201950073 -0.920329451560974121 -0.0284939985722303391 -0.0312765203416347504
100.746505737304688 -5.72926044464111328 4.61313056945800781 340 1645019187.93986464 0.388080328702926636 -0.921160638332366943 -0.0218104440718889236 -0.0195190124213695526
96.875 -9.69632148742675781 4.28075504302978516 341 1645019188.64024258 0.385222345590591431 -0.922284603118896484 -0.0210746712982654572 -0.023466670885682106
93.0891952514648438 -13.4652547836303711 3.98773503303527832 342 1645019189.34142995 0.375723183155059814 -0.926084280014038086 -0.0188884884119033813 -0.0290390904992818832
89.4713821411132812 -16.9187030792236328 3.7156224250793457 343 1645019190.0416317 0.367992281913757324 -0.929349660873413086 -0.0115660419687628746 -0.0275148581713438034
85.887786865234375 -20.4749698638916016 3.42026877403259277 344 1645019190.84071541 0.41445353627204895 -0.909084022045135498 0.00560397282242774963 -0.0419892854988574982
84.1405410766601562 -24.1827831268310547 3.13262128829956055 345 1645019191.64142561 0.574173688888549805 -0.816900312900543213 -0.00223343702964484692 -0.0547120906412601471
84.057830810546875 -27.3761997222900391 2.93826532363891602 346 1645019192.44052601 0.717494726181030273 -0.694721579551696777 -0.00137543317396193743 -0.0506092533469200134
84.9413909912109375 -29.3841590881347656 2.8406827449798584 347 1645019193.04180408 0.829245805740356445 -0.556897580623626709 -0.00247880280949175358 -0.0470141209661960602
87.0008010864257812 -31.5631179809570312 2.65295100212097168 348 1645019193.74214816 0.921803176403045654 -0.382736742496490479 -0.0155492508783936501 -0.0595796741545200348
91.6605911254882812 -33.9730720520019531 2.41076493263244629 349 1645019194.74284697 0.975075483322143555 -0.218423694372177124 -0.0141505710780620575 -0.0363126285374164581
96.6834487915039062 -36.3002738952636719 2.20783662796020508 350 1645019195.6423142 0.975475609302520752 -0.218540936708450317 -0.0107843698933720589 -0.0238923244178295135
101.443382263183594 -39.0335845947265625 2.0153505802154541 351 1645019196.44312 0.954401850700378418 -0.297903776168823242 -0.0149667160585522652 -0.0121031850576400757
105.120819091796875 -42.5488471984863281 1.82897007465362549 352 1645019197.1431427 0.912602663040161133 -0.408403962850570679 -0.0169452335685491562 -0.0086880810558795929
107.919845581054688 -46.9788284301757812 1.63457977771759033 353 1645019197.84277964 0.862776041030883789 -0.505096733570098877 -0.0125242006033658981 -0.0183811541646718979
110.150825500488281 -51.787841796875 1.4315037727355957 354 1645019198.54223514 0.833063662052154541 -0.552666544914245605 -0.0113609451800584793 -0.0208717212080955505
111.510726928710938 -56.8264541625976562 1.25908279418945312 355 1645019199.24358344 0.763453543186187744 -0.645618319511413574 -0.011350962333381176 -0.013669012114405632
111.476860046386719 -61.9618988037109375 1.05735015869140625 356 1645019199.94386029 0.6787300705909729 -0.73398125171661377 -0.0105988560244441032 -0.0220157075673341751
110.348236083984375 -66.8948135375976562 0.838751316070556641 357 1645019200.64458203 0.594705283641815186 -0.803548872470855713 -0.0125977750867605209 -0.0218196846544742584
108.707115173339844 -71.6375274658203125 0.617142021656036377 358 1645019201.34463835 0.580833613872528076 -0.813686251640319824 0.00405132211744785309 -0.0230345875024795532
106.58355712890625 -76.176513671875 0.394812911748886108 359 1645019202.04521322 0.510642111301422119 -0.859333455562591553 -0.00589461531490087509 -0.0274932682514190674
103.145492553710938 -80.5824813842773438 0.219930604100227356 360 1645019202.84367847 0.401199102401733398 -0.915810227394104004 0.00525323674082756042 -0.0174164474010467529
98.7378158569335938 -84.0771102905273438 -0.142185688018798828 361 1645019203.6441896 0.298912227153778076 -0.953414440155029297 -0.00682707130908966064 -0.040071878582239151
93.891143798828125 -87.0212783813476562 -0.623061418533325195 362 1645019204.44365335 0.250709444284439087 -0.967307507991790771 -0.00747955311089754105 -0.0374838411808013916
88.7726974487304688 -89.52825927734375 -0.864387273788452148 363 1645019205.24661708 0.219232425093650818 -0.975636601448059082 -0.00167973607312887907 -0.0082187652587890625
84.0427017211914062 -91.8057327270507812 -0.946338891983032227 364 1645019206.04524279 0.216632530093193054 -0.976163566112518311 0.00190228677820414305 -0.0130913490429520607
79.3917999267578125 -93.6558380126953125 -0.951342999935150146 365 1645019206.94267511 0.167864054441452026 -0.985754609107971191 0.0102538764476776123 0.00208889227360486984
74.4066162109375 -94.8525466918945312 -0.900823354721069336 366 1645019207.9424727 0.0968755856156349182 -0.995113611221313477 0.0190609600394964218 -0.00085672654677182436
69.0744171142578125 -94.88128662109375 -0.887975454330444336 367 1645019209.14788008 -0.0540799349546432495 -0.998448431491851807 0.0132588604465126991 -0.000522132788319140673
65.6147918701171875 -93.4656906127929688 -0.935083925724029541 368 1645019210.0444665 -0.238930314779281616 -0.970945417881011963 0.00361447501927614212 -0.0128153283149003983
63.9689598083496094 -91.7855758666992188 -0.932656288146972656 369 1645019210.64389896 -0.404219269752502441 -0.914654254913330078 -0.00202846224419772625 -0.00319908047094941139
63.1945457458496094 -89.6962661743164062 -0.932825148105621338 370 1645019211.24306679 -0.580061018466949463 -0.814385294914245605 -0.0104579953476786613 -0.0140167558565735817
63.4064292907714844 -88.2846908569335938 -0.935407638549804688 371 1645019211.6452868 -0.718122720718383789 -0.695555806159973145 -0.00608900748193264008 -0.0215589292347431183
64.1678924560546875 -87.1776275634765625 -0.916866421699523926 372 1645019212.04616618 -0.835593283176422119 -0.549320459365844727 -0.00341386673972010612 -0.00438794400542974472
65.5106430053710938 -86.2272491455078125 -0.904146671295166016 373 1645019212.54523253 -0.933278381824493408 -0.359129577875137329 -0.00290442211553454399 -0.00299740629270672798
67.2810897827148438 -85.7317123413085938 -0.891864597797393799 374 1645019213.0469687 -0.984765589237213135 -0.173841461539268494 -0.00314407562837004662 0.00245278072543442249
71.154571533203125 -85.6888580322265625 -0.885854423046112061 375 1645019213.94649315 -0.99991905689239502 0.00767431408166885376 -0.000922531820833683014 0.010106431320309639
76.1942520141601562 -86.5373992919921875 -0.909545600414276123 376 1645019214.9479599 -0.995388567447662354 0.0950120091438293457 -4.33114837505854666e-05 0.0132037904113531113
81.3302154541015625 -87.444488525390625 -0.904568791389465332 377 1645019215.84764099 -0.996511399745941162 0.0821781232953071594 -0.00330971064977347851 0.0141730057075619698
90.7460098266601562 -87.2278823852539062 -0.788818657398223877 378 1645019217.34730315 -0.99541771411895752 -0.0914961472153663635 -0.0180376134812831879 0.021133890375494957
97.1935043334960938 -84.4994583129882812 -0.276767551898956299 379 1645019218.44805312 -0.960835516452789307 -0.272296696901321411 -0.0377900786697864532 0.0349504835903644562
105.401908874511719 -76.2152786254882812 0.372979849576950073 380 1645019220.34631228 -0.897364914417266846 -0.440100967884063721 -0.0245446991175413132 0.0210929699242115021
108.895065307617188 -68.9285888671875 0.709681153297424316 381 1645019221.64748287 -0.806243300437927246 -0.590972423553466797 -0.021115373820066452 0.016659202054142952
109.557563781738281 -57.6827583312988281 1.18391931056976318 382 1645019223.44416356 -0.68485492467880249 -0.728356838226318359 -0.0183058585971593857 0.0116159068420529366
107.492477416992188 -50.3019371032714844 1.47399330139160156 383 1645019224.64527774 -0.541711091995239258 -0.840364396572113037 -0.00847925245761871338 0.0162750929594039917
100.532363891601562 -41.0855445861816406 1.93426239490509033 384 1645019226.4434669 -0.37742277979850769 -0.925728261470794678 -0.00609879894182085991 0.0232816543430089951
93.9000244140625 -37.1424598693847656 2.21268701553344727 385 1645019227.64592338 -0.209347054362297058 -0.977646708488464355 -0.0110306181013584137 0.016094159334897995
82.5632705688476562 -34.2100257873535156 2.55906248092651367 386 1645019229.44997001 -0.0468272566795349121 -0.998699605464935303 -0.0140869319438934326 0.0144168492406606674
77.1197433471679688 -34.5466728210449219 2.50766777992248535 387 1645019230.24397182 0.0874839425086975098 -0.996136605739593506 0.00483195250853896141 -0.00592570984736084938
71.9239349365234375 -36.7145843505859375 2.40549373626708984 388 1645019231.04393935 0.24262671172618866 -0.970058083534240723 -0.00601070141419768333 -0.00913567934185266495
67.74072265625 -39.565521240234375 2.29230833053588867 389 1645019231.744138 0.306045472621917725 -0.951955199241638184 -0.0103895748034119606 0.00308986147865653038
63.6335525512695312 -42.6994285583496094 2.22455191612243652 390 1645019232.44477558 0.322065681219100952 -0.946651101112365723 -0.0111070340499281883 -0.00140728324186056852
59.5551795959472656 -45.8326225280761719 2.2179405689239502 391 1645019233.14418507 0.317325711250305176 -0.948301315307617188 -0.00257119396701455116 0.00473704328760504723
55.2473258972167969 -48.6469078063964844 2.25080561637878418 392 1645019233.84488654 0.261159807443618774 -0.965286970138549805 -0.00249196495860815048 0.00322925997897982597
50.7570152282714844 -51.0538063049316406 2.30819010734558105 393 1645019234.54366493 0.240442052483558655 -0.970606088638305664 0.00863712560385465622 0.00607411330565810204
46.196441650390625 -53.3148002624511719 2.39829421043395996 394 1645019235.24425745 0.214755579829216003 -0.976573586463928223 0.00522812781855463982 0.0125209102407097816
41.4999275207519531 -55.0567588806152344 2.53868913650512695 395 1645019235.94323778 0.160002946853637695 -0.986946702003479004 0.00826259981840848923 0.0163399912416934967
35.9946327209472656 -56.4995269775390625 2.74963092803955078 396 1645019236.74388218 0.112941361963748932 -0.993323862552642822 0.00818975921720266342 0.0220196731388568878
30.4594860076904297 -57.4388198852539062 3.01077532768249512 397 1645019237.54423809 0.0738482549786567688 -0.996872544288635254 0.00845236983150243759 0.0268360134214162827
24.9348964691162109 -58.0165443420410156 3.30239486694335938 398 1645019238.34514093 0.0522116050124168396 -0.99806135892868042 0.0168619491159915924 0.0293799098581075668
19.5158557891845703 -58.556243896484375 3.62966561317443848 399 1645019239.14415717 0.0472359955310821533 -0.998295187950134277 0.010921514593064785 0.0324996635317802429
14.1867361068725586 -59.0688819885253906 3.99743008613586426 400 1645019239.94422793 0.0453483015298843384 -0.998433887958526611 0.00199890183284878731 0.0326997824013233185
8.98375129699707031 -59.5003280639648438 4.33069276809692383 401 1645019240.74631524 0.0289412178099155426 -0.999045372009277344 -0.00426650140434503555 0.0324432067573070526
3.82979416847229004 -59.5433273315429688 4.65161371231079102 402 1645019241.54617882 -0.0111694000661373138 -0.999311387538909912 0.00176861323416233063 0.0353391170501708984
-1.22817587852478027 -59.1784210205078125 4.99538516998291016 403 1645019242.34360743 -0.0406143106520175934 -0.998560190200805664 0.0059849889948964119 0.0345291011035442352
-6.79707908630371094 -58.7176132202148438 5.38448143005371094 404 1645019243.24347329 -0.0443122871220111847 -0.998310327529907227 -0.000728567421901971102 0.0375814326107501984
-12.3049173355102539 -58.2360763549804688 5.75947093963623047 405 1645019244.14397931 -0.0472572110593318939 -0.998159170150756836 -0.000622104154899716377 0.0380087457597255707
-17.7489891052246094 -57.649261474609375 6.1013331413269043 406 1645019245.0450561 -0.0656317248940467834 -0.997440695762634277 -0.00249316450208425522 0.0282542239874601364
-22.8975048065185547 -55.9853935241699219 6.41505289077758789 407 1645019245.94376516 -0.187631741166114807 -0.981550872325897217 0.00857855752110481262 0.0357571691274642944
