# .PCD v0.7 - Point Cloud Data file format
VERSION 0.7
FIELDS x y z intensity t qx qy qz qw
SIZE 4 4 4 4 8 4 4 4 4
TYPE F F F F F F F F F
COUNT 1 1 1 1 1 1 1 1 1
WIDTH 277
HEIGHT 1
VIEWPOINT 0 0 0 1 0 0 0
POINTS 277
DATA ascii
102.913871765136719 57.2560615539550781 7.62540054321289062 44 1645018905.92887259 0.513775229454040527 0.857838094234466553 0.00581250479444861412 0.0107252569869160652
102.1209716796875 60.47894287109375 7.62224292755126953 45 1645018906.72851348 0.657265603542327881 0.753221869468688965 0.0104594631120562553 0.0234375447034835815
102.63970947265625 62.1199874877929688 7.6199345588684082 46 1645018907.22813892 0.789086878299713135 0.61371922492980957 0.00442978367209434509 0.0259041674435138702
103.723747253417969 63.15325927734375 7.65918350219726562 47 1645018907.7287271 0.898696184158325195 0.438290685415267944 0.00918215140700340271 0.0127343721687793732
105.079002380371094 63.611907958984375 7.67520856857299805 48 1645018908.22983479 0.970259726047515869 0.241808205842971802 0.00302146235480904579 0.0107576930895447731
106.593772888183594 63.4594993591308594 7.69100761413574219 49 1645018908.7277379 0.999742805957794189 0.0201241988688707352 0.000172174841281957924 0.0104533545672893524
107.769493103027344 62.8606185913085938 7.69064044952392578 50 1645018909.12895656 0.987401068210601807 -0.157771334052085876 -0.0073174857534468174 0.00968302693217992783
109.546630859375 61.2800712585449219 7.70932674407958984 51 1645018909.82774901 0.942846357822418213 -0.33308178186416626 -0.00164964015129953623 0.00972553901374340057
113.155265808105469 57.4607696533203125 7.71532249450683594 52 1645018911.12977886 0.914134502410888672 -0.405361264944076538 -0.00273942854255437851 0.00573132233694195747
116.732772827148438 53.7378501892089844 7.72365093231201172 53 1645018912.4259572 0.925561487674713135 -0.378276318311691284 0.010685482993721962 0.0113481003791093826
121.162239074707031 50.9109115600585938 7.69282770156860352 54 1645018913.62605214 0.979580104351043701 -0.200756356120109558 -0.00194300792645663023 -0.0107644516974687576
123.99664306640625 50.7448463439941406 7.6810002326965332 55 1645018914.32782006 0.999864757061004639 -0.00872252229601144791 9.55904033617116511e-06 -0.0139420852065086365
126.562400817871094 51.5551910400390625 7.643951416015625 56 1645018914.92856407 0.985851109027862549 0.165655449032783508 -0.00512739643454551697 -0.0250920038670301437
129.334243774414062 53.6572303771972656 7.63576221466064453 57 1645018915.62949848 0.939333677291870117 0.341977715492248535 -0.00868143606930971146 -0.0250633694231510162
132.521514892578125 57.7199134826660156 7.61120128631591797 58 1645018916.62971783 0.879444479942321777 0.474995642900466919 -0.0173646602779626846 -0.0255923662334680557
133.580001831054688 61.3469963073730469 7.63940906524658203 59 1645018917.42815399 0.7673187255859375 0.640390932559967041 -0.0200262479484081268 -0.0268399156630039215
133.072113037109375 64.4767379760742188 7.67983675003051758 60 1645018918.1281054 0.630349576473236084 0.775934576988220215 -0.0178476851433515549 -0.0163213107734918594
131.633285522460938 67.0412445068359375 7.69292354583740234 61 1645018918.73022914 0.485695511102676392 0.873703896999359131 -0.0238765701651573181 -0.0130883250385522842
127.788536071777344 70.4079971313476562 7.69066333770751953 62 1645018919.72937441 0.338523745536804199 0.940876901149749756 -0.0123110907152295113 -0.000874034594744443893
123.903236389160156 74.1052093505859375 7.68507862091064453 63 1645018920.82736683 0.420849651098251343 0.907078385353088379 0.00430631078779697418 0.00870515126734972
122.258941650390625 79.1540069580078125 7.64855575561523438 64 1645018922.13008428 0.678876817226409912 0.734062075614929199 0.00432327808812260628 0.0161388833075761795
124.733848571777344 81.7915191650390625 7.59974575042724609 65 1645018923.3301568 0.954884886741638184 0.296253770589828491 -0.0147051494568586349 0.0145712066441774368
125.870918273925781 81.7721939086914062 7.57075309753417969 66 1645018923.72632408 0.993288815021514893 0.113045208156108856 -0.0211475007236003876 0.0122830821201205254
126.954994201660156 81.336944580078125 7.56599569320678711 67 1645018924.12633014 0.996612310409545898 -0.0796950757503509521 -0.0134776057675480843 0.0151972062885761261
128.28448486328125 80.2822647094726562 7.55869531631469727 68 1645018924.62549233 0.962715089321136475 -0.269968628883361816 -0.011685333214700222 0.0126518914476037025
132.211166381835938 76.519683837890625 7.56117010116577148 69 1645018925.92718434 0.918784081935882568 -0.394718348979949951 2.28274166147457436e-05 0.00576559361070394516
135.5384521484375 72.5477294921875 7.56531763076782227 70 1645018926.92492819 0.907023370265960693 -0.421075344085693359 -0.000289634568616747856 0.00201160646975040436
138.618087768554688 68.42193603515625 7.57871294021606445 71 1645018927.92930818 0.860005199909210205 -0.509584605693817139 -0.0150107825174927711 0.0221192128956317902
139.068954467773438 65.6157608032226562 7.58941984176635742 72 1645018928.52470326 0.737165451049804688 -0.674892663955688477 -0.0287774000316858292 0.0166988242417573929
138.352813720703125 63.0648918151855469 7.5817408561706543 73 1645018929.12457252 0.59154820442199707 -0.805620312690734863 -0.0311873499304056168 0.00859924778342247009
136.782455444335938 61.05352783203125 7.59366130828857422 74 1645018929.72475648 0.437848448753356934 -0.898788750171661377 -0.0204860176891088486 0.00691605778411030769
129.008499145507812 54.4998054504394531 7.65165615081787109 75 1645018931.72528577 0.344353705644607544 -0.938828706741333008 -0.0037806748878210783 0.00261907489039003849
123.539817810058594 50.9629058837890625 7.66593408584594727 76 1645018933.02562571 0.168980047106742859 -0.985486149787902832 -0.0161198712885379791 -0.00171399849932640791
116.224571228027344 55.6179046630859375 7.68251562118530273 77 1645018935.1233089 -0.404110163450241089 -0.91452711820602417 0.0177915710955858231 0.004306077491492033
111.433547973632812 60.74273681640625 7.67768049240112305 78 1645018937.1247263 -0.390621483325958252 -0.920349776744842529 0.0156388990581035614 0.0112515809014439583
104.034454345703125 68.0469589233398438 7.71600341796875 79 1645018939.12492824 -0.368982970714569092 -0.929359316825866699 0.00967927556484937668 0.00700753182172775269
100.024711608886719 71.7345504760742188 7.71461868286132812 80 1645018940.02403331 -0.366214752197265625 -0.930498480796813965 0.00593342725187540054 -0.00491355964913964272
96.3289031982421875 75.3257827758789062 7.72046566009521484 81 1645018940.82394361 -0.371977150440216064 -0.927887260913848877 0.0175226032733917236 0.0187403447926044464
92.451171875 79.1118087768554688 7.79617404937744141 82 1645018941.62448716 -0.379395812749862671 -0.925053179264068604 0.0105085354298353195 0.0149996420368552208
88.4688873291015625 82.9729766845703125 7.83555269241333008 83 1645018942.42504287 -0.369978725910186768 -0.928814947605133057 0.00123328762128949165 0.0204212404787540436
84.2793960571289062 86.7525863647460938 7.86442375183105469 84 1645018943.22535777 -0.360854685306549072 -0.932582855224609375 0.00842752214521169662 -0.00144647806882858276
80.3901214599609375 90.242523193359375 7.89170980453491211 85 1645018944.02883458 -0.357298135757446289 -0.933829128742218018 0.0162229873239994049 0.00616434775292873383
76.431121826171875 93.980224609375 7.91681957244873047 86 1645018944.92467141 -0.371859133243560791 -0.927958071231842041 0.0230810884386301041 0.00905089639127254486
72.7758560180664062 97.4339065551757812 7.93304252624511719 87 1645018945.82782817 -0.359221369028091431 -0.93305283784866333 0.0147770429030060768 0.0124116083607077599
69.0682830810546875 101.052146911621094 7.91614341735839844 88 1645018946.82684517 -0.37566763162612915 -0.926335275173187256 0.0241947714239358902 0.0138341262936592102
65.3750534057617188 104.777618408203125 7.89483070373535156 89 1645018947.92921686 -0.395382404327392578 -0.918303608894348145 0.0194810908287763596 0.00342416996136307716
61.9742965698242188 108.717063903808594 7.86793613433837891 90 1645018949.1292479 -0.456357330083847046 -0.889780104160308838 -0.00158344767987728119 -0.00517739681527018547
61.0103721618652344 111.805732727050781 7.82725238800048828 91 1645018949.92948198 -0.630435287952423096 -0.775594055652618408 0.00236991397105157375 -0.0316161699593067169
61.3968620300292969 114.054817199707031 7.80484247207641602 92 1645018950.52887535 -0.763322055339813232 -0.645409584045410156 -0.000848623283673077822 -0.0280217621475458145
62.631927490234375 115.957481384277344 7.77047014236450195 93 1645018951.130023 -0.876715540885925293 -0.48027387261390686 0.00176146614830940962 -0.0265282522886991501
64.4727859497070312 117.201042175292969 7.76846218109130859 94 1645018951.73020601 -0.950560629367828369 -0.310081809759140015 -0.00174930260982364416 -0.0167551189661026001
68.2101974487304688 118.546600341796875 7.73731565475463867 95 1645018952.72902942 -0.990252673625946045 -0.136807799339294434 0.00395014788955450058 -0.025838267058134079
71.1762542724609375 118.304290771484375 7.68514299392700195 96 1645018953.43135524 -0.99867701530456543 0.049541909247636795 0.0133035033941268921 0.00358559517189860344
73.7067947387695312 117.092117309570312 7.69013118743896484 97 1645018954.03074241 -0.974139153957366943 0.225831866264343262 -0.00380723108537495136 0.00619421200826764107
77.6379165649414062 113.570533752441406 7.68821144104003906 98 1645018955.02658677 -0.922430634498596191 0.385920226573944092 -0.0078549189493060112 0.0112049179151654243
81.2279586791992188 109.609634399414062 7.65590047836303711 99 1645018955.92624855 -0.914794564247131348 0.403529107570648193 -0.0134574202820658684 0.0115806488320231438
84.7916793823242188 105.993156433105469 7.66349124908447266 100 1645018956.72751164 -0.925749242305755615 0.377509534358978271 -0.0104132471606135368 0.0191427227109670639
88.7687301635742188 102.44146728515625 7.64505290985107422 101 1645018957.52529216 -0.936091601848602295 0.351353347301483154 -0.00232804473489522934 0.0166724156588315964
93.0284194946289062 98.8395309448242188 7.63918733596801758 102 1645018958.32728124 -0.93522721529006958 0.353864729404449463 -0.00207934598438441753 0.011203681118786335
96.7926025390625 95.5129165649414062 7.63147115707397461 103 1645018959.02516413 -0.933556973934173584 0.358268618583679199 -0.00427765911445021629 0.0098325265571475029
100.854011535644531 91.6725921630859375 7.6421971321105957 104 1645018959.82555199 -0.926844775676727295 0.375267773866653442 -0.00406993180513381958 0.0107861729338765144
104.462486267089844 87.8484420776367188 7.63584232330322266 105 1645018960.62505484 -0.914375185966491699 0.404641032218933105 -0.00357292545959353447 0.013072555884718895
107.766357421875 83.4340362548828125 7.65814733505249023 106 1645018961.52675772 -0.875393271446228027 0.483388841152191162 -0.00313476496376097202 0.00346659100614488125
109.596176147460938 78.3697433471679688 7.74887895584106445 107 1645018962.52564478 -0.774338424205780029 0.632641136646270752 -0.00714398082345724106 -0.0106851710006594658
109.229057312011719 74.6403732299804688 7.73798322677612305 108 1645018963.32565308 -0.638407409191131592 0.769560158252716064 0.0145959137007594109 -0.000341061706421896815
107.622100830078125 71.581756591796875 7.71600961685180664 109 1645018964.12805009 -0.480354040861129761 0.876701653003692627 0.0253471881151199341 -0.00342317926697432995
105.678726196289062 70.13201904296875 7.72140121459960938 110 1645018964.72577572 -0.301621288061141968 0.952993154525756836 0.0282181613147258759 -0.00569262169301509857
103.394912719726562 69.6823577880859375 7.728668212890625 111 1645018965.32530451 -0.113734342157840729 0.993471086025238037 0.00803008954972028732 0.00389377633109688759
99.9684982299804688 70.0389556884765625 7.71818161010742188 112 1645018966.12593126 0.0830453783273696899 0.996488094329833984 0.0101020876318216324 0.00359454425051808357
91.3155364990234375 75.2820587158203125 7.77938032150268555 113 1645018968.22470856 0.265812009572982788 0.963894665241241455 -0.0157572850584983826 -0.00167170492932200432
86.3990936279296875 73.8552780151367188 7.79154634475708008 114 1645018969.82793784 -0.274403363466262817 0.961601555347442627 0.00455939536914229393 0.00211608107201755047
82.560760498046875 70.5603713989257812 7.73740196228027344 115 1645018971.02734709 -0.364797204732894897 0.930924475193023682 -0.0164287835359573364 0.00572205847129225731
78.8464584350585938 67.1009368896484375 7.72775793075561523 116 1645018972.02665305 -0.356917470693588257 0.934064090251922607 0.00145775324199348688 -0.0114907771348953247
75.1633148193359375 63.4691963195800781 7.7267603874206543 117 1645018972.92705154 -0.409376859664916992 0.912183940410614014 -0.0180814731866121292 0.00203389930538833141
72.4103775024414062 58.5856132507324219 7.69224691390991211 118 1645018973.82797456 -0.553991556167602539 0.831981360912322998 -0.0226834379136562347 0.0196414552628993988
71.1955032348632812 53.7252464294433594 7.58392477035522461 119 1645018974.62928271 -0.628141283988952637 0.777492880821228027 -0.0215681847184896469 0.0218659862875938416
70.284881591796875 48.40283203125 7.45007753372192383 120 1645018975.52854729 -0.636458873748779297 0.771161139011383057 0.000457478163298219442 0.0151788285002112389
68.4992218017578125 43.5533065795898438 7.2833099365234375 121 1645018976.42940426 -0.515228152275085449 0.856880545616149902 0.0101605597883462906 0.0138737596571445465
65.0275497436523438 39.4851570129394531 7.1248784065246582 122 1645018977.32786083 -0.40253216028213501 0.915312707424163818 0.003780777333304286 0.0124995065852999687
61.2541046142578125 35.7531585693359375 6.94449806213378906 123 1645018978.1295352 -0.382219880819320679 0.923874914646148682 -0.00318256323225796223 0.0187875814735889435
57.2890167236328125 31.6548671722412109 6.74513339996337891 124 1645018978.93013406 -0.394329309463500977 0.918694972991943359 -0.00425974931567907333 0.0220418889075517654
53.6646194458007812 28.0215358734130859 6.6174163818359375 125 1645018979.62898993 -0.376760333776473999 0.926236152648925781 -0.00396167533472180367 0.011071251705288887
49.9664192199707031 24.4055061340332031 6.57911491394042969 126 1645018980.3288753 -0.376118004322052002 0.926547706127166748 -0.00416489783674478531 -0.00522068748250603676
46.3704299926757812 20.6609306335449219 6.59221172332763672 127 1645018981.0297668 -0.394229084253311157 0.918994605541229248 0.00143368367571383715 -0.00550366751849651337
42.8236808776855469 16.873687744140625 6.55872011184692383 128 1645018981.73219824 -0.397310733795166016 0.917669355869293213 0.0051045282743871212 0.00101457710843533278
39.1956710815429688 13.184016227722168 6.53972959518432617 129 1645018982.4303441 -0.379328608512878418 0.925239622592926025 0.00545516936108469963 0.00341838644817471504
35.48638916015625 9.55819129943847656 6.50700616836547852 130 1645018983.13089657 -0.378167241811752319 0.925712525844573975 -7.97122338553890586e-05 0.00677187368273735046
31.7765846252441406 5.95189571380615234 6.50049066543579102 131 1645018983.83169317 -0.376504957675933838 0.92636948823928833 -0.00786886736750602722 0.00465908227488398552
28.0823841094970703 2.32340025901794434 6.49214410781860352 132 1645018984.53073215 -0.37740015983581543 0.925982892513275146 -0.00956597644835710526 0.00576954800635576248
24.3693695068359375 -1.27970671653747559 6.4953761100769043 133 1645018985.23077059 -0.370936870574951172 0.928624391555786133 -0.00621327664703130722 0.00489366892725229263
20.4547500610351562 -4.59180545806884766 6.52041292190551758 134 1645018985.93189573 -0.315670520067214966 0.9488564133644104 0.000391156558180227876 -0.00484738219529390335
15.4080715179443359 -7.23095989227294922 6.74368619918823242 135 1645018986.73034239 -0.19539409875869751 0.980362415313720703 -0.0158626921474933624 -0.0214261487126350403
9.98503398895263672 -8.59366798400878906 7.05089807510375977 136 1645018987.52952337 -0.0982225462794303894 0.994256973266601562 -0.0245005767792463303 -0.0347147919237613678
4.63825750350952148 -9.35921096801757812 7.51243448257446289 137 1645018988.33064318 -0.0629509389400482178 0.996177315711975098 -0.0240106694400310516 -0.0556007400155067444
-0.50680917501449585 -9.69717121124267578 7.93511152267456055 138 1645018989.13198757 -0.0244232174009084702 0.9987030029296875 -0.0177936609834432602 -0.0409784652292728424
-5.51308774948120117 -9.60044765472412109 8.27870559692382812 139 1645018990.03429413 0.0193897616118192673 0.999219298362731934 -0.0239035170525312424 -0.0247685126960277557
-10.5758829116821289 -9.46093177795410156 8.47104454040527344 140 1645018991.1331141 -0.000317916361382231116 0.99958336353302002 -0.0214230157434940338 -0.0193417742848396301
-15.7644577026367188 -10.054295539855957 8.54804897308349609 141 1645018992.23611116 -0.0733719319105148315 0.997238993644714355 -0.0011007389985024929 -0.0113895013928413391
-20.9848461151123047 -11.4901599884033203 8.58026218414306641 142 1645018993.33383727 -0.142482474446296692 0.98975527286529541 -0.00857704225927591324 0.00311042182147502899
-26.05914306640625 -13.3474979400634766 8.61634635925292969 143 1645018994.53349662 -0.155250817537307739 0.98782116174697876 0.0102752773091197014 -0.000975514994934201241
-31.2432765960693359 -13.0318470001220703 8.62429428100585938 144 1645018995.83222628 0.137433141469955444 0.990255415439605713 0.0211936868727207184 0.00755931530147790909
-33.4374809265136719 -11.5376501083374023 8.63530826568603516 145 1645018996.43084717 0.319433093070983887 0.946925222873687744 0.0340690203011035919 0.0115938335657119751
-34.6930198669433594 -9.61342430114746094 8.66003131866455078 146 1645018996.93565583 0.484521359205245972 0.874100625514984131 0.0308745317161083221 0.0152957364916801453
-35.1938972473144531 -7.15136814117431641 8.72667026519775391 147 1645018997.53047395 0.636978626251220703 0.770376086235046387 0.0256629623472690582 0.0109680118039250374
-34.7288780212402344 -4.51301383972167969 8.7720184326171875 148 1645018998.23084497 0.774754524230957031 0.631865799427032471 0.016656903550028801 0.0149540333077311516
-33.3329696655273438 -2.20094585418701172 8.79313468933105469 149 1645018998.93000364 0.876289606094360352 0.481248766183853149 0.0079692155122756958 0.021275155246257782
-31.1921596527099609 -0.653102457523345947 8.81042098999023438 150 1645018999.63003802 0.952760040760040283 0.303528249263763428 0.00196844432502985001 0.0107271792367100716
-28.5374011993408203 0.0859351009130477905 8.79352283477783203 151 1645019000.33231568 0.992557823657989502 0.121008820831775665 -0.00292572262696921825 0.01331351138651371
-26.014739990234375 -0.181340411305427551 8.73160362243652344 152 1645019000.92988348 0.99824213981628418 -0.0558911785483360291 -0.016780853271484375 0.0103525780141353607
-23.6704959869384766 -1.32268714904785156 8.65946388244628906 153 1645019001.53103256 0.970496475696563721 -0.239751607179641724 -0.0211789850145578384 0.0143935251981019974
-21.9133434295654297 -3.25071001052856445 8.610076904296875 154 1645019002.12887359 0.907747566699981689 -0.418691873550415039 -0.0199593864381313324 0.0171210374683141708
-20.9895496368408203 -5.70486831665039062 8.61415481567382812 155 1645019002.73128605 0.812982678413391113 -0.581715941429138184 -0.0184540729969739914 0.0180326718837022781
-21.0371799468994141 -8.27704143524169922 8.62127685546875 156 1645019003.3285315 0.696293890476226807 -0.717472672462463379 -0.0180048234760761261 0.00914633274078369141
-22.3001270294189453 -11.5241460800170898 8.58458805084228516 157 1645019004.12641978 0.55257946252822876 -0.83332592248916626 -0.0141265802085399628 -0.00492362445220351219
-25.9411144256591797 -18.7469635009765625 8.48616790771484375 158 1645019005.73080063 0.547756552696228027 -0.836317121982574463 0.00434115109965205193 -0.0227491743862628937
-27.4912338256835938 -23.9709377288818359 8.20765209197998047 159 1645019006.73064351 0.61285865306854248 -0.789909839630126953 -0.0210000928491353989 -0.0023949046153575182
-28.4417362213134766 -28.9688949584960938 7.92704486846923828 160 1645019007.62849069 0.638841390609741211 -0.768780946731567383 -0.0277594216167926788 -0.0093256533145904541
-29.1180629730224609 -33.9752388000488281 7.69516420364379883 161 1645019008.52764034 0.66251450777053833 -0.748491227626800537 -0.0274313408881425858 -0.0091054476797580719
-29.5672702789306641 -38.9501953125 7.43431282043457031 162 1645019009.42737103 0.673537731170654297 -0.738409698009490967 -0.0321238227188587189 -0.00812964700162410736
-29.8828792572021484 -44.1368408203125 7.15063667297363281 163 1645019010.42740965 0.685020625591278076 -0.727568924427032471 -0.0341741889715194702 -0.0149117317050695419
-30.4336414337158203 -49.1302680969238281 6.97658205032348633 164 1645019011.62819242 0.646574437618255615 -0.762568414211273193 -0.0207093190401792526 0.0014312890125438571
-32.1664695739746094 -53.8353958129882812 6.93829822540283203 165 1645019013.02768207 0.520047008991241455 -0.853721141815185547 -0.0198919754475355148 0.0177668351680040359
-34.2748260498046875 -55.8750877380371094 7.0316767692565918 166 1645019013.92880726 0.347145438194274902 -0.937267422676086426 -0.0171252936124801636 0.0269541945308446884
-36.3669548034667969 -56.526763916015625 7.11857128143310547 167 1645019014.62733483 0.171000778675079346 -0.985183238983154297 0.00494254752993583679 0.0121765602380037308
-39.5909690856933594 -56.511260986328125 7.24492120742797852 168 1645019016.22771645 -0.0061449478380382061 -0.999736785888671875 0.0109219914302229881 0.0192172098904848099
-44.6459007263183594 -55.9171676635742188 7.37957286834716797 169 1645019018.22903728 -0.0723803490400314331 -0.997175097465515137 0.00297336862422525883 0.0198500491678714752
-49.72650146484375 -56.2842216491699219 7.42952680587768555 170 1645019019.8301332 0.0747054293751716614 -0.997092306613922119 -0.0150318844243884087 -0.000124346377560868859
-54.3104286193847656 -58.4564933776855469 7.198516845703125 171 1645019021.3292017 0.265369445085525513 -0.963419616222381592 -0.0318452976644039154 -0.0196868851780891418
-57.30322265625 -62.6829147338867188 6.86220026016235352 172 1645019022.73035049 0.522282779216766357 -0.852015137672424316 -0.0301511157304048538 -0.019539250060915947
-58.5394401550292969 -67.5321273803710938 6.48448657989501953 173 1645019023.83007097 0.638901889324188232 -0.768398642539978027 -0.0230222437530755997 -0.0289456378668546677
-58.8297691345214844 -72.5465316772460938 6.04135751724243164 174 1645019024.82977676 0.694303035736083984 -0.718111336231231689 -0.0330088809132575989 -0.03420291468501091
-58.9612922668457031 -77.8638839721679688 5.61459875106811523 175 1645019025.82872534 0.689554691314697266 -0.722898304462432861 -0.0310238711535930634 -0.031142357736825943
-59.3084945678710938 -83.1375198364257812 5.17165994644165039 176 1645019026.82906294 0.680477142333984375 -0.730913937091827393 -0.0371831431984901428 -0.0365104302763938904
-59.4717521667480469 -88.459747314453125 4.81851100921630859 177 1645019028.02987981 0.689651012420654297 -0.723095059394836426 -0.0359578169882297516 -0.0149011481553316116
-59.6625213623046875 -93.707000732421875 4.34461259841918945 178 1645019029.23060107 0.693333983421325684 -0.719330370426177979 -0.0406541600823402405 -0.0141092566773295403
-59.7237510681152344 -99.150482177734375 3.86889100074768066 179 1645019030.33044004 0.711806952953338623 -0.700986266136169434 -0.0365082919597625732 -0.0248245019465684891
-59.1365394592285156 -104.4122314453125 3.41136550903320312 180 1645019031.32999063 0.75773930549621582 -0.651047289371490479 -0.0384852886199951172 -0.0220781192183494568
-57.8766937255859375 -109.7159423828125 2.87456870079040527 181 1645019032.23158407 0.785492002964019775 -0.616958379745483398 -0.0465281568467617035 -0.0141371693462133408
-56.548858642578125 -114.513557434082031 2.39294314384460449 182 1645019032.93197894 0.797563850879669189 -0.601060271263122559 -0.0494460538029670715 -0.0131733585149049759
-54.6843299865722656 -119.545501708984375 1.8957439661026001 183 1645019033.63065886 0.829768002033233643 -0.556117653846740723 -0.0455228798091411591 -0.0120805250480771065
-52.1310882568359375 -124.444877624511719 1.45604169368743896 184 1645019034.33106303 0.865246057510375977 -0.499965280294418335 -0.0360446125268936157 -0.00920929666608572006
-48.8614654541015625 -129.007125854492188 1.07477247714996338 185 1645019035.03112507 0.899296581745147705 -0.436323165893554688 -0.0296737421303987503 -0.0026793796569108963
-45.0805473327636719 -133.285293579101562 0.670286476612091064 186 1645019035.7324934 0.912127792835235596 -0.40799480676651001 -0.03950515016913414 -0.00157667999155819416
-41.2058753967285156 -137.542205810546875 0.228698030114173889 187 1645019036.43287158 0.915634751319885254 -0.400187909603118896 -0.0374899841845035553 -0.007556891068816185
-37.7007255554199219 -141.130630493164062 -0.177915588021278381 188 1645019037.03403115 0.925500333309173584 -0.376941919326782227 -0.0341322645545005798 -0.0141046792268753052
-34.0781631469726562 -144.672531127929688 -0.550169885158538818 189 1645019037.6344471 0.925626218318939209 -0.376693189144134521 -0.0299985632300376892 -0.0204565376043319702
-30.3654422760009766 -148.190185546875 -0.951453685760498047 190 1645019038.23261619 0.929171144962310791 -0.366973459720611572 -0.0372148826718330383 -0.024219118058681488
-26.6133785247802734 -151.740631103515625 -1.39500021934509277 191 1645019038.83070874 0.927839338779449463 -0.36938890814781189 -0.0404231399297714233 -0.0321244373917579651
-22.8065567016601562 -155.33154296875 -1.81105220317840576 192 1645019039.43350434 0.926971435546875 -0.373489409685134888 -0.0299062542617321014 -0.0183088071644306183
-19.057586669921875 -159.000747680664062 -2.19048237800598145 193 1645019040.03127813 0.925263106822967529 -0.377362817525863647 -0.0305297859013080597 -0.0235252827405929565
-15.2104816436767578 -162.700546264648438 -2.61268496513366699 194 1645019040.63414407 0.926589906215667725 -0.373047530651092529 -0.0404281169176101685 -0.0251449588686227798
-11.307520866394043 -166.261306762695312 -3.02824759483337402 195 1645019041.23416948 0.931899368762969971 -0.360458195209503174 -0.0360594131052494049 -0.0182522200047969818
-7.32378530502319336 -169.792755126953125 -3.40291690826416016 196 1645019041.83633852 0.933663070201873779 -0.356549113988876343 -0.0318497903645038605 -0.0114699425175786018
-3.40466713905334473 -173.320602416992188 -3.74140048027038574 197 1645019042.43284059 0.932057321071624756 -0.360846072435379028 -0.0301978550851345062 -0.0121376654133200645
0.465665936470031738 -176.905975341796875 -4.04798793792724609 198 1645019043.03278303 0.929347693920135498 -0.367968440055847168 -0.0261785201728343964 -0.0150592736899852753
4.2570347785949707 -180.525054931640625 -4.33249139785766602 199 1645019043.63314819 0.926749825477600098 -0.374701172113418579 -0.024193938821554184 -0.0121833831071853638
7.98031425476074219 -184.156570434570312 -4.5645289421081543 200 1645019044.23524261 0.925711512565612793 -0.377816200256347656 -0.0136735253036022186 -0.0112334461882710457
11.6266355514526367 -187.725189208984375 -4.72403335571289062 201 1645019044.8318882 0.925246238708496094 -0.378906458616256714 -0.0149563932791352272 -0.0112063903361558914
15.2463054656982422 -191.308822631835938 -4.89588117599487305 202 1645019045.43424106 0.925149917602539062 -0.376573562622070312 -0.0351904965937137604 -0.0324288643896579742
19.2581348419189453 -195.24114990234375 -5.02903318405151367 203 1645019046.13351846 0.924323022365570068 -0.381308048963546753 -0.00731641566380858421 -0.0133273685351014137
23.4635868072509766 -198.915985107421875 -5.16893863677978516 204 1645019046.83391643 0.942737460136413574 -0.33301544189453125 -0.00899734348058700562 -0.0163028892129659653
27.9105300903320312 -202.135009765625 -5.29235076904296875 205 1645019047.53487134 0.9495658278465271 -0.313266664743423462 -0.0134521462023258209 0.00278333248570561409
32.2621955871582031 -205.294631958007812 -5.33739471435546875 206 1645019048.23447561 0.954137682914733887 -0.299364089965820312 0.0013829137897118926 0.000737550843041390181
36.8553924560546875 -207.979202270507812 -5.32223129272460938 207 1645019048.93398523 0.968950271606445312 -0.247236385941505432 -0.0030581930186599493 -0.000458137626992538571
41.5539817810058594 -210.3262939453125 -5.30861330032348633 208 1645019049.63464928 0.976468324661254883 -0.215615972876548767 0.00438054138794541359 0.000449280603788793087
46.43841552734375 -212.163467407226562 -5.29554271697998047 209 1645019050.33615494 0.986418008804321289 -0.16423499584197998 0.00170784967485815287 0.00186441780533641577
51.452545166015625 -213.468109130859375 -5.281982421875 210 1645019051.03418684 0.993116557598114014 -0.116932734847068787 -0.000163482327479869127 0.00680113956332206726
56.5810127258300781 -214.327926635742188 -5.30268764495849609 211 1645019051.73269844 0.997513890266418457 -0.0700630694627761841 -0.00269729318097233772 0.00706960912793874741
61.7533149719238281 -214.86083984375 -5.30804014205932617 212 1645019052.43353796 0.998993813991546631 -0.0441500470042228699 0.00187781022395938635 0.00765675073489546776
66.8636932373046875 -215.077392578125 -5.31456136703491211 213 1645019053.1342063 0.99988400936126709 -0.013307034969329834 0.00122062093578279018 0.0073092966340482235
72.5281219482421875 -214.983993530273438 -5.32344579696655273 214 1645019053.93334866 0.999871671199798584 0.0144150257110595703 0.00205574813298881054 0.00668352935463190079
78.0430755615234375 -214.72271728515625 -5.29600620269775391 215 1645019054.73330212 0.999728739261627197 0.0200446322560310364 0.00558968866243958473 0.0104582030326128006
83.3304977416992188 -214.480392456054688 -5.26951074600219727 216 1645019055.53385997 0.999787628650665283 0.0171142164617776871 0.00212894706055521965 0.0112820640206336975
88.6000442504882812 -214.2567138671875 -5.27794694900512695 217 1645019056.3335247 0.999767839908599854 0.0147534683346748352 -0.00464471429586410522 0.0150022078305482864
93.8985977172851562 -214.081756591796875 -5.2720184326171875 218 1645019057.13408303 0.999786376953125 0.0162918642163276672 -0.00337432138621807098 0.0122648663818836212
99.0200271606445312 -213.900177001953125 -5.28962898254394531 219 1645019057.93553925 0.999760985374450684 0.0187319647520780563 -0.00383176445029675961 0.0105999549850821495
104.488861083984375 -213.69598388671875 -5.32412099838256836 220 1645019058.83245873 0.999820411205291748 0.0162669438868761063 -0.00409319298341870308 0.00882103666663169861
109.673271179199219 -213.517105102539062 -5.32667827606201172 221 1645019059.73299885 0.999835073947906494 0.0174860153347253799 -0.0017298839520663023 0.00458758557215332985
115.080734252929688 -213.303787231445312 -5.35657310485839844 222 1645019060.73308372 0.999818801879882812 0.0174838956445455551 -0.00016133357712533325 0.00752815185114741325
120.111923217773438 -213.108917236328125 -5.37101840972900391 223 1645019061.73172617 0.999809384346008301 0.0180484727025032043 -0.00447073951363563538 0.00595672009512782097
125.245719909667969 -212.843948364257812 -5.38184213638305664 224 1645019062.83017111 0.999662935733795166 0.0240017119795084 -0.00261397729627788067 0.00954362843185663223
130.340988159179688 -212.490585327148438 -5.37837362289428711 225 1645019064.03135419 0.999353408813476562 0.0338028594851493835 -0.00247000530362129211 0.0119990995153784752
135.60186767578125 -212.196090698242188 -5.38029813766479492 226 1645019065.42997527 0.999665498733520508 0.0220564007759094238 -0.000598856888245791197 0.0134946368634700775
140.661346435546875 -211.9913330078125 -5.33158540725708008 227 1645019067.03392935 0.999788641929626465 0.0172230210155248642 -0.00448995130136609077 0.0102881407365202904
144.504592895507812 -211.798294067382812 -5.33922863006591797 228 1645019069.13103175 0.999705016613006592 0.0208051688969135284 -0.000149205225170589983 0.0125293722376227379
146.029342651367188 -211.71441650390625 -5.32698440551757812 229 1645019071.23090243 0.99962848424911499 0.0235641337931156158 -0.00391549430787563324 0.0131275039166212082
147.8736572265625 -211.611068725585938 -5.32185173034667969 230 1645019073.33225846 0.99964606761932373 0.0213446840643882751 0.00319496495649218559 0.0155537417158484459
148.355667114257812 -211.585159301757812 -5.31498432159423828 231 1645019075.3336575 0.999594688415527344 0.0238229241222143173 0.00278868130408227444 0.0153339598327875137
148.491287231445312 -211.574020385742188 -5.29489850997924805 232 1645019081.03549242 0.999451339244842529 0.0245928335934877396 0.0150588583201169968 0.0162914860993623734
153.690536499023438 -211.252838134765625 -5.25988006591796875 233 1645019083.03557849 0.999453485012054443 0.0282216314226388931 0.00992183387279510498 0.0140632148832082748
158.973175048828125 -210.93817138671875 -5.18720340728759766 234 1645019084.43564582 0.999516427516937256 0.0275666676461696625 0.0091744614765048027 0.011080441065132618
164.335845947265625 -210.663650512695312 -5.10406064987182617 235 1645019085.73259807 0.999669253826141357 0.02028634212911129 0.0127516249194741249 0.00933783408254384995
169.452590942382812 -210.476089477539062 -4.98065614700317383 236 1645019086.93255997 0.999717295169830322 0.0150856403633952141 0.0170789454132318497 0.00678390078246593475
174.807647705078125 -210.296539306640625 -4.83385801315307617 237 1645019088.13097072 0.999666571617126465 0.0169115513563156128 0.0182604864239692688 0.00687665538862347603
180.223831176757812 -209.937637329101562 -4.67516756057739258 238 1645019089.33203769 0.999203205108642578 0.0341410152614116669 0.0180055834352970123 0.0101565886288881302
185.293136596679688 -209.488037109375 -4.52000808715820312 239 1645019090.53437638 0.998862385749816895 0.0441669076681137085 0.0152675947174429893 0.00949567835777997971
190.45404052734375 -208.9639892578125 -4.37539339065551758 240 1645019091.83097935 0.998522520065307617 0.0504055842757225037 0.0196786411106586456 0.00498341768980026245
195.58843994140625 -208.431915283203125 -4.20584440231323242 241 1645019093.13425493 0.998373866081237793 0.0530208349227905273 0.020746130496263504 -0.0028208575677126646
200.792831420898438 -207.795135498046875 -4.04793643951416016 242 1645019094.33196425 0.998285770416259766 0.0555704236030578613 0.0180010572075843811 0.00366955180652439594
206.031890869140625 -207.197219848632812 -3.89730501174926758 243 1645019095.53109694 0.998462855815887451 0.0525986254215240479 0.0158126354217529297 0.00743598863482475281
211.180374145507812 -206.637191772460938 -3.74327564239501953 244 1645019096.73143864 0.998405933380126953 0.0546742044389247894 0.0137941865250468254 0.00246283039450645447
216.161712646484375 -205.928390502929688 -3.59050941467285156 245 1645019097.93154645 0.996835470199584961 0.0773291513323783875 0.018284086138010025 0.00222147908061742783
221.276870727539062 -204.89129638671875 -3.44253063201904297 246 1645019099.13185978 0.994306445121765137 0.10506979376077652 0.0177461616694927216 0.000266779883531853557
226.166259765625 -203.592361450195312 -3.29890871047973633 247 1645019100.2317481 0.990851640701293945 0.134054571390151978 0.0152816511690616608 0.00298372562974691391
231.101806640625 -201.966522216796875 -3.16873550415039062 248 1645019101.33280611 0.986336410045623779 0.163499072194099426 0.018478095531463623 0.0081937834620475769
236.026992797851562 -200.128631591796875 -2.98073530197143555 249 1645019102.43288279 0.984031558036804199 0.175174057483673096 0.0313111357390880585 0.0039402390830218792
240.873992919921875 -198.4473876953125 -2.85275697708129883 250 1645019103.43288374 0.987330436706542969 0.158157244324684143 0.0122407982125878334 -0.00387797039002180099
246.073272705078125 -196.85302734375 -2.68380594253540039 251 1645019104.43591475 0.990891396999359131 0.130553528666496277 0.0322310589253902435 0.00715637020766735077
250.999435424804688 -195.699966430664062 -2.53453207015991211 252 1645019105.33592033 0.993868887424468994 0.107453726232051849 0.0248168185353279114 0.00790236424654722214
256.178558349609375 -194.677886962890625 -2.35889840126037598 253 1645019106.23741651 0.995260357856750488 0.0946456417441368103 0.0210042111575603485 0.00760926492512226105
261.543212890625 -193.719833374023438 -2.16527557373046875 254 1645019107.13590765 0.996468603610992432 0.0806970149278640747 0.0205696336925029755 0.0107307005673646927
266.969146728515625 -192.826919555664062 -1.97169935703277588 255 1645019108.03470397 0.996186673641204834 0.0850313007831573486 0.0179063118994235992 0.00781864859163761139
272.3187255859375 -191.654312133789062 -1.8148505687713623 256 1645019108.93479109 0.992255091667175293 0.123115226626396179 0.0164740458130836487 0.00105971470475196838
277.536041259765625 -190.007537841796875 -1.64220619201660156 257 1645019109.83457494 0.987105071544647217 0.157949432730674744 0.0251846294850111008 0.00642712600529193878
282.69219970703125 -188.196182250976562 -1.45396196842193604 258 1645019110.73484302 0.984914064407348633 0.172277197241783142 0.0159454531967639923 -0.00325107341632246971
287.82037353515625 -186.290267944335938 -1.29457330703735352 259 1645019111.63490987 0.984151363372802734 0.176036790013313293 0.0210753548890352249 -0.00359887676313519478
292.5478515625 -184.56732177734375 -1.1348196268081665 260 1645019112.4354775 0.984272301197052002 0.175655320286750793 0.0163720045238733292 -0.0092337513342499733
297.315643310546875 -182.661544799804688 -0.972152590751647949 261 1645019113.23840666 0.981875419616699219 0.185792073607444763 0.0363448932766914368 0.00900007225573062897
302.096771240234375 -180.669906616210938 -0.789171874523162842 262 1645019114.03966427 0.980956077575683594 0.192158728837966919 0.0271652732044458389 0.00789182260632514954
307.170501708984375 -178.454833984375 -0.514368176460266113 263 1645019114.9374752 0.979034185409545898 0.20062747597694397 0.0337741300463676453 0.00999640580266714096
312.059539794921875 -176.338470458984375 -0.206087768077850342 264 1645019115.83876109 0.979462623596191406 0.199599295854568481 0.0282487086951732635 0.00387879530899226665
316.688018798828125 -174.240402221679688 0.0853084027767181396 265 1645019116.73722816 0.975101888179779053 0.220015615224838257 0.0274470522999763489 0.00401633745059370995
321.07598876953125 -171.578155517578125 0.369031637907028198 266 1645019117.73774719 0.953469634056091309 0.299529969692230225 0.03427080437541008 -0.00171565311029553413
323.553955078125 -168.518112182617188 0.540544986724853516 267 1645019118.53779173 0.876175642013549805 0.481540501117706299 0.0201526116579771042 -0.0053728385828435421
324.384613037109375 -165.230209350585938 0.684189081192016602 268 1645019119.23963666 0.771591424942016602 0.635581552982330322 0.0239543765783309937 -0.0104387449100613594
324.170257568359375 -161.547576904296875 1.13427877426147461 269 1645019120.03843045 0.644661426544189453 0.761873245239257812 0.0300816334784030914 -0.0552800558507442474
321.911529541015625 -156.7979736328125 1.8124232292175293 270 1645019121.23968506 0.505279302597045898 0.860272467136383057 0.0449480898678302765 -0.0510278418660163879
318.901031494140625 -152.72796630859375 2.35018563270568848 271 1645019122.44036674 0.441237419843673706 0.895610332489013672 0.0367913171648979187 -0.0428730510175228119
315.629486083984375 -148.914840698242188 2.89382123947143555 272 1645019123.63739586 0.409453749656677246 0.910281360149383545 0.0410026572644710541 -0.0453238599002361298
311.973785400390625 -145.484161376953125 3.45464038848876953 273 1645019124.84062433 0.352005809545516968 0.933945834636688232 0.0352016091346740723 -0.0509702935814857483
307.8692626953125 -142.5838623046875 3.95054864883422852 274 1645019126.04135108 0.283687829971313477 0.957406520843505859 0.0270355474203824997 -0.0465089008212089539
303.287139892578125 -140.061355590820312 4.3896946907043457 275 1645019127.24001646 0.247523054480552673 0.967624127864837646 0.0261335652321577072 -0.0418677255511283875
298.48944091796875 -137.578338623046875 4.85193490982055664 276 1645019128.43968582 0.239011138677597046 0.969527840614318848 0.0304631292819976807 -0.0442886278033256531
293.945068359375 -135.14569091796875 5.24399566650390625 277 1645019129.53903174 0.255027264356613159 0.965904533863067627 0.0300045441836118698 -0.0330030918121337891
289.3106689453125 -132.417083740234375 5.57363510131835938 278 1645019130.63720512 0.261214226484298706 0.964828789234161377 0.0209672451019287109 -0.0208066832274198532
284.639495849609375 -129.951095581054688 5.75055456161499023 279 1645019131.8471694 0.248304426670074463 0.968202710151672363 0.0272371750324964523 -0.0136586856096982956
280.3739013671875 -127.319450378417969 5.91227865219116211 280 1645019133.14177322 0.284916281700134277 0.958268642425537109 0.014957440085709095 -0.0178940612822771072
276.22137451171875 -124.359176635742188 6.03479766845703125 281 1645019134.23814082 0.307274132966995239 0.951516151428222656 -0.00252533028833568096 -0.0139018986374139786
271.991119384765625 -121.219818115234375 6.09648418426513672 282 1645019135.23798084 0.318168222904205322 0.947900891304016113 -0.00564701948314905167 -0.014865105040371418
267.814056396484375 -118.046257019042969 6.13766670227050781 283 1645019136.1428895 0.318951398134231567 0.947555899620056152 -0.00520919589325785637 -0.0195113439112901688
263.328643798828125 -114.688888549804688 6.18712759017944336 284 1645019137.03843689 0.31709328293800354 0.948238670825958252 -0.0107982233166694641 -0.0133674545213580132
259.176513671875 -111.436485290527344 6.21380043029785156 285 1645019137.84285474 0.330293625593185425 0.943721115589141846 -0.013879154808819294 -0.0101953940466046333
254.998077392578125 -107.899002075195312 6.221099853515625 286 1645019138.64003491 0.357710957527160645 0.933727920055389404 -0.0125988489016890526 -0.0060284133069217205
250.989395141601562 -103.920417785644531 6.2386322021484375 287 1645019139.43826866 0.399780809879302979 0.916572213172912598 -0.00510772224515676498 -0.00667441776022315025
247.765655517578125 -99.9922637939453125 6.24143075942993164 288 1645019140.14123154 0.450094103813171387 0.892969846725463867 -0.00368989491835236549 0.00254802661947906017
245.140243530273438 -95.6605224609375 6.23012971878051758 289 1645019140.83738923 0.509721696376800537 0.860273659229278564 0.0106305228546261787 0.000125570601085200906
242.998321533203125 -90.9926300048828125 6.25403356552124023 290 1645019141.53789282 0.549026727676391602 0.835779368877410889 0.00348333013243973255 -0.00551334535703063011
241.218917846679688 -86.2025604248046875 6.27893924713134766 291 1645019142.23869419 0.578480541706085205 0.815659701824188232 -0.00681691057980060577 -0.00361514557152986526
239.603912353515625 -80.9022979736328125 6.29740238189697266 292 1645019143.03751612 0.603787422180175781 0.797076761722564697 -0.00993363279849290848 -0.00327633251436054707
238.415756225585938 -75.8067474365234375 6.31533527374267578 293 1645019143.83929634 0.630494475364685059 0.776162862777709961 -0.00592318875715136528 -0.0035802135244011879
237.739089965820312 -70.3271942138671875 6.325714111328125 294 1645019144.73983359 0.67601323127746582 0.736853361129760742 -0.00648689083755016327 -0.00334186851978302002
237.52508544921875 -65.170623779296875 6.32900619506835938 295 1645019145.6371665 0.686606705188751221 0.726881265640258789 -0.0136119229719042778 -0.00543111562728881836
236.910964965820312 -59.9213066101074219 6.36862039566040039 296 1645019146.63783813 0.656635701656341553 0.754061043262481689 -0.00874318741261959076 -0.0120420707389712334
235.845672607421875 -54.7992134094238281 6.42327499389648438 297 1645019147.73650813 0.618908405303955078 0.785403072834014893 0.00367466965690255165 -0.00899240840226411819
234.036361694335938 -49.9227333068847656 6.46675014495849609 298 1645019148.93811631 0.544247031211853027 0.838918507099151611 -0.000418567156884819269 -0.00327754626050591469
231.158004760742188 -45.7633399963378906 6.5420680046081543 299 1645019150.03933811 0.432857096195220947 0.901422381401062012 0.0077144252136349678 -0.00359114375896751881
227.146209716796875 -42.2721939086914062 6.59150314331054688 300 1645019151.14131689 0.321836173534393311 0.946770787239074707 0.00206113304011523724 -0.00650443695485591888
222.71929931640625 -39.9268913269042969 6.60378885269165039 301 1645019152.13712382 0.226493075489997864 0.973985433578491211 0.00728944828733801842 0.000376450596377253532
217.912673950195312 -37.7475814819335938 6.5992584228515625 302 1645019153.1372571 0.215912684798240662 0.976338803768157959 0.0113883828744292259 0.00381943630054593086
212.98529052734375 -35.5142745971679688 6.5757603645324707 303 1645019154.13725948 0.213383942842483521 0.976876378059387207 0.0120438616722822189 0.00589823024347424507
208.43499755859375 -33.28472900390625 6.54913854598999023 304 1645019155.03734088 0.232691243290901184 0.972511947154998779 0.00406666146591305733 0.00766898412257432938
203.929107666015625 -30.3708572387695312 6.54262113571166992 305 1645019156.03675556 0.302480250597000122 0.95312124490737915 -0.00727680837735533714 0.0035527106374502182
199.919845581054688 -27.0233840942382812 6.59155893325805664 306 1645019157.03776622 0.361969143152236938 0.932173311710357666 0.0031518151517957449 -0.00461942423135042191
196.424774169921875 -23.0881576538085938 6.70200586318969727 307 1645019158.1387763 0.476868093013763428 0.878795921802520752 0.0177130308002233505 0.000880867126397788525
195.728622436523438 -20.2336292266845703 6.80670547485351562 308 1645019158.83713269 0.634360790252685547 0.772841513156890869 0.0163506846874952316 -0.00592264113947749138
195.635009765625 -15.1663122177124023 6.97943687438964844 309 1645019160.0369184 0.684258639812469482 0.72895890474319458 0.00240468932315707207 -0.0200798064470291138
194.6890869140625 -11.7288732528686523 7.08733129501342773 310 1645019160.9372406 0.596142947673797607 0.802760601043701172 0.0125836124643683434 -0.00553836068138480186
194.017654418945312 -9.73266124725341797 7.13215541839599609 311 1645019161.53902197 0.602131962776184082 0.798183679580688477 0.0180685669183731079 0.00365754938684403896
194.052627563476562 -7.80654335021972656 7.15962314605712891 312 1645019162.14011526 0.710228860378265381 0.703756093978881836 0.0120582105591893196 0.0125278793275356293
194.783401489257812 -6.50395059585571289 7.17885971069335938 313 1645019162.63775921 0.831927835941314697 0.554578542709350586 0.00908856932073831558 0.0160057973116636276
195.75555419921875 -5.91034936904907227 7.19958734512329102 314 1645019163.03826308 0.925754249095916748 0.377775251865386963 0.00565879512578248978 0.0152617543935775757
196.818328857421875 -5.82993555068969727 7.2212834358215332 315 1645019163.43803525 0.982276201248168945 0.187177181243896484 0.00332189770415425301 0.0093318745493888855
198.4552001953125 -6.75379419326782227 7.23384618759155273 316 1645019164.24070001 0.98408198356628418 -0.177658826112747192 -0.00382638978771865368 -0.00232532760128378868
198.940032958984375 -7.68175077438354492 7.23061037063598633 317 1645019164.7384305 0.92799609899520874 -0.372524917125701904 -0.00546357268467545509 -0.00431609246879816055
199.024810791015625 -8.69100761413574219 7.21121406555175781 318 1645019165.23960614 0.838007688522338867 -0.545529186725616455 -0.00855729170143604279 -0.00823232252150774002
198.679367065429688 -9.79768180847167969 7.18128252029418945 319 1645019165.74078274 0.699145138263702393 -0.714736819267272949 -0.0160136688500642776 -0.0095379343256354332
197.990463256835938 -10.5798397064208984 7.15450525283813477 320 1645019166.13973117 0.545079469680786133 -0.838023900985717773 -0.021158875897526741 -0.0125174615532159805
