# .PCD v0.7 - Point Cloud Data file format
VERSION 0.7
FIELDS x y z intensity roll pitch yaw time
SIZE 4 4 4 4 4 4 4 8
TYPE F F F F F F F F
COUNT 1 1 1 1 1 1 1 1
WIDTH 317
HEIGHT 1
VIEWPOINT 0 0 0 1 0 0 0
POINTS 317
DATA ascii
-72.7463607788085938 -119.814994812011719 4.88441658020019531 557 -0.0232370737940073013 -0.00170526839792728424 0.739754557609558105 1645021299.71556258
-71.8631820678710938 -118.9136962890625 4.79976511001586914 558 -0.00406761746853590012 0.0135134626179933548 0.747507810592651367 1645021299.9158349
-71.007843017578125 -118.070075988769531 4.83806037902832031 559 -0.0308646764606237411 0.00625276472419500351 0.749756038188934326 1645021300.11372495
-70.1723556518554688 -117.334014892578125 4.80742263793945312 560 -0.0101789934560656548 -0.000682621030136942863 0.733951449394226074 1645021300.31197023
-69.2109375 -116.522636413574219 4.80648899078369141 561 -0.0339132174849510193 0.00133188266772776842 0.718681812286376953 1645021300.51552391
-68.1153793334960938 -115.725181579589844 4.7815709114074707 562 -0.0218708198517560959 0.0205884724855422974 0.691405713558197021 1645021300.71492815
-67.1382293701171875 -114.885139465332031 4.76141929626464844 563 -0.0369114093482494354 0.00193202239461243153 0.678358912467956543 1645021300.91448092
-66.0970230102539062 -114.107879638671875 4.69239091873168945 564 -0.00570644252002239227 -0.00408001849427819252 0.663886725902557373 1645021301.11433673
-64.9759521484375 -113.3594970703125 4.67160844802856445 565 -0.0207685176283121109 0.0220863576978445053 0.651307404041290283 1645021301.31197858
-63.931396484375 -112.473777770996094 4.64943647384643555 566 -0.00988974235951900482 -0.00497560622170567513 0.646453678607940674 1645021301.51300383
-63.0753211975097656 -111.5125732421875 4.75718212127685547 567 -0.025533994659781456 0.0084057394415140152 0.663975656032562256 1645021301.7108705
-62.0522193908691406 -110.881599426269531 4.69391345977783203 568 -0.0181350857019424438 0.00582787720486521721 0.669273495674133301 1645021301.91590309
-60.9829635620117188 -110.210891723632812 4.67644643783569336 569 -0.0252887662500143051 0.00651694415137171745 0.646790862083435059 1645021302.11704183
-59.8530311584472656 -109.529998779296875 4.58923006057739258 570 -0.0207644756883382797 0.00405690679326653481 0.622662603855133057 1645021302.31181026
-58.7237319946289062 -108.6826171875 4.70142221450805664 571 -0.0277438312768936157 -0.0277512073516845703 0.605046987533569336 1645021302.51630449
-57.6162757873535156 -107.842765808105469 4.63708257675170898 572 -0.00938486307859420776 -0.00445183971896767616 0.584022462368011475 1645021302.71484399
-56.5232772827148438 -107.251129150390625 4.53558635711669922 573 -0.0269622988998889923 0.0140863815322518349 0.570743739604949951 1645021302.91587949
-55.2853202819824219 -106.545936584472656 4.58565759658813477 574 -0.027810119092464447 0.00170943618286401033 0.552806198596954346 1645021303.11256146
-54.0561714172363281 -105.5843505859375 4.52647542953491211 575 -0.0341184176504611969 -0.0157572440803050995 0.555681765079498291 1645021303.31162095
-53.0195198059082031 -104.707077026367188 4.68919229507446289 576 -0.00390749843791127205 -0.0176744647324085236 0.55303722620010376 1645021303.5139277
-52.0193977355957031 -104.106346130371094 4.57612705230712891 577 -0.0319289229810237885 -0.0307145509868860245 0.556351363658905029 1645021303.71504641
-50.976715087890625 -103.605560302734375 4.50549650192260742 578 -0.00615549320355057716 -0.0156238684430718422 0.542389273643493652 1645021303.91569829
-49.8186302185058594 -103.217864990234375 4.55549812316894531 579 -0.0231606699526309967 -0.0146531714126467705 0.528182566165924072 1645021304.11647964
-48.6051559448242188 -102.5174560546875 4.5947113037109375 580 -0.015397900715470314 -0.0206718184053897858 0.50641942024230957 1645021304.31260204
-47.3446426391601562 -101.782196044921875 4.70343494415283203 581 -0.0268029365688562393 -0.0262759868055582047 0.492410480976104736 1645021304.51205611
-46.1155853271484375 -101.013542175292969 4.64166831970214844 582 -0.00862424913793802261 -0.0222210288047790527 0.489604979753494263 1645021304.7101748
-44.9738388061523438 -100.490890502929688 4.61562013626098633 583 -0.0066282050684094429 -0.0128298131749033928 0.484774023294448853 1645021304.91286182
-43.8734321594238281 -100.002151489257812 4.62743759155273438 584 0.00106476410292088985 -0.017732035368680954 0.464289337396621704 1645021305.10880351
-42.7394561767578125 -99.4700546264648438 4.70953273773193359 585 -0.024912787601351738 -0.0155926914885640144 0.444002032279968262 1645021305.31022692
-41.3879776000976562 -98.7595138549804688 4.60546350479125977 586 -0.0216492526233196259 -0.00184883468318730593 0.434382915496826172 1645021305.50871253
-40.0391006469726562 -97.9982757568359375 4.6140742301940918 587 -0.0246758516877889633 -0.0113208219408988953 0.432655066251754761 1645021305.70898962
-38.9619178771972656 -97.5528335571289062 4.60791778564453125 588 -0.0166144818067550659 -0.00613506371155381203 0.421697437763214111 1645021305.91113877
-37.8611869812011719 -97.1806259155273438 4.62255477905273438 589 -0.00925491936504840851 -0.00225717178545892239 0.407814055681228638 1645021306.11035585
-36.6697578430175781 -96.7415390014648438 4.66576576232910156 590 -0.0221610739827156067 -0.00427315942943096161 0.388927489519119263 1645021306.31012869
-35.3075599670410156 -96.2051544189453125 4.596710205078125 591 -0.00535982195287942886 -0.0123076671734452248 0.375707030296325684 1645021306.50838852
-33.9996681213378906 -95.6126937866210938 4.58675622940063477 592 -0.0146474149078130722 -0.00375092821195721626 0.371644288301467896 1645021306.7092576
-32.7605781555175781 -95.1452560424804688 4.56964731216430664 593 -0.0056385439820587635 -0.00803203601390123367 0.364971339702606201 1645021306.90728045
-31.8009395599365234 -94.6953277587890625 4.69319343566894531 594 -0.0235542990267276764 -0.0288109872490167618 0.371813178062438965 1645021307.10751891
-29.140045166015625 -93.8968124389648438 4.75625514984130859 595 -0.0197580419480800629 -0.0217553116381168365 0.371998786926269531 1645021307.50899863
-27.6161212921142578 -92.9726486206054688 4.57560253143310547 596 -0.00546555314213037491 -0.0311513524502515793 0.39308503270149231 1645021307.70877171
-26.6634693145751953 -92.1318206787109375 4.70289134979248047 597 -0.00827343761920928955 -0.0182343516498804092 0.416109561920166016 1645021307.90897322
-24.6219558715820312 -92.0265426635742188 4.9572443962097168 598 -0.0283431913703680038 -0.0469827577471733093 0.379771590232849121 1645021308.31001091
-23.1923351287841797 -91.366912841796875 4.82366704940795898 599 -0.0146869337186217308 -0.0426389724016189575 0.371980786323547363 1645021308.50993657
-21.8552570343017578 -90.4572525024414062 4.90029335021972656 600 -0.0595830343663692474 0.00310942297801375389 0.383847534656524658 1645021308.70895314
-20.8732872009277344 -89.4183731079101562 4.89464998245239258 601 -0.06008099764585495 -0.0416951961815357208 0.398330569267272949 1645021308.91053796
-19.7606601715087891 -88.8050384521484375 5.02831506729125977 602 -0.0440543554723262787 -0.0439037270843982697 0.400939017534255981 1645021309.10803318
-18.6182270050048828 -88.5991439819335938 4.9595799446105957 603 -0.0586155690252780914 -0.038828771561384201 0.403271704912185669 1645021309.30855346
-17.4274559020996094 -88.1603317260742188 4.98886203765869141 604 -0.0370541252195835114 -0.0574210770428180695 0.402344942092895508 1645021309.50858521
-16.2369956970214844 -87.9536209106445312 4.92749261856079102 605 -0.0234679114073514938 -0.0400452166795730591 0.391891181468963623 1645021309.70972729
-15.0945825576782227 -87.58203125 5.02367401123046875 606 -0.00937618408352136612 -0.03690381720662117 0.382535010576248169 1645021309.91093111
-13.8401117324829102 -87.1504135131835938 5.188018798828125 607 -0.023907490074634552 -0.0514608956873416901 0.374738067388534546 1645021310.10900164
-12.6657838821411133 -86.7142715454101562 5.190155029296875 608 -0.0135230757296085358 -0.0559442415833473206 0.363698184490203857 1645021310.30898499
-11.3782062530517578 -86.1479034423828125 5.13826942443847656 609 -0.0172976851463317871 -0.0438222251832485199 0.376316815614700317 1645021310.50996113
-10.3515081405639648 -85.515228271484375 5.30414199829101562 610 -0.0175070147961378098 -0.0595511384308338165 0.395607173442840576 1645021310.708884
-9.0988006591796875 -84.9288253784179688 5.10040283203125 611 -0.0328413881361484528 -0.0286389421671628952 0.41417926549911499 1645021310.90904331
-8.13900947570800781 -84.4687728881835938 5.44120359420776367 612 -0.0317201092839241028 -0.070719599723815918 0.420423984527587891 1645021311.11041927
-7.24059152603149414 -84.0111007690429688 5.44561433792114258 613 -0.0388894155621528625 -0.0254303067922592163 0.399900823831558228 1645021311.31215096
-6.08345127105712891 -83.74560546875 5.31064462661743164 614 0.00970618147403001785 -0.0551312193274497986 0.382117867469787598 1645021311.51175141
-4.83474159240722656 -83.0627975463867188 5.53191471099853516 615 -0.0464150607585906982 -0.0574156343936920166 0.395875394344329834 1645021311.71208596
-3.6170504093170166 -82.5829544067382812 5.49318981170654297 616 -0.00391461094841361046 -0.0640464276075363159 0.39137229323387146 1645021311.9093678
-2.34508275985717773 -81.96685791015625 5.52016019821166992 617 -0.0637562423944473267 -0.0293583609163761139 0.411842674016952515 1645021312.10877419
-1.18564343452453613 -81.4331130981445312 5.54299116134643555 618 -0.0338811427354812622 -0.0248862002044916153 0.425994515419006348 1645021312.30994749
-0.102831035852432251 -80.8030776977539062 5.63045644760131836 619 -0.0524886436760425568 -0.0570747032761573792 0.447179228067398071 1645021312.50884509
1.49483740329742432 -80.0174331665039062 5.61745214462280273 620 -0.0136381033807992935 -0.0416468903422355652 0.386411756277084351 1645021312.90991449
2.62357640266418457 -79.9146575927734375 5.63673162460327148 621 -0.00738481665030121803 -0.0386867336928844452 0.34499087929725647 1645021313.10956883
3.84968256950378418 -79.5655899047851562 5.71552515029907227 622 0.00264624482952058315 -0.05596204474568367 0.324844181537628174 1645021313.30932593
5.3733057975769043 -79.0164108276367188 5.80518627166748047 623 -0.0102834906429052353 -0.0542092621326446533 0.357247501611709595 1645021313.50895882
6.58396148681640625 -78.3137969970703125 5.80001068115234375 624 -0.0109537672251462936 -0.0584731176495552063 0.387451678514480591 1645021313.70966768
7.52448749542236328 -77.7793045043945312 5.87896347045898438 625 -0.0178838390856981277 -0.061870131641626358 0.406519055366516113 1645021313.90903115
9.27478885650634766 -77.1141815185546875 5.85617160797119141 626 -0.0174002908170223236 -0.0415462665259838104 0.398043423891067505 1645021314.30961013
10.3322086334228516 -76.7640914916992188 5.94123077392578125 627 -0.0146250259131193161 -0.0469437427818775177 0.391448289155960083 1645021314.50968981
11.6242237091064453 -76.1884307861328125 6.07403135299682617 628 -0.02514607273042202 -0.0581555478274822235 0.388469278812408447 1645021314.70949984
13.0201501846313477 -75.7008209228515625 6.03862857818603516 629 -0.0255276449024677277 0.0106326993554830551 0.386959344148635864 1645021314.90886068
14.0859394073486328 -75.2214813232421875 6.2252039909362793 630 -0.0237844977527856827 -0.0658646523952484131 0.375782430171966553 1645021315.10953665
15.1104421615600586 -74.8412322998046875 6.07686376571655273 631 0.0060961446724832058 -0.00468304194509983063 0.374121546745300293 1645021315.30995202
16.8392486572265625 -73.9948654174804688 5.94187211990356445 632 -0.0122618414461612701 0.0151715092360973358 0.385440945625305176 1645021315.70989394
18.4026985168457031 -73.2548446655273438 5.91345787048339844 633 -0.0181605014950037003 0.0285604242235422134 0.451684057712554932 1645021316.00919461
19.6649188995361328 -72.1856460571289062 5.83914613723754883 634 0.021161343902349472 0.0387001968920230865 0.605453729629516602 1645021316.40946031
21.0828037261962891 -70.8413619995117188 5.62474679946899414 635 -0.0268503911793231964 0.0609926581382751465 0.835192978382110596 1645021316.81023169
21.5943031311035156 -69.4491043090820312 5.66082859039306641 636 -0.0387262701988220215 0.0479750074446201324 1.02916479110717773 1645021317.11101317
22.16552734375 -68.2654266357421875 5.48807573318481445 637 -0.0049459352158010006 0.0479601137340068817 1.13153588771820068 1645021317.31037521
22.2640666961669922 -67.2377090454101562 5.50892448425292969 638 -0.00733709661290049553 0.0390059910714626312 1.25245296955108643 1645021317.50945115
22.5671520233154297 -65.6555709838867188 5.41737985610961914 639 -0.0139150097966194153 0.10567842423915863 1.39512479305267334 1645021317.80895329
22.4628372192382812 -64.53070068359375 5.21893596649169922 640 0.0146929575130343437 0.0822229161858558655 1.51810359954833984 1645021318.00910592
22.0744895935058594 -63.5028495788574219 5.18656396865844727 641 -0.0101735470816493034 0.0784734860062599182 1.64551234245300293 1645021318.20951533
21.9193706512451172 -61.9032402038574219 4.98897981643676758 642 0.00417705299332737923 0.090754382312297821 1.7562720775604248 1645021318.50927377
21.5016193389892578 -60.6121063232421875 4.82360553741455078 643 0.0207664947956800461 0.0872622504830360413 1.85631835460662842 1645021318.70938492
20.851287841796875 -59.4740791320800781 4.81467914581298828 644 0.00374129810370504856 0.0854868441820144653 1.93671572208404541 1645021318.90937996
20.4173030853271484 -57.8453750610351562 4.63555574417114258 645 -0.00834022276103496552 0.0719960778951644897 1.93188464641571045 1645021319.21189785
19.7407741546630859 -56.47796630859375 4.48635530471801758 646 0.00589491380378603935 0.0784975811839103699 1.97752010822296143 1645021319.41017461
19.0626316070556641 -54.8907203674316406 4.31276321411132812 647 -0.00748204346746206284 0.0838091820478439331 1.97639453411102295 1645021319.7088995
18.2926902770996094 -53.4711647033691406 4.1384429931640625 648 0.00356672238558530807 0.0864565223455429077 2.00980067253112793 1645021319.90788555
17.5474071502685547 -52.26129150390625 4.00137901306152344 649 0.00581875629723072052 0.0861979424953460693 2.04773497581481934 1645021320.10989475
16.7218360900878906 -50.3737678527832031 3.84114265441894531 650 0.0150326630100607872 0.0738106966018676758 2.02388644218444824 1645021320.40895557
15.9715681076049805 -49.0806961059570312 3.76020026206970215 651 -0.000902419793419539928 0.0856088250875473022 2.04386234283447266 1645021320.60897279
15.312891960144043 -47.779296875 3.64101719856262207 652 0.00253191380761563778 0.0787086784839630127 2.0395510196685791 1645021320.80849886
14.667628288269043 -46.6995315551757812 3.57525849342346191 653 -0.0118796909227967262 0.0699279755353927612 2.01506972312927246 1645021321.01162696
13.7169179916381836 -44.5508575439453125 3.3123314380645752 654 0.00033254301524721086 0.075009472668170929 2.01778912544250488 1645021321.30835223
13.1064529418945312 -43.2857208251953125 3.16656875610351562 655 -0.00354062300175428391 0.0895490646362304688 1.9998704195022583 1645021321.51059866
12.5317487716674805 -41.8815422058105469 3.02034163475036621 656 -0.00755453389137983322 0.0888121351599693298 1.98857319355010986 1645021321.70899916
11.9168434143066406 -40.4942779541015625 2.95788741111755371 657 -0.0062482818029820919 0.086632363498210907 1.98491811752319336 1645021321.90939093
11.3494052886962891 -39.0930366516113281 2.84364986419677734 658 -0.00731605850160121918 0.076074555516242981 1.96649158000946045 1645021322.10940456
10.7240352630615234 -37.66094970703125 2.7028658390045166 659 -0.0106541551649570465 0.0724576041102409363 1.9643782377243042 1645021322.30964494
10.1230020523071289 -36.2995033264160156 2.5124046802520752 660 -0.0270299427211284637 0.0558303184807300568 1.96458256244659424 1645021322.50981355
9.47661972045898438 -34.8962516784667969 2.31813693046569824 661 0.000300068844808265567 0.0844825655221939087 1.96734964847564697 1645021322.70992637
8.87756252288818359 -33.4671897888183594 2.30608224868774414 662 -0.0253704041242599487 0.092213951051235199 1.96931290626525879 1645021322.91244364
8.33369159698486328 -31.9487934112548828 2.18851280212402344 663 -0.0067142760381102562 0.0879916474223136902 1.96862626075744629 1645021323.1110034
7.67273044586181641 -30.5023307800292969 2.10076451301574707 664 -0.0307412892580032349 0.0675428956747055054 1.98150289058685303 1645021323.30948782
7.08195924758911133 -29.0876922607421875 1.88488030433654785 665 -0.00580801395699381828 0.0738247856497764587 1.97703123092651367 1645021323.50941873
6.384765625 -27.6943798065185547 1.753792405128479 666 -0.0199990775436162949 0.0741845220327377319 1.98871529102325439 1645021323.70978546
5.70480775833129883 -26.3351154327392578 1.67989993095397949 667 -0.018109368160367012 0.0832244008779525757 1.97035408020019531 1645021323.90968132
5.12468481063842773 -24.8745460510253906 1.47692751884460449 668 -0.0237110387533903122 0.0436659269034862518 1.96674740314483643 1645021324.11162043
4.49141883850097656 -23.4849033355712891 1.4110182523727417 669 -0.0177642069756984711 0.0585239976644515991 1.95478320121765137 1645021324.31151915
3.93507647514343262 -22.0124645233154297 1.23883247375488281 670 -0.00824851077049970627 0.0691271200776100159 1.95713412761688232 1645021324.5102973
3.33204221725463867 -20.5635395050048828 1.28092420101165771 671 -0.0232407767325639725 0.0739593133330345154 1.9551692008972168 1645021324.70995164
2.80972599983215332 -19.0797767639160156 1.09198141098022461 672 -0.00950835458934307098 0.0549187213182449341 1.96082818508148193 1645021324.91002941
2.17261815071105957 -17.6707134246826172 1.08613038063049316 673 -0.00752414530143141747 0.056150440126657486 1.97264206409454346 1645021325.11000371
1.58621180057525635 -16.2615222930908203 0.966175973415374756 674 0.000190710925380699337 0.0576255172491073608 1.95801544189453125 1645021325.31126595
0.95898360013961792 -14.7972335815429688 0.969872236251831055 675 -0.0139429103583097458 0.0362998843193054199 1.95786356925964355 1645021325.51020408
0.371377319097518921 -13.3987102508544922 0.723298072814941406 676 0.00815223157405853271 0.0360289029777050018 1.9562002420425415 1645021325.71027255
-0.251075863838195801 -11.9306430816650391 0.70776444673538208 677 -0.00901003926992416382 0.0479173026978969574 1.96707797050476074 1645021325.91008401
-0.863827288150787354 -10.5597019195556641 0.53673321008682251 678 0.0171117540448904037 0.0625726580619812012 1.96830511093139648 1645021326.11073446
-1.45690238475799561 -9.16981029510498047 0.506436347961425781 679 0.00237048184499144554 0.0681198090314865112 1.96859872341156006 1645021326.31163406
-2.04538226127624512 -7.69951057434082031 0.382290929555892944 680 0.0187754649668931961 0.05168958380818367 1.9793781042098999 1645021326.51030231
-2.6772148609161377 -6.31774234771728516 0.383133649826049805 681 0.00920666661113500595 0.0592589378356933594 1.97581446170806885 1645021326.71054721
-3.28042888641357422 -4.89731359481811523 0.244292065501213074 682 0.0126453442499041557 0.0532177649438381195 1.97496545314788818 1645021326.91248584
-3.88063764572143555 -3.48038387298583984 0.254278719425201416 683 0.00387787888757884502 0.0341578908264636993 1.97696757316589355 1645021327.11029172
-4.51642179489135742 -2.01103115081787109 -0.0128303393721580505 684 0.0230683721601963043 0.0632878467440605164 1.9849550724029541 1645021327.31121135
-5.24782657623291016 -0.566467046737670898 -0.0893151611089706421 685 0.00389453954994678497 0.0540962889790534973 1.99063754081726074 1645021327.51097369
-5.894439697265625 0.66635596752166748 -0.224794134497642517 686 0.00360285164788365364 0.0749391168355941772 1.96711075305938721 1645021327.71047688
-6.44036245346069336 2.1563563346862793 -0.368570834398269653 687 -0.00484222918748855591 0.0643784329295158386 1.98457145690917969 1645021327.91045809
-7.07995462417602539 3.54076075553894043 -0.446052879095077515 688 0.00221165409311652184 0.062358558177947998 1.98634195327758789 1645021328.11156583
-7.68258571624755859 4.92934751510620117 -0.451880037784576416 689 -0.00657927012071013451 0.0312781892716884613 1.97832071781158447 1645021328.31066751
-8.32928085327148438 6.46433353424072266 -0.611081242561340332 690 0.00705422880128026009 0.0406838469207286835 2.00425577163696289 1645021328.51028872
-9.01951217651367188 7.7892765998840332 -0.616033792495727539 691 -0.0123014179989695549 0.0218282341957092285 1.99693715572357178 1645021328.71037006
-9.64494800567626953 9.16758155822753906 -0.599602282047271729 692 -0.00628820387646555901 0.0268022175878286362 1.97750842571258545 1645021328.91065407
-10.2765588760375977 10.5389957427978516 -0.811824023723602295 693 -0.0179573521018028259 0.0275098010897636414 1.96772181987762451 1645021329.11021852
-10.8499078750610352 11.9247951507568359 -0.832313120365142822 694 -0.0187066569924354553 0.0303459744900465012 1.97272920608520508 1645021329.3101356
-11.4726858139038086 13.3586339950561523 -0.894559264183044434 695 -0.0169522687792778015 0.0189177487045526505 1.98908424377441406 1645021329.51102734
-12.1272974014282227 14.7274923324584961 -0.910090148448944092 696 -0.0292072799056768417 0.0382885336875915527 1.976767897605896 1645021329.71020198
-12.6836395263671875 16.0931472778320312 -0.955883562564849854 697 -0.0122289126738905907 0.014804287813603878 1.96253526210784912 1645021329.91098142
-13.2848348617553711 17.3897933959960938 -0.884394943714141846 698 -0.0203571915626525879 0.0252675637602806091 1.93954646587371826 1645021330.11073256
-13.8162498474121094 18.7633399963378906 -1.12716162204742432 699 -0.0242092832922935486 0.0188030917197465897 1.93677043914794922 1645021330.30999136
-14.3766899108886719 20.1716403961181641 -0.969263195991516113 700 -0.0340330526232719421 0.0158058013767004013 1.93690621852874756 1645021330.50948238
-14.8781185150146484 21.5526065826416016 -1.08493423461914062 701 -0.0273071508854627609 0.00751197338104248047 1.94071316719055176 1645021330.71060658
-15.4356107711791992 22.9366931915283203 -1.03615438938140869 702 -0.0281229652464389801 0.00472059193998575211 1.92473399639129639 1645021330.91010928
-15.9219131469726562 24.2970142364501953 -1.06029665470123291 703 -0.029382733628153801 -0.00135347130708396435 1.89883291721343994 1645021331.11023593
-16.3205451965332031 25.6264076232910156 -1.14240026473999023 704 -0.022539287805557251 -0.00327442772686481476 1.86324763298034668 1645021331.31047583
-16.7042331695556641 27.0435466766357422 -1.21768152713775635 705 -0.0153815606608986855 -0.00870949123054742813 1.85696792602539062 1645021331.51048326
-17.0938758850097656 28.4203033447265625 -1.17449033260345459 706 -0.00222493335604667664 -0.00275445729494094849 1.84588873386383057 1645021331.71238899
-17.4229011535644531 29.7188396453857422 -1.13026571273803711 707 0.00173116591759026051 -0.00526450993493199348 1.82135295867919922 1645021331.91069627
-17.7398471832275391 31.1414928436279297 -1.20265555381774902 708 0.00998678337782621384 -0.0127382688224315643 1.81299722194671631 1645021332.11061883
-18.0818347930908203 32.6044731140136719 -1.15977942943572998 709 0.0163910742849111557 -0.0199721362441778183 1.81676614284515381 1645021332.31095648
-18.3614215850830078 33.7683982849121094 -1.09833168983459473 710 0.0198134854435920715 -0.0221535712480545044 1.79052078723907471 1645021332.5135901
-18.6014595031738281 34.9531593322753906 -1.0850445032119751 711 0.0149770714342594147 -0.0190641842782497406 1.75798141956329346 1645021332.70989323
-18.8560791015625 36.459747314453125 -1.07028758525848389 712 0.0166310127824544907 -0.0142185427248477936 1.74109280109405518 1645021332.90986061
-19.1461772918701172 38.1216049194335938 -1.04737269878387451 713 0.0111187687143683434 -0.0210571922361850739 1.74910330772399902 1645021333.11039901
-19.3811016082763672 39.5431289672851562 -1.01090860366821289 714 0.0136996069923043251 -0.0336394533514976501 1.74865710735321045 1645021333.3115108
-19.5783977508544922 40.70721435546875 -1.02359986305236816 715 0.0172664672136306763 -0.0291861873120069504 1.7364039421081543 1645021333.51143289
-19.7566661834716797 41.9239311218261719 -0.989958882331848145 716 0.0119880083948373795 -0.0258868597447872162 1.71129477024078369 1645021333.71119809
-19.8714847564697266 43.1355552673339844 -0.969779729843139648 717 0.0187514089047908783 -0.0372614972293376923 1.68348705768585205 1645021333.91273332
-20.0032711029052734 44.532196044921875 -0.986322343349456787 718 0.0166984274983406067 -0.0370726622641086578 1.6695396900177002 1645021334.11167145
-20.1331996917724609 45.8319053649902344 -0.926347255706787109 719 0.0147106675431132317 -0.0412371270358562469 1.65460419654846191 1645021334.31166887
-20.2071113586425781 47.2150039672851562 -0.861482977867126465 720 0.0180887430906295776 -0.0469529964029788971 1.63999807834625244 1645021334.51245546
-20.2783870697021484 48.7056007385253906 -0.837248802185058594 721 0.020190780982375145 -0.040082935243844986 1.63613128662109375 1645021334.71193385
-20.3557624816894531 50.010498046875 -0.760156631469726562 722 0.0189294200390577316 -0.045131288468837738 1.61923801898956299 1645021334.91170239
-20.4004459381103516 51.2148475646972656 -0.71708756685256958 723 0.0114569421857595444 -0.0380239710211753845 1.58573877811431885 1645021335.11184788
-20.348876953125 52.4012870788574219 -0.714847147464752197 724 0.0111236851662397385 -0.0435319319367408752 1.53892028331756592 1645021335.31147194
-20.2382183074951172 53.8071060180664062 -0.597729265689849854 725 0.00659671053290367126 -0.0554843507707118988 1.50687015056610107 1645021335.51008749
-20.0823116302490234 55.2061576843261719 -0.471825391054153442 726 0.00761444540694355965 -0.0592020675539970398 1.47321879863739014 1645021335.71305633
-19.8527584075927734 56.6881217956542969 -0.447912991046905518 727 0.01046000886708498 -0.0612959675490856171 1.44899725914001465 1645021335.91164756
-19.6735401153564453 57.8661422729492188 -0.438486576080322266 728 0.0103449877351522446 -0.0692389011383056641 1.41389298439025879 1645021336.11167336
-19.4837131500244141 58.894317626953125 -0.382203638553619385 729 0.009968586266040802 -0.053826894611120224 1.36769354343414307 1645021336.3130641
-19.1718921661376953 60.0263023376464844 -0.379367709159851074 730 0.0185504201799631119 -0.0606044940650463104 1.33315110206604004 1645021336.51190543
-18.8379859924316406 61.26666259765625 -0.213191956281661987 731 0.0291500259190797806 -0.0695130899548530579 1.33038532733917236 1645021336.71293879
-18.5335903167724609 62.6055488586425781 -0.145347192883491516 732 0.0286567993462085724 -0.0724645331501960754 1.33475613594055176 1645021336.91260386
-18.2524642944335938 63.87255859375 -0.0422121323645114899 733 0.0290785655379295349 -0.0755216553807258606 1.33572971820831299 1645021337.11304069
-17.9839916229248047 65.04644775390625 -0.010081002488732338 734 0.0290327798575162888 -0.0759353488683700562 1.33514630794525146 1645021337.31248665
-17.6909027099609375 66.2456207275390625 0.00576865300536155701 735 0.024425853043794632 -0.0762797966599464417 1.32513141632080078 1645021337.51253915
-17.3942852020263672 67.4361648559570312 0.0594374276697635651 736 0.0226229541003704071 -0.0755113512277603149 1.31466960906982422 1645021337.71333909
-17.0977344512939453 68.5619354248046875 0.144391700625419617 737 0.0216450244188308716 -0.0733752399682998657 1.30207014083862305 1645021337.91363168
-16.7972698211669922 69.6143722534179688 0.238897949457168579 738 0.023526415228843689 -0.0753116533160209656 1.28968000411987305 1645021338.11242676
-16.46209716796875 70.6818923950195312 0.329147189855575562 739 0.0211957059800624847 -0.0737272351980209351 1.27910137176513672 1645021338.31232572
-16.1017837524414062 71.8096694946289062 0.459593862295150757 740 0.0200129244476556778 -0.0781365707516670227 1.26535654067993164 1645021338.51368833
-15.7330923080444336 72.9619827270507812 0.563160419464111328 741 0.0187176838517189026 -0.0815043672919273376 1.25150072574615479 1645021338.71241808
-15.3739910125732422 74.0673828125 0.649004995822906494 742 0.0182428080588579178 -0.0852313116192817688 1.23994219303131104 1645021338.91317916
-14.9888086318969727 75.1525955200195312 0.695847630500793457 743 0.0167123954743146896 -0.0884908139705657959 1.22848880290985107 1645021339.11299133
-14.603790283203125 76.2170181274414062 0.789246737957000732 744 0.0174491256475448608 -0.092810608446598053 1.21452069282531738 1645021339.31553197
-14.2133607864379883 77.235870361328125 0.904350817203521729 745 0.0166341755539178848 -0.094030432403087616 1.20031356811523438 1645021339.51318121
-13.7882146835327148 78.2628631591796875 0.958551764488220215 746 0.0186433158814907074 -0.0943230986595153809 1.18546319007873535 1645021339.71404886
-13.3618612289428711 79.292572021484375 1.03045368194580078 747 0.0243329908698797226 -0.0917617678642272949 1.16866767406463623 1645021339.91336465
-12.945317268371582 80.2500076293945312 1.12130343914031982 748 0.0243278220295906067 -0.0909539833664894104 1.15545177459716797 1645021340.11400437
-12.4953241348266602 81.2146835327148438 1.19982945919036865 749 0.0241498295217752457 -0.0871151313185691833 1.14095282554626465 1645021340.31342697
-12.0522708892822266 82.1498489379882812 1.30509614944458008 750 0.0232331994920969009 -0.0859910324215888977 1.12726736068725586 1645021340.51522493
-11.6025848388671875 83.0542221069335938 1.3926544189453125 751 0.0221323482692241669 -0.0850392803549766541 1.11468613147735596 1645021340.71402431
-11.123478889465332 83.9714126586914062 1.47511029243469238 752 0.0242946650832891464 -0.0837921053171157837 1.10000050067901611 1645021340.9144237
-10.6279001235961914 84.9182281494140625 1.49737954139709473 753 0.0304512586444616318 -0.0827158689498901367 1.08864367008209229 1645021341.1125195
-10.1840190887451172 85.8450851440429688 1.54622673988342285 754 0.0280944947153329849 -0.0820616036653518677 1.08138120174407959 1645021341.31467772
-9.23086452484130859 87.548248291015625 1.7206881046295166 755 0.0301899686455726624 -0.0856685638427734375 1.07135570049285889 1645021341.71601176
-8.73083591461181641 88.4625091552734375 1.7437736988067627 756 0.0352022498846054077 -0.0846562311053276062 1.06484436988830566 1645021341.91593122
-8.25370025634765625 89.3957748413085938 1.84144508838653564 757 0.0360098183155059814 -0.0895685255527496338 1.07430171966552734 1645021342.11297846
-7.82161808013916016 90.2975387573242188 1.92776083946228027 758 0.0301501862704753876 -0.0887220501899719238 1.08277428150177002 1645021342.31530857
-6.97282600402832031 92.01123046875 2.06889462471008301 759 0.0270146895200014114 -0.0915964618325233459 1.10245144367218018 1645021342.71476364
-6.17504310607910156 93.6798324584960938 2.25588226318359375 760 0.0191011969000101089 -0.0974617302417755127 1.12044227123260498 1645021343.11528206
-5.376708984375 95.4618606567382812 2.45232486724853516 761 0.0159971434623003006 -0.0943109616637229919 1.13146698474884033 1645021343.51282001
-4.62741470336914062 97.1247329711914062 2.5187220573425293 762 0.0154498834162950516 -0.0926624909043312073 1.13979363441467285 1645021343.91294932
-3.84372591972351074 98.779998779296875 2.66643404960632324 763 0.0111203799024224281 -0.0900553539395332336 1.1415480375289917 1645021344.31302309
-3.12360405921936035 100.513618469238281 2.89342570304870605 764 0.011737440712749958 -0.0931491702795028687 1.1394655704498291 1645021344.71298456
-2.3974306583404541 102.016532897949219 2.97601413726806641 765 0.0147646507248282433 -0.0974858030676841736 1.13403666019439697 1645021345.11659789
-1.61266648769378662 103.642555236816406 3.06580805778503418 766 0.0130594763904809952 -0.096237771213054657 1.13630795478820801 1645021345.51775837
-1.23873138427734375 104.556861877441406 3.25181174278259277 767 0.0128708165138959885 -0.0835942253470420837 1.13831770420074463 1645021345.71453261
-0.542517721652984619 106.112159729003906 3.29668617248535156 768 0.0191360414028167725 -0.0902117267251014709 1.13986659049987793 1645021346.11444283
0.192502841353416443 107.674179077148438 3.40200662612915039 769 0.0229452028870582581 -0.0870610922574996948 1.13915467262268066 1645021346.51439023
0.919559240341186523 109.301048278808594 3.55496048927307129 770 0.0256109852343797684 -0.0879025980830192566 1.13946473598480225 1645021346.91643047
1.60306966304779053 110.847793579101562 3.64009499549865723 771 0.0186523813754320145 -0.0927842259407043457 1.13894855976104736 1645021347.31590772
2.30964207649230957 112.347663879394531 3.89571547508239746 772 0.0239631850272417068 -0.100685052573680878 1.13059651851654053 1645021347.71638775
3.03703761100769043 113.919258117675781 3.92088580131530762 773 0.0230606701225042343 -0.095345519483089447 1.1347280740737915 1645021348.1154511
3.76478171348571777 115.571273803710938 4.07659053802490234 774 0.0223778840154409409 -0.0856669172644615173 1.14458155632019043 1645021348.51579356
4.40551471710205078 116.968093872070312 4.12746000289916992 775 0.0321656689047813416 -0.0837504640221595764 1.1364288330078125 1645021348.91616893
5.11879110336303711 118.590362548828125 4.33785915374755859 776 0.012717164121568203 -0.0744766294956207275 1.14623439311981201 1645021349.31853151
5.76599645614624023 120.213066101074219 4.42610979080200195 777 0.0101639209315180779 -0.0761891677975654602 1.15678262710571289 1645021349.71459889
6.39961147308349609 121.726173400878906 4.47490787506103516 778 -0.000532079895492643118 -0.0692477300763130188 1.16512012481689453 1645021350.1179049
7.0395808219909668 123.231239318847656 4.62885522842407227 779 0.014504007063806057 -0.0629158318042755127 1.18018805980682373 1645021350.51600623
7.46511650085449219 124.35400390625 4.75791692733764648 780 0.0139378365129232407 -0.107901841402053833 1.19102692604064941 1645021350.91577363
7.85806894302368164 125.3541259765625 4.86501884460449219 781 0.000320618331898003817 -0.00928218383342027664 1.19156134128570557 1645021351.31713915
8.35227775573730469 126.409095764160156 4.87709331512451172 782 0.0241298992186784744 -0.0667964369058609009 1.18415749073028564 1645021351.71662688
8.7708740234375 127.555740356445312 4.83971452713012695 783 0.0316715016961097717 -0.0663731098175048828 1.18557405471801758 1645021352.11640096
9.50785732269287109 128.877182006835938 4.76407003402709961 784 0.0591268055140972137 -0.0208288319408893585 1.13082540035247803 1645021352.71781397
10.1695785522460938 130.080154418945312 4.83618593215942383 785 0.0572825893759727478 -0.0582970231771469116 1.06361186504364014 1645021353.11635852
10.6937732696533203 131.234603881835938 4.94316720962524414 786 0.0162995010614395142 -0.0436512865126132965 0.982951998710632324 1645021353.51859236
11.4369735717773438 131.48284912109375 4.95537424087524414 787 -0.00756661361083388329 -0.0455251485109329224 0.734739065170288086 1645021353.91557598
12.5869169235229492 131.585281372070312 5.01638936996459961 788 -0.00033879023976624012 -0.0503935180604457855 0.373523324728012085 1645021354.31556082
13.7045202255249023 131.467239379882812 5.07641410827636719 789 0.0244864244014024734 -0.0205104555934667587 0.0359296351671218872 1645021354.71563458
14.376887321472168 130.931381225585938 5.0131382942199707 790 0.0406161695718765259 -0.014045344665646553 -0.296513885259628296 1645021355.11728668
14.9815492630004883 130.112869262695312 4.97372341156005859 791 0.0526319593191146851 0.020886838436126709 -0.623125672340393066 1645021355.51683116
15.3430280685424805 129.046356201171875 5.01565408706665039 792 0.0365081280469894409 0.0279954727739095688 -0.981417655944824219 1645021355.91675663
15.2644233703613281 128.124114990234375 4.99939060211181641 793 0.0410181768238544464 0.0100132031366229057 -1.34604620933532715 1645021356.31397295
14.9455375671386719 126.859397888183594 4.79627466201782227 794 0.0472769662737846375 -0.00180998130235821009 -1.6586841344833374 1645021356.71648645
14.5417509078979492 125.597755432128906 4.53564882278442383 795 0.0313224717974662781 0.0498187728226184845 -1.85909020900726318 1645021357.1172092
13.8213834762573242 124.451057434082031 4.52556133270263672 796 -0.00194003933575004339 0.0490688607096672058 -2.01959776878356934 1645021357.51795721
13.2574357986450195 123.544731140136719 4.81530380249023438 797 -0.0166137013584375381 0.0214914586395025253 -2.04018020629882812 1645021357.71709991
12.4762001037597656 122.312431335449219 4.71743249893188477 798 0.020977366715669632 0.0167583078145980835 -2.10194897651672363 1645021358.11574841
11.5226602554321289 120.629196166992188 4.61106348037719727 799 0.0126714045181870461 0.0328756384551525116 -2.096893310546875 1645021358.51540279
10.5220136642456055 118.919349670410156 4.50706195831298828 800 0.00961082801222801208 0.0360554307699203491 -2.09528565406799316 1645021358.91678333
9.52687740325927734 117.147560119628906 4.35543584823608398 801 0.0213540084660053253 0.0510223321616649628 -2.08605003356933594 1645021359.31663084
8.98799800872802734 116.149978637695312 4.26994085311889648 802 0.0246432442218065262 0.0491838939487934113 -2.07631874084472656 1645021359.51476693
8.48010158538818359 115.152236938476562 4.17851352691650391 803 0.0246084369719028473 0.0556174665689468384 -2.06747007369995117 1645021359.7163651
7.9764399528503418 114.217697143554688 4.07509231567382812 804 0.0325091294944286346 0.0626013055443763733 -2.06769227981567383 1645021359.913692
7.34814453125 113.041236877441406 4.0014653205871582 805 0.02681739442050457 0.0497147627174854279 -2.05502796173095703 1645021360.11669517
6.78151321411132812 111.837242126464844 3.94102931022644043 806 0.00923213083297014236 0.0720242783427238464 -2.03768253326416016 1645021360.31366444
6.27072286605834961 110.712791442871094 3.79677176475524902 807 0.00466650445014238358 0.0743286088109016418 -2.03034758567810059 1645021360.51576376
5.69855403900146484 109.556610107421875 3.71785807609558105 808 0.00141043285839259624 0.0771649107336997986 -2.02978754043579102 1645021360.71427894
5.18635702133178711 108.375350952148438 3.5953524112701416 809 -0.00501432456076145172 0.0562253519892692566 -2.02827930450439453 1645021360.919065
4.65395927429199219 107.214790344238281 3.50108003616333008 810 -0.0144389225170016289 0.05635056272149086 -2.02620720863342285 1645021361.11543083
4.06475114822387695 106.056228637695312 3.35901188850402832 811 -0.00449773715808987617 0.0674069225788116455 -2.0294189453125 1645021361.3148787
3.37162446975708008 104.67919921875 3.24397087097167969 812 -0.00653305603191256523 0.0753106921911239624 -2.02210497856140137 1645021361.51873779
2.78572607040405273 103.340377807617188 3.11775398254394531 813 -0.00438965531066060066 0.0608070343732833862 -2.01226663589477539 1645021361.71473575
2.2844536304473877 102.182273864746094 3.11891031265258789 814 -0.00434515159577131271 0.0677825063467025757 -2.01475191116333008 1645021361.91650605
1.6867973804473877 101.011138916015625 2.99651074409484863 815 -0.0170507002621889114 0.0747758671641349792 -2.02167177200317383 1645021362.11348128
0.96416783332824707 99.5472259521484375 2.82803964614868164 816 -0.00606145942583680153 0.073705919086933136 -2.01835298538208008 1645021362.31401706
0.375073671340942383 98.127777099609375 2.73845505714416504 817 -0.00915439147502183914 0.0668044388294219971 -2.00359511375427246 1645021362.51908374
-0.213436812162399292 96.89080810546875 2.63576197624206543 818 -0.0105993738397955894 0.0756969526410102844 -2.0066986083984375 1645021362.71451116
-0.851965606212615967 95.4603118896484375 2.44465327262878418 819 -0.00656579760834574699 0.0738913342356681824 -2.00159788131713867 1645021362.91414261
-1.38850820064544678 94.1898269653320312 2.42639040946960449 820 -0.0178373605012893677 0.0712751150131225586 -2.00540947914123535 1645021363.11696911
-2.02991080284118652 93.004791259765625 2.25960040092468262 821 -0.017667185515165329 0.0739366635680198669 -2.0249335765838623 1645021363.31533337
-2.77027583122253418 91.4981307983398438 2.10053920745849609 822 -0.0102855628356337547 0.0818977430462837219 -2.02622151374816895 1645021363.51281905
-3.3839881420135498 90.1326522827148438 2.03758049011230469 823 -0.0137489736080169678 0.07572154700756073 -2.02582740783691406 1645021363.71703768
-4.09233474731445312 88.8423538208007812 1.87606918811798096 824 -0.00891271233558654785 0.0745210722088813782 -2.03864288330078125 1645021363.91680098
-4.77695274353027344 87.4628372192382812 1.82303500175476074 825 0.00208553089760243893 0.0681407377123832703 -2.04364109039306641 1645021364.11280394
-5.44036769866943359 86.220855712890625 1.67355334758758545 826 0.00354776228778064251 0.0831083208322525024 -2.04842567443847656 1645021364.31287599
-6.21153640747070312 84.7462692260742188 1.57915079593658447 827 -0.00125157402362674475 0.0607521981000900269 -2.04428863525390625 1645021364.5194459
-6.90317773818969727 83.2638015747070312 1.49783670902252197 828 0.010511946864426136 0.0644469559192657471 -2.03402185440063477 1645021364.71267414
-7.40195322036743164 81.9038162231445312 1.4044349193572998 829 -0.013187493197619915 0.0607921481132507324 -1.99788117408752441 1645021364.91256189
-7.90833091735839844 80.8911972045898438 1.24669730663299561 830 -0.0123519133776426315 0.037563621997833252 -2.00329303741455078 1645021365.11804247
-8.56172275543212891 79.6225738525390625 1.1182861328125 831 -0.0131608871743083 0.0526561364531517029 -2.00636816024780273 1645021365.31423593
-9.27018642425537109 77.9708099365234375 1.0200803279876709 832 -0.0124280750751495361 0.061430610716342926 -1.99825429916381836 1645021365.51934862
-9.97749805450439453 76.301055908203125 0.83986741304397583 833 -0.0103078130632638931 0.082088179886341095 -1.97588300704956055 1645021365.7132709
-10.5634450912475586 74.7233657836914062 0.6338997483253479 834 0.00412508565932512283 0.0777336955070495605 -1.95263218879699707 1645021365.91640902
-11.0486831665039062 73.3651123046875 0.631320476531982422 835 -0.0127804214134812355 0.0783675312995910645 -1.93378865718841553 1645021366.11279559
-11.5528364181518555 72.052490234375 0.482712686061859131 836 -0.00503441318869590759 0.0676098987460136414 -1.93052923679351807 1645021366.31293321
-12.0921497344970703 70.6602859497070312 0.391702413558959961 837 0.00124305114150047302 0.0717403814196586609 -1.92712914943695068 1645021366.51580024
-12.6328048706054688 69.03955078125 0.125941500067710876 838 0.00488181505352258682 0.086932256817817688 -1.90415120124816895 1645021366.71282744
-13.1092796325683594 67.4903640747070312 0.0783219486474990845 839 -0.00087883765809237957 0.0592635162174701691 -1.88506007194519043 1645021366.91359854
-13.4913911819458008 66.2834701538085938 0.0848695859313011169 840 -0.00260871066711843014 0.0672690942883491516 -1.884987473487854 1645021367.11798716
-13.9417324066162109 64.9032058715820312 -0.0508138909935951233 841 -0.00838407222181558609 0.0533115528523921967 -1.87817049026489258 1645021367.31455779
-14.3718929290771484 63.3636016845703125 -0.11933521181344986 842 0.00401437561959028244 0.054986119270324707 -1.86101245880126953 1645021367.51214552
-14.7480382919311523 61.9472770690917969 -0.190250232815742493 843 -0.012696840800344944 0.0470816195011138916 -1.84123528003692627 1645021367.71241689
-15.110875129699707 60.1586761474609375 -0.270806491374969482 844 -0.00285095325671136379 0.0271617379039525986 -1.80352318286895752 1645021367.91269302
-15.4554042816162109 58.494873046875 -0.407857507467269897 845 0.00490576028823852539 0.0417503491044044495 -1.76801109313964844 1645021368.11234212
-15.6353988647460938 56.9761390686035156 -0.462053567171096802 846 0.00809232331812381744 0.0375643149018287659 -1.73101639747619629 1645021368.31248903
-15.7131366729736328 55.6977272033691406 -0.54527813196182251 847 0.0143324071541428566 0.030000077560544014 -1.70273280143737793 1645021368.51221585
-15.8165187835693359 54.5274238586425781 -0.60199892520904541 848 0.00536845484748482704 0.0297208130359649658 -1.6920924186706543 1645021368.71321678
-15.9903097152709961 52.7855606079101562 -0.646261155605316162 849 0.00847939494997262955 0.0290969852358102798 -1.66923701763153076 1645021368.91328907
-16.1368808746337891 51.01263427734375 -0.771924436092376709 850 0.0121256345883011818 0.0250810794532299042 -1.63380622863769531 1645021369.11408448
-16.2384891510009766 49.3183326721191406 -0.824135541915893555 851 0.0162574481219053268 0.0345715917646884918 -1.59364652633666992 1645021369.3126688
-16.1166400909423828 47.6484146118164062 -0.894933223724365234 852 0.00718404445797204971 0.0237301383167505264 -1.54930555820465088 1645021369.5143249
-15.9167146682739258 46.2988166809082031 -0.970026791095733643 853 0.0152814090251922607 0.0219222046434879303 -1.50997436046600342 1645021369.71449423
-15.7903499603271484 45.0033836364746094 -1.00374424457550049 854 0.00746979191899299622 0.0208707172423601151 -1.479888916015625 1645021369.91608429
-15.6190595626831055 43.5061874389648438 -1.08026039600372314 855 0.0133180376142263412 0.0155407097190618515 -1.45089030265808105 1645021370.11370516
-15.3831310272216797 42.2547569274902344 -1.08730983734130859 856 0.0117030851542949677 0.0192430149763822556 -1.43363010883331299 1645021370.31562805
-15.1484251022338867 40.8227386474609375 -1.09902632236480713 857 0.00419685151427984238 0.00247450941242277622 -1.41838085651397705 1645021370.51565814
-14.9145298004150391 39.2602462768554688 -1.12876355648040771 858 -0.00166791421361267567 0.0104051642119884491 -1.40527093410491943 1645021370.71658158
-14.6428451538085938 37.7325057983398438 -1.14641880989074707 859 -0.003469506511464715 0.00654921121895313263 -1.40220224857330322 1645021370.91516876
-14.332036018371582 36.1005325317382812 -1.1784672737121582 860 -1.64308003149926662e-05 0.00398194696754217148 -1.38236021995544434 1645021371.11475325
-14.0040168762207031 34.8259315490722656 -1.10758614540100098 861 -0.00662760017439723015 0.00707665318623185158 -1.36831951141357422 1645021371.316149
-13.6714992523193359 33.4852066040039062 -1.21082329750061035 862 -0.00982623640447854996 -0.0129297664389014244 -1.35365605354309082 1645021371.51656675
-13.3184900283813477 32.0563774108886719 -1.21995186805725098 863 -0.00463905325159430504 -0.00894313212484121323 -1.33789265155792236 1645021371.71480489
-12.9378814697265625 30.7615184783935547 -1.17858254909515381 864 -0.00466923695057630539 -0.0199188105762004852 -1.32043278217315674 1645021371.91364241
-12.6464729309082031 29.5529747009277344 -1.13872969150543213 865 -0.00361676700413227081 -0.00757072819396853447 -1.3190387487411499 1645021372.11250758
-12.3044624328613281 28.2372360229492188 -1.19869017601013184 866 -0.00810957793146371841 -0.0193174034357070923 -1.31097233295440674 1645021372.31210589
-11.8694057464599609 26.7176628112792969 -1.1873854398727417 867 0.00199980055913329124 -0.0289720837026834488 -1.28991866111755371 1645021372.51249838
-11.366948127746582 25.4325942993164062 -1.15715932846069336 868 -0.000993210822343826294 -0.0303977075964212418 -1.26129150390625 1645021372.71388221
-10.8900613784790039 24.1732711791992188 -1.18380749225616455 869 0.00576096260920166969 -0.0130740981549024582 -1.2380300760269165 1645021372.91264176
-10.5077199935913086 23.00457763671875 -1.1122283935546875 870 -0.00141601113136857748 -0.0278595015406608582 -1.22815132141113281 1645021373.11265326
-10.0151920318603516 21.6978740692138672 -1.08126163482666016 871 -0.00339176319539546967 -0.0482329204678535461 -1.20965421199798584 1645021373.31329346
-9.491973876953125 20.4764556884765625 -0.988411784172058105 872 0.00502263149246573448 -0.0512657612562179565 -1.18745744228363037 1645021373.51505494
-8.93873214721679688 19.3224048614501953 -0.94339597225189209 873 -0.00257089338265359402 -0.057956155389547348 -1.16932964324951172 1645021373.71378779
