# .PCD v0.7 - Point Cloud Data file format
VERSION 0.7
FIELDS x y z intensity t qx qy qz qw
SIZE 4 4 4 4 8 4 4 4 4
TYPE F F F F F F F F F
COUNT 1 1 1 1 1 1 1 1 1
WIDTH 276
HEIGHT 1
VIEWPOINT 0 0 0 1 0 0 0
POINTS 276
DATA ascii
55.9615478515625 112.702430725097656 7.74939823150634766 17 1644764634.76078486 0.999413669109344482 0.000432745262514799833 0.0332147106528282166 -0.00830318965017795563
55.9611663818359375 112.701934814453125 7.74920749664306641 18 1644764634.86327147 0.999413490295410156 0.000451333035016432405 0.03312668576836586 -0.00866797752678394318
55.9615097045898438 112.702568054199219 7.75020122528076172 19 1644764634.96090674 0.999413192272186279 0.000379813543986529112 0.0331248268485069275 -0.00871024187654256821
55.9624176025390625 112.702339172363281 7.74871301651000977 20 1644764635.06385517 0.999415338039398193 0.000434943503933027387 0.0331317447125911713 -0.00843095127493143082
55.9661026000976562 112.699798583984375 7.74985504150390625 21 1644764637.96046305 0.949948966503143311 -0.31106296181678772 0.0285841431468725204 0.00444672070443630219
56.0549354553222656 112.633758544921875 7.77562189102172852 22 1644764642.261379 0.949919641017913818 -0.309381604194641113 0.0434685461223125458 0.0067942584864795208
59.6818199157714844 110.153915405273438 7.85391426086425781 23 1644764644.26174927 0.954390108585357666 -0.297330707311630249 0.02706141397356987 -0.00126653851475566626
64.00811767578125 106.916236877441406 7.87396001815795898 24 1644764645.66392136 0.943693995475769043 -0.330321431159973145 0.0180563144385814667 0.0018392226193100214
67.921905517578125 103.442146301269531 7.89349555969238281 25 1644764646.76382804 0.928995430469512939 -0.369619965553283691 0.00904055312275886536 0.0163358133286237717
71.6481170654296875 99.8300323486328125 7.88596487045288086 26 1644764647.76412392 0.925526022911071777 -0.37848198413848877 0.00694955745711922646 0.0102298567071557045
75.46826171875 96.2175445556640625 7.95080947875976562 27 1644764648.86548758 0.928516089916229248 -0.370281219482421875 0.0130587350577116013 0.0240668244659900665
79.2372360229492188 92.8461761474609375 7.89978933334350586 28 1644764649.96558213 0.931764662265777588 -0.36218598484992981 0.0149513725191354752 0.0203065760433673859
82.9971847534179688 89.197021484375 7.87920808792114258 29 1644764650.9656229 0.922128379344940186 -0.386476308107376099 0.00542855309322476387 0.0169060081243515015
86.4972686767578125 85.5226593017578125 7.85476970672607422 30 1644764651.8644855 0.917335331439971924 -0.39748615026473999 0.0032076970674097538 0.0221443288028240204
90.0102310180664062 81.6257476806640625 7.80395126342773438 31 1644764652.76598406 0.913551986217498779 -0.406720548868179321 -0.00105464830994606018 0.000198258145246654749
93.444000244140625 77.8470306396484375 7.76106023788452148 32 1644764653.66548991 0.906527996063232422 -0.421670377254486084 -0.0187002010643482208 0.00716874143108725548
96.600677490234375 73.532867431640625 7.72800636291503906 33 1644764654.66549826 0.884402036666870117 -0.466680347919464111 0.000784439209382981062 0.00646991841495037079
99.027496337890625 68.945220947265625 7.70307826995849609 34 1644764655.6658628 0.847688972949981689 -0.530241489410400391 0.0130997104570269585 -0.00978635996580123901
100.832046508789062 64.22650146484375 7.63162946701049805 35 1644764656.66594839 0.812950372695922852 -0.581867873668670654 0.0227191075682640076 -0.00503156566992402077
102.299301147460938 59.3978424072265625 7.64267683029174805 36 1644764657.66634941 0.820714235305786133 -0.570231080055236816 0.0331329666078090668 -0.0129191325977444649
105.155593872070312 55.0481414794921875 7.63863992691040039 37 1644764658.66563725 0.893539071083068848 -0.448487460613250732 0.017228640615940094 -0.0122521528974175453
108.459693908691406 51.1456871032714844 7.6378169059753418 38 1644764659.66551137 0.910507261753082275 -0.412879049777984619 0.0211208369582891464 -0.00783357396721839905
112.164665222167969 47.2745552062988281 7.62539434432983398 39 1644764660.66580558 0.924758732318878174 -0.379830271005630493 0.0203530807048082352 -0.0116636930033564568
116.115081787109375 44.9625816345214844 7.63279342651367188 40 1644764661.56591272 0.981349706649780273 -0.188418328762054443 0.0161751210689544678 -0.0344909019768238068
118.939224243164062 44.8545722961425781 7.65900897979736328 41 1644764662.16612053 0.999571681022644043 -0.00449546612799167633 0.0111488820984959602 -0.0266825761646032333
122.130760192871094 45.9226951599121094 7.73907136917114258 42 1644764662.96552992 0.983906686305999756 0.176133453845977783 0.0226954575628042221 -0.0197383016347885132
126.640533447265625 48.9906387329101562 7.66087532043457031 43 1644764664.16594052 0.942313671112060547 0.334513336420059204 -0.00265557970851659775 -0.0117801567539572716
130.395294189453125 52.4508934020996094 7.59393596649169922 44 1644764665.16761661 0.930092930793762207 0.366136491298675537 0.000789655838161706924 -0.0295058730989694595
134.33428955078125 56.0634613037109375 7.56386184692382812 45 1644764666.16984391 0.929886162281036377 0.366802215576171875 -0.00129605445545166731 -0.0276790112257003784
137.6392822265625 59.999267578125 7.56881141662597656 46 1644764667.16952801 0.88941723108291626 0.456022441387176514 0.00137620605528354645 -0.0312831327319145203
139.276962280273438 64.0734481811523438 7.58057641983032227 47 1644764668.06743574 0.794637680053710938 0.606584370136260986 -0.00976738147437572479 -0.0226030610501766205
139.198348999023438 67.3312149047851562 7.58994579315185547 48 1644764668.76869059 0.672844231128692627 0.739162802696228027 -0.0187968071550130844 -0.023783540353178978
137.903518676757812 70.2496337890625 7.56773996353149414 49 1644764669.4654305 0.522768139839172363 0.851946532726287842 -0.0240404549986124039 -0.0179610159248113632
134.434967041015625 74.0441055297851562 7.57155323028564453 50 1644764670.56563902 0.388308554887771606 0.921265363693237305 -0.0104666724801063538 -0.0194167885929346085
130.806976318359375 77.5745315551757812 7.56565189361572266 51 1644764671.56747842 0.377363979816436768 0.925890922546386719 -0.00656801881268620491 -0.0167125165462493896
126.468193054199219 80.7028656005859375 7.59378433227539062 52 1644764672.66817856 0.251676946878433228 0.96738046407699585 -0.018723631277680397 -0.0219819005578756332
123.429031372070312 81.2539749145507812 7.63166093826293945 53 1644764673.36270905 0.0520369969308376312 0.998332858085632324 -0.0210318397730588913 -0.0134645495563745499
121.08203125 80.630462646484375 7.66952323913574219 54 1644764673.96761346 -0.132477253675460815 0.990999042987823486 -0.0161711964756250381 -0.0104476027190685272
118.455032348632812 78.8072280883789062 7.67744636535644531 55 1644764674.76524734 -0.304176867008209229 0.952518284320831299 -0.00985543429851531982 -0.00939324777573347092
114.5643310546875 75.5676803588867188 7.70321941375732422 56 1644764675.86580753 -0.328695565462112427 0.944221735000610352 0.00498732971027493477 -0.0194844696670770645
110.225944519042969 72.7437667846679688 7.73058557510375977 57 1644764676.86609077 -0.24743226170539856 0.968705832958221436 0.00878776330500841141 -0.017580205574631691
104.990753173828125 70.9777374267578125 7.7476963996887207 58 1644764677.86671972 -0.113561682403087616 0.993157148361206055 0.0228006988763809204 -0.0149264279752969742
99.7635574340820312 71.0466690063476562 7.7146153450012207 59 1644764678.86242294 0.0692073404788970947 0.997515976428985596 0.0123324450105428696 -0.0044820043258368969
95.7690963745117188 72.7813339233398438 7.72452831268310547 60 1644764679.76305676 0.248747006058692932 0.968495309352874756 0.00984737928956747055 -0.00668930914252996445
89.0857315063476562 74.8931808471679688 7.79678821563720703 61 1644764681.56344366 -0.00364115787670016289 0.999723732471466064 -0.00791823957115411758 -0.0218281354755163193
86.736480712890625 74.0379791259765625 7.80492687225341797 62 1644764682.16409302 -0.180804535746574402 0.983437001705169678 -0.00436198431998491287 -0.0119297774508595467
83.865875244140625 71.7791748046875 7.75222206115722656 63 1644764682.96290183 -0.357961595058441162 0.93341374397277832 -0.0245388895273208618 -0.000356500851921737194
80.4069366455078125 67.6662063598632812 7.69505023956298828 64 1644764684.06288576 -0.414614409208297729 0.909915030002593994 0.0120939537882804871 -0.00181116396561264992
76.9511566162109375 63.6147613525390625 7.73531961441040039 65 1644764685.06188655 -0.419340550899505615 0.907475411891937256 0.0089235994964838028 -0.0237125474959611893
73.7799148559570312 59.3619804382324219 7.68874740600585938 66 1644764686.0628798 -0.482610851526260376 0.875812411308288574 -0.0010640537366271019 -0.00618624966591596603
72.2710494995117188 54.1993255615234375 7.61263895034790039 67 1644764687.16574597 -0.634378552436828613 0.772716522216796875 0.0111018707975745201 -0.0187026280909776688
71.4186630249023438 49.2238845825195312 7.49079275131225586 68 1644764688.2644999 -0.632051050662994385 0.774629473686218262 -0.0145756453275680542 0.0157540310174226761
69.157440185546875 44.3020668029785156 7.32256746292114258 69 1644764689.4597671 -0.50741499662399292 0.861615180969238281 -0.00978119298815727234 0.00732708396390080452
65.8073959350585938 40.1898193359375 7.15560150146484375 70 1644764690.45989919 -0.392874002456665039 0.919573485851287842 -0.00012768151646014303 0.00588446296751499176
62.1098709106445312 36.5714683532714844 6.97752475738525391 71 1644764691.36024141 -0.380112349987030029 0.924873888492584229 -0.00548919755965471268 0.00962987542152404785
58.439422607421875 32.7071380615234375 6.80002307891845703 72 1644764692.26085258 -0.395191729068756104 0.918539047241210938 -0.00462682219222187996 0.00938627123832702637
54.6122207641601562 28.7924613952636719 6.63425874710083008 73 1644764693.15919375 -0.380669236183166504 0.924693167209625244 -0.0033960975706577301 0.0046887020580470562
50.6533203125 24.9875831604003906 6.57619953155517578 74 1644764694.05967331 -0.369528800249099731 0.929095923900604248 -0.00968003086745738983 -0.0116440244019031525
46.8123626708984375 21.1308155059814453 6.57817888259887695 75 1644764694.96070337 -0.382641881704330444 0.923753857612609863 0.00218205433338880539 -0.0161026027053594589
43.0713348388671875 17.2250308990478516 6.54640388488769531 76 1644764695.86275744 -0.393447130918502808 0.919302463531494141 0.00807958841323852539 -0.00412529893219470978
39.34185791015625 13.35211181640625 6.52406883239746094 77 1644764696.75957704 -0.388488084077835083 0.921426773071289062 0.00371658219955861568 -0.0059874318540096283
35.5471229553222656 9.50731468200683594 6.48529481887817383 78 1644764697.66001081 -0.380895465612411499 0.924617469310760498 -0.000254620419582352042 -0.00107322935946285725
31.7133827209472656 5.72510147094726562 6.46976327896118164 79 1644764698.5603888 -0.379318207502365112 0.925217986106872559 -0.00677444366738200188 -0.0065970253199338913
27.8756656646728516 1.96935701370239258 6.48385715484619141 80 1644764699.45952201 -0.377428561449050903 0.925953865051269531 -0.0115477526560425758 -0.00487474212422966957
23.9693126678466797 -1.7383195161819458 6.49321699142456055 81 1644764700.36094475 -0.353341281414031982 0.935445904731750488 -0.00479998020455241203 -0.00823739543557167053
19.6878795623779297 -4.88721370697021484 6.53921270370483398 82 1644764701.26246953 -0.286494612693786621 0.957895338535308838 -0.0106340190395712852 -0.0156280305236577988
15.005702018737793 -7.0876154899597168 6.7458500862121582 83 1644764702.16107202 -0.188556253910064697 0.981509208679199219 -0.0177774224430322647 -0.0277512017637491226
10.1934652328491211 -8.43447208404541016 7.03142547607421875 84 1644764703.06089878 -0.127294614911079407 0.990452170372009277 -0.0269467271864414215 -0.0455461442470550537
4.94690418243408203 -9.491668701171875 7.48220682144165039 85 1644764704.06157804 -0.0777188092470169067 0.994803845882415771 -0.0207515452057123184 -0.0624054931104183197
-0.176438793540000916 -9.85292625427246094 7.91840314865112305 86 1644764705.06231356 -0.0155398137867450714 0.998082220554351807 -0.01689954474568367 -0.0574877075850963593
-5.19067764282226562 -9.38187122344970703 8.24939441680908203 87 1644764706.06207633 0.0685342252254486084 0.996680915355682373 -0.0187494270503520966 -0.0397328436374664307
-10.1576194763183594 -8.29760456085205078 8.45902252197265625 88 1644764707.06277299 0.130674302577972412 0.990815639495849609 -0.00103565305471420288 -0.0347486473619937897
-15.0833349227905273 -6.34116506576538086 8.50479698181152344 89 1644764708.06213236 0.224680244922637939 0.974385082721710205 -0.00149492372293025255 -0.00949892867356538773
-19.4359645843505859 -3.32656311988830566 8.56131553649902344 90 1644764709.1628263 0.321326196193695068 0.94671332836151123 -0.00476945051923394203 -0.0214618183672428131
-23.8439445495605469 -0.385625004768371582 8.67047977447509766 91 1644764710.36458993 0.246893897652626038 0.968383967876434326 -0.0168908946216106415 -0.031474139541387558
-29.0307960510253906 -0.004918679129332304 8.80443859100341797 92 1644764711.55950594 -0.0629637017846107483 0.997586250305175781 -0.020997311919927597 -0.0204044617712497711
-33.2335052490234375 -2.79473328590393066 8.8090667724609375 93 1644764712.65959358 -0.374173581600189209 0.926771879196166992 -0.0329688601195812225 0.00103386829141527414
-34.6948509216308594 -5.41372442245483398 8.76613807678222656 94 1644764713.26294851 -0.530013799667358398 0.847219109535217285 -0.0275017768144607544 0.0234269853681325912
-35.0899810791015625 -8.71611213684082031 8.68150997161865234 95 1644764713.95981312 -0.684738695621490479 0.727853298187255859 -0.0181431211531162262 0.0321459472179412842
-34.2643814086914062 -11.7722854614257812 8.59440994262695312 96 1644764714.65841365 -0.807663142681121826 0.588588953018188477 -0.0113214366137981415 0.0333931781351566315
-32.2438240051269531 -14.5130596160888672 8.54725551605224609 97 1644764715.4588623 -0.900221824645996094 0.434697628021240234 -0.00952083244919776917 0.0234097316861152649
-29.6142730712890625 -18.9060382843017578 8.46735954284667969 98 1644764716.75794363 -0.833923101425170898 0.551773190498352051 -0.00656078103929758072 0.00869226548820734024
-28.9449119567871094 -24.2950725555419922 8.17998695373535156 99 1644764718.05751848 -0.725732266902923584 0.687500178813934326 0.0227956268936395645 0.0116839045658707619
-28.8838615417480469 -29.5653114318847656 7.89788579940795898 100 1644764719.25874877 -0.704455018043518066 0.709339022636413574 0.0241102352738380432 -0.000131946857436560094
-28.8974609375 -34.9795112609863281 7.62862157821655273 101 1644764720.45773482 -0.700706183910369873 0.71294015645980835 0.0269620921462774277 -0.000463942880742251873
-29.1185798645019531 -40.0204391479492188 7.36335182189941406 102 1644764721.55754423 -0.68473351001739502 0.728177666664123535 0.0299205165356397629 -0.00142912077717483044
-29.5908222198486328 -45.3429374694824219 7.11227273941040039 103 1644764722.75839257 -0.672762811183929443 0.739630579948425293 0.0183038879185914993 0.00131891155615448952
-30.2588977813720703 -50.4405593872070312 6.91423702239990234 104 1644764723.96188235 -0.632323503494262695 0.773704051971435547 0.0369909405708312988 -0.0134429214522242546
-32.467498779296875 -55.1709709167480469 6.93616294860839844 105 1644764725.36048698 -0.4827442467212677 0.875020682811737061 0.0241170357912778854 -0.0267418473958969116
-34.42236328125 -56.7318267822265625 7.05021047592163086 106 1644764726.16010499 -0.320603847503662109 0.946441233158111572 0.0161903873085975647 -0.0346410945057868958
-36.7029953002929688 -57.4128990173339844 7.19324541091918945 107 1644764727.061517 -0.149694085121154785 0.987308800220489502 0.0168414171785116196 -0.050292573869228363
-41.2962188720703125 -57.283233642578125 7.34478378295898438 108 1644764729.16024065 0.0127667738124728203 0.998672664165496826 0.000910632021259516478 -0.0498907342553138733
-45.1080703735351562 -57.0359268188476562 7.37225008010864258 109 1644764731.16144156 0.0451969988644123077 0.99864572286605835 0.00108847336377948523 -0.0257437732070684433
-50.3319320678710938 -56.8168258666992188 7.41844081878662109 110 1644764732.96046281 -0.0388991646468639374 0.999138116836547852 0.0110671566799283028 -0.00934840552508831024
-55.0056076049804688 -59.3657798767089844 7.11370706558227539 111 1644764734.26136041 -0.309268563985824585 0.950307786464691162 0.0344449430704116821 0.00903457030653953552
-57.7855148315429688 -63.5837974548339844 6.78728675842285156 112 1644764735.36095977 -0.525071501731872559 0.850443243980407715 0.0298646129667758942 0.012422013096511364
-58.7616958618164062 -68.88568115234375 6.36095762252807617 113 1644764736.46134686 -0.669240236282348633 0.742015242576599121 0.0276279617100954056 0.0277047418057918549
-58.98345947265625 -74.1907882690429688 5.89922904968261719 114 1644764737.46128464 -0.683199226856231689 0.729206204414367676 0.0326550789177417755 0.0207544136792421341
-59.3707160949707031 -79.1840362548828125 5.51793575286865234 115 1644764738.36152792 -0.675829112529754639 0.736047923564910889 0.035250883549451828 0.0156786553561687469
-59.8079414367675781 -84.2219924926757812 5.09381246566772461 116 1644764739.26322627 -0.673402547836303711 0.73802417516708374 0.0402257218956947327 0.0152034973725676537
-60.2482032775878906 -89.7564544677734375 4.69809484481811523 117 1644764740.26417851 -0.685535132884979248 0.726266860961914062 0.0454923547804355621 0.0225508417934179306
-60.29461669921875 -94.840789794921875 4.24535942077636719 118 1644764741.16503549 -0.70858001708984375 0.70440375804901123 0.0372761227190494537 0.0184440761804580688
-60.0331497192382812 -100.249374389648438 3.79195308685302734 119 1644764742.06471109 -0.732386887073516846 0.680126726627349854 0.0287039093673229218 0.0146010294556617737
-59.2272529602050781 -105.34332275390625 3.33267354965209961 120 1644764742.86285949 -0.766613304615020752 0.640860259532928467 0.0363523513078689575 0.0167528688907623291
-57.906890869140625 -110.60382080078125 2.81333518028259277 121 1644764743.66162348 -0.79121774435043335 0.610020220279693604 0.0422416999936103821 0.00809139292687177658
-56.3648147583007812 -115.345893859863281 2.31932997703552246 122 1644764744.36307597 -0.816708564758300781 0.575048208236694336 0.047025240957736969 0.00976077280938625336
-54.3887901306152344 -120.097434997558594 1.83922684192657471 123 1644764745.06399202 -0.834272623062133789 0.54983222484588623 0.0409075506031513214 0.000524217146448791027
-51.9756889343261719 -124.790252685546875 1.43466043472290039 124 1644764745.75993204 -0.861648797988891602 0.506454825401306152 0.0323582515120506287 -0.00422474881634116173
-49.0158348083496094 -129.336334228515625 1.0787808895111084 125 1644764746.46499348 -0.889380931854248047 0.456615149974822998 0.0217882152646780014 -0.00542083568871021271
-45.500335693359375 -133.52703857421875 0.694041252136230469 126 1644764747.16359901 -0.913916528224945068 0.404632776975631714 0.0315822474658489227 0.0056050959974527359
-41.6086006164550781 -137.416305541992188 0.262804567813873291 127 1644764747.86150241 -0.926761209964752197 0.374334841966629028 0.0306630469858646393 0.00684744538739323616
-37.5352439880371094 -141.31280517578125 -0.191912472248077393 128 1644764748.5641613 -0.926531493663787842 0.37495732307434082 0.0304494984447956085 0.00437873322516679764
-33.482025146484375 -145.279373168945312 -0.60920262336730957 129 1644764749.26410985 -0.925458610057830811 0.378049105405807495 0.0224414076656103134 0.0100777130573987961
-29.3159046173095703 -149.284774780273438 -1.07077240943908691 130 1644764749.96655536 -0.926147997379302979 0.375694841146469116 0.0299342721700668335 0.0143947787582874298
-25.1587619781494141 -153.283767700195312 -1.56711089611053467 131 1644764750.66642261 -0.928419291973114014 0.370226144790649414 0.0248529966920614243 0.0187776219099760056
-20.9496917724609375 -157.283035278320312 -1.99798667430877686 132 1644764751.3642695 -0.927944004535675049 0.371784448623657227 0.0209434255957603455 0.0160513538867235184
-17.3003730773925781 -160.744003295898438 -2.36688590049743652 133 1644764751.96692395 -0.92792212963104248 0.371682167053222656 0.0226870886981487274 0.0172682106494903564
-13.6540737152099609 -164.160964965820312 -2.78538990020751953 134 1644764752.56404018 -0.927261710166931152 0.372909843921661377 0.0305617153644561768 0.0137816872447729111
-9.448760986328125 -168.105224609375 -3.22103118896484375 135 1644764753.26270938 -0.929539918899536133 0.367744535207748413 0.0258629731833934784 0.00711662601679563522
-5.18740224838256836 -172.045547485351562 -3.59859848022460938 136 1644764753.96442151 -0.930442214012145996 0.365610122680664062 0.0242980848997831345 0.00401917379349470139
-1.02542376518249512 -175.905014038085938 -3.94008517265319824 137 1644764754.65991259 -0.930460035800933838 0.365825682878494263 0.0191245414316654205 0.00706618884578347206
3.03869819641113281 -179.723983764648438 -4.26168537139892578 138 1644764755.36042857 -0.93007051944732666 0.366534769535064697 0.0222053453326225281 0.011315690353512764
6.92025995254516602 -183.353591918945312 -4.51958608627319336 139 1644764756.0630033 -0.929231524467468262 0.368886083364486694 0.019883323460817337 0.00751449400559067726
10.8370046615600586 -187.095550537109375 -4.71039485931396484 140 1644764756.86094499 -0.928876161575317383 0.369773209095001221 0.0172611679881811142 0.0126051688566803932
14.7240495681762695 -190.796066284179688 -4.83867502212524414 141 1644764757.76084852 -0.92874985933303833 0.368164479732513428 0.0332269072532653809 0.0278313960880041122
18.5335750579833984 -194.324691772460938 -4.9896082878112793 142 1644764758.66098046 -0.929754257202148438 0.368108838796615601 0.00140997127164155245 0.00713722221553325653
22.600555419921875 -198.020553588867188 -5.13407564163208008 143 1644764759.56255078 -0.932585060596466064 0.360889136791229248 0.00432923715561628342 0.00504181999713182449
26.7913169860839844 -201.616073608398438 -5.26096582412719727 144 1644764760.46146655 -0.934358716011047363 0.356054842472076416 0.00479872571304440498 -0.0132541479542851448
31.1251811981201172 -205.034530639648438 -5.3241729736328125 145 1644764761.35903096 -0.950700283050537109 0.310036063194274902 3.1294417567551136e-05 -0.00682272575795650482
35.811004638671875 -207.759979248046875 -5.31369113922119141 146 1644764762.25905895 -0.969576835632324219 0.244417682290077209 -0.00844530295580625534 -0.0104620028287172318
40.6382102966308594 -210.107894897460938 -5.30362987518310547 147 1644764763.15803146 -0.976245641708374023 0.216154977679252625 -0.00863632187247276306 -0.0121205244213342667
45.5696983337402344 -212.131301879882812 -5.28522157669067383 148 1644764764.0582819 -0.983401834964752197 0.180980920791625977 -0.0100389439612627029 -0.0081226695328950882
50.6704483032226562 -213.558685302734375 -5.27073574066162109 149 1644764764.95840192 -0.992584705352783203 0.120220720767974854 -0.0125996451824903488 -0.0127982199192047119
55.8992538452148438 -214.386993408203125 -5.28435993194580078 150 1644764765.85631919 -0.997405529022216797 0.0684456229209899902 -0.0101833231747150421 -0.0198409706354141235
61.1922721862792969 -215.0018310546875 -5.29978418350219727 151 1644764766.75751758 -0.998595356941223145 0.0495185703039169312 -0.0121598262339830399 -0.0143991122022271156
66.5122528076171875 -215.20947265625 -5.30539703369140625 152 1644764767.65725851 -0.999840676784515381 0.00863134860992431641 -0.0118441767990589142 -0.0101918205618858337
71.8306045532226562 -215.01971435546875 -5.32065391540527344 153 1644764768.55692029 -0.999532520771026611 -0.027754560112953186 -0.0094929281622171402 -0.00862207729369401932
77.1190872192382812 -214.574478149414062 -5.30529069900512695 154 1644764769.45796251 -0.999249696731567383 -0.0335647575557231903 -0.0158133376389741898 -0.0111059453338384628
82.4069061279296875 -214.315078735351562 -5.27354955673217773 155 1644764770.35902262 -0.999669671058654785 -0.0149113191291689873 -0.0165058504790067673 -0.0128744766116142273
87.6935653686523438 -214.198394775390625 -5.27015447616577148 156 1644764771.25688744 -0.999789834022521973 -0.00616004969924688339 -0.00976104661822319031 -0.016944054514169693
92.9926605224609375 -214.046585083007812 -5.26753759384155273 157 1644764772.15793443 -0.999717175960540771 -0.0186429377645254135 -0.00714148767292499542 -0.0129231410101056099
98.3190689086914062 -213.739120483398438 -5.28517580032348633 158 1644764773.06026506 -0.999439775943756104 -0.0310903247445821762 -0.00599338393658399582 -0.0108446357771754265
103.647872924804688 -213.3343505859375 -5.32372665405273438 159 1644764773.95834565 -0.99944227933883667 -0.0317417122423648834 -0.00326868379488587379 -0.00984569452702999115
108.980987548828125 -213.085662841796875 -5.33070087432861328 160 1644764774.85755658 -0.999822080135345459 -0.0167830213904380798 -0.00553709873929619789 -0.00659144436940550804
114.312858581542969 -212.9580078125 -5.36248970031738281 161 1644764775.75739813 -0.99988257884979248 -0.00558478571474552155 -0.00879891868680715561 -0.0112322587519884109
119.654090881347656 -212.841659545898438 -5.37567996978759766 162 1644764776.65757799 -0.999784231185913086 -0.0191405788064002991 -0.00413654791191220284 -0.0069333328865468502
124.955223083496094 -212.482711791992188 -5.38470220565795898 163 1644764777.5570507 -0.999551177024841309 -0.0263752378523349762 -0.00803958997130393982 -0.0117095420137047768
130.274948120117188 -212.332412719726562 -5.37176704406738281 164 1644764778.45632696 -0.999832510948181152 -0.00788559205830097198 -0.0104650156572461128 -0.0127777326852083206
135.581680297851562 -212.217361450195312 -5.36682701110839844 165 1644764779.35767531 -0.999792158603668213 -0.00823967345058917999 -0.0111232893541455269 -0.0149674005806446075
140.867141723632812 -212.025421142578125 -5.31257724761962891 166 1644764780.25839043 -0.999746322631835938 -0.0191293936222791672 -0.00735737709328532219 -0.00934160966426134109
146.123977661132812 -211.824539184570312 -5.30679512023925781 167 1644764781.15715241 -0.999788522720336914 -0.0103514231741428375 -0.0106057804077863693 -0.0142578491941094398
151.3721923828125 -211.547698974609375 -5.26012182235717773 168 1644764782.05624771 -0.999410271644592285 -0.0258822329342365265 -0.0132536608725786209 -0.0182640068233013153
156.616653442382812 -211.175643920898438 -5.20063972473144531 169 1644764782.95889044 -0.999297440052032471 -0.0308209676295518875 -0.0152029180899262428 -0.0149536812677979469
161.816741943359375 -210.958419799804688 -5.13426303863525391 170 1644764783.85733366 -0.999551475048065186 -0.0156191838905215263 -0.018184274435043335 -0.0179498307406902313
166.990371704101562 -210.7318115234375 -5.02940225601196289 171 1644764784.75624704 -0.999422967433929443 -0.0246603731065988541 -0.0219072196632623672 -0.00810044817626476288
172.135208129882812 -210.369415283203125 -4.91113662719726562 172 1644764785.65701795 -0.999171853065490723 -0.0347075946629047394 -0.0186996515840291977 -0.0100655853748321533
177.20068359375 -209.971145629882812 -4.75855827331542969 173 1644764786.55705476 -0.998999238014221191 -0.0359653830528259277 -0.0244364514946937561 -0.0104838162660598755
182.264617919921875 -209.668045043945312 -4.60495471954345703 174 1644764787.45817089 -0.999384403228759766 -0.0204501226544380188 -0.0245208907872438431 -0.0145370624959468842
187.308380126953125 -209.497482299804688 -4.45113039016723633 175 1644764788.35758138 -0.999517917633056641 -0.0180317219346761703 -0.0240660384297370911 -0.00771726761013269424
192.359130859375 -209.208541870117188 -4.30366277694702148 176 1644764789.25687242 -0.999006688594818115 -0.0355452001094818115 -0.0261069163680076599 -0.00637555913999676704
197.361648559570312 -208.671096801757812 -4.13426828384399414 177 1644764790.15840983 -0.997962892055511475 -0.058015335351228714 -0.0260851997882127762 -0.0048884623683989048
202.348480224609375 -207.936996459960938 -3.9878699779510498 178 1644764791.05982637 -0.996432840824127197 -0.079323597252368927 -0.0272051077336072922 -0.00944967102259397507
207.31658935546875 -207.053970336914062 -3.84517407417297363 179 1644764791.95740461 -0.995600342750549316 -0.0900008305907249451 -0.0250595863908529282 -0.00720147835090756416
212.295654296875 -206.04595947265625 -3.70747947692871094 180 1644764792.85840535 -0.994971215724945068 -0.0977342501282691956 -0.0212443489581346512 -0.00538630131632089615
217.254592895507812 -205.044692993164062 -3.55436468124389648 181 1644764793.76127934 -0.9952201247215271 -0.0936685130000114441 -0.027090512216091156 -0.00540438108146190643
222.231658935546875 -204.204238891601562 -3.40261960029602051 182 1644764794.65940905 -0.996523797512054443 -0.0792502686381340027 -0.0255995206534862518 -0.00209117378108203411
227.194625854492188 -203.345382690429688 -3.24760079383850098 183 1644764795.55822611 -0.99582141637802124 -0.0881452858448028564 -0.0235290825366973877 -0.00405851192772388458
232.140457153320312 -202.3367919921875 -3.09796953201293945 184 1644764796.46136761 -0.994389951229095459 -0.101601079106330872 -0.0291511267423629761 -0.0040065692737698555
237.026565551757812 -201.232269287109375 -2.92203140258789062 185 1644764797.35996389 -0.993440389633178711 -0.110862806439399719 -0.0279926043003797531 -0.00143540068529546261
241.939697265625 -200.11767578125 -2.78118419647216797 186 1644764798.26094007 -0.993799030780792236 -0.107981301844120026 -0.0264813229441642761 -0.00149766169488430023
246.82501220703125 -198.973037719726562 -2.62245321273803711 187 1644764799.160671 -0.992868602275848389 -0.115500912070274353 -0.0292690601199865341 -0.00384092214517295361
251.70782470703125 -197.767745971679688 -2.48221230506896973 188 1644764800.05935979 -0.992765247821807861 -0.118771828711032867 -0.0176193267107009888 3.91886642319150269e-05
257.03399658203125 -196.245452880859375 -2.29392290115356445 189 1644764801.05998468 -0.989965617656707764 -0.138716459274291992 -0.0268473122268915176 -0.00225022528320550919
262.342041015625 -194.646682739257812 -2.115386962890625 190 1644764802.05982256 -0.989396035671234131 -0.14265953004360199 -0.0270593408495187759 -0.00339462561532855034
267.138031005859375 -193.2227783203125 -1.95417249202728271 191 1644764802.95786285 -0.990026414394378662 -0.138582706451416016 -0.0243976842612028122 -0.00687926774844527245
271.940460205078125 -191.836318969726562 -1.82262027263641357 192 1644764803.8586657 -0.989912211894989014 -0.138718932867050171 -0.027852177619934082 -0.00742656085640192032
276.761383056640625 -190.364639282226562 -1.67581737041473389 193 1644764804.76017308 -0.988914668560028076 -0.144825860857963562 -0.0303595345467329025 -0.0123088117688894272
282.055023193359375 -188.685379028320312 -1.47338807582855225 194 1644764805.75932336 -0.986201226711273193 -0.164061278104782104 -0.0221338812261819839 0.00106498412787914276
286.735870361328125 -186.888687133789062 -1.33627903461456299 195 1644764806.66025639 -0.983175516128540039 -0.180820241570472717 -0.0257945079356431961 -0.00212903087958693504
291.920166015625 -184.88128662109375 -1.15514481067657471 196 1644764807.66012168 -0.983698666095733643 -0.177704319357872009 -0.0275322459638118744 -0.000205121381441131234
296.61865234375 -183.161468505859375 -1.00726711750030518 197 1644764808.55871415 -0.984961569309234619 -0.169896364212036133 -0.0281558968126773834 -0.0138993328437209129
301.772979736328125 -181.187255859375 -0.794625401496887207 198 1644764809.56036234 -0.981853187084197998 -0.184779465198516846 -0.0414372272789478302 -0.0101891318336129189
306.824432373046875 -179.031524658203125 -0.52795177698135376 199 1644764810.56022096 -0.978515565395355225 -0.201047569513320923 -0.0442587696015834808 -0.0113283321261405945
311.71661376953125 -176.776824951171875 -0.218967080116271973 200 1644764811.5584085 -0.975457608699798584 -0.215599656105041504 -0.0442429818212985992 -0.0064654666930437088
316.481719970703125 -174.412506103515625 0.0804753974080085754 201 1644764812.55871463 -0.971698760986328125 -0.231238842010498047 -0.0479873120784759521 -0.00523311877623200417
320.84954833984375 -171.432220458984375 0.357381135225296021 202 1644764813.55927062 -0.934071779251098633 -0.354473769664764404 -0.0428046137094497681 0.00510215433314442635
323.4208984375 -167.439376831054688 0.564500927925109863 203 1644764814.45984125 -0.850845098495483398 -0.523858785629272461 -0.0392284616827964783 0.00978100299835205078
324.26934814453125 -164.030441284179688 0.850342750549316406 204 1644764815.15892315 -0.742256760597229004 -0.664153456687927246 -0.0542651526629924774 0.070783957839012146
323.63092041015625 -160.705429077148438 1.2529374361038208 205 1644764815.858464 -0.607793867588043213 -0.789858341217041016 -0.0526066422462463379 0.0627931877970695496
321.328033447265625 -156.199920654296875 1.90828347206115723 206 1644764817.05507326 -0.506867408752441406 -0.858582258224487305 -0.047690264880657196 0.0603951439261436462
318.368408203125 -151.8787841796875 2.46502876281738281 207 1644764818.45413423 -0.450562059879302979 -0.889940023422241211 -0.0455390512943267822 0.0540999025106430054
314.88275146484375 -148.01324462890625 3.03781223297119141 208 1644764819.9561007 -0.389574170112609863 -0.917858719825744629 -0.0505385734140872955 0.0566850341856479645
310.83868408203125 -144.722152709960938 3.5959019660949707 209 1644764821.55545878 -0.312867105007171631 -0.947258174419403076 -0.0400523804128170013 0.0566739477217197418
306.40179443359375 -142.02117919921875 4.0619044303894043 210 1644764823.16199327 -0.261542350053787231 -0.963382422924041748 -0.0320331081748008728 0.04963650181889534
301.93243408203125 -139.704666137695312 4.4958033561706543 211 1644764824.65910625 -0.228940114378929138 -0.971784114837646484 -0.028467496857047081 0.0491088256239891052
297.296142578125 -137.240951538085938 4.92702960968017578 212 1644764826.15484619 -0.261325627565383911 -0.963624060153961182 -0.0348870754241943359 0.0438227169215679169
292.918609619140625 -134.7298583984375 5.31538820266723633 213 1644764827.55502725 -0.257266879081726074 -0.964888274669647217 -0.0325869806110858917 0.0417428947985172272
288.275299072265625 -132.251724243164062 5.60533571243286133 214 1644764829.05413556 -0.238617792725563049 -0.970115005970001221 -0.0262988824397325516 0.0353105925023555756
283.78387451171875 -129.664886474609375 5.79265022277832031 215 1644764830.65691423 -0.26276928186416626 -0.964050829410552979 -0.0288618858903646469 0.0269319582730531693
279.232635498046875 -127.002571105957031 5.96612071990966797 216 1644764832.05729842 -0.26250109076499939 -0.964590072631835938 -0.0104134324938058853 0.0234674699604511261
274.956695556640625 -123.994415283203125 6.06292867660522461 217 1644764833.2561841 -0.299526721239089966 -0.953624486923217773 0.018587157130241394 0.02320820651948452
270.5787353515625 -120.930824279785156 6.11859989166259766 218 1644764834.35685372 -0.308803707361221313 -0.950901210308074951 0.00152467982843518257 0.0206102412194013596
266.32196044921875 -117.785728454589844 6.15779685974121094 219 1644764835.35650301 -0.317245393991470337 -0.948070943355560303 -0.000187396173714660108 0.0227331575006246567
262.359619140625 -114.707672119140625 6.20158720016479492 220 1644764836.2565515 -0.326985597610473633 -0.944834113121032715 0.00891157705336809158 0.0170144978910684586
258.395050048828125 -111.430854797363281 6.21565914154052734 221 1644764837.15842342 -0.347179979085922241 -0.937685549259185791 0.00922189280390739441 0.011262054555118084
254.658676147460938 -107.849220275878906 6.21838665008544922 222 1644764838.05772591 -0.385642915964126587 -0.922523021697998047 0.00613380828872323036 0.0139003433287143707
251.239608764648438 -103.893310546875 6.2371973991394043 223 1644764838.95482802 -0.427309006452560425 -0.903986513614654541 0.00471353624016046524 0.0138978501781821251
248.10009765625 -99.7016983032226562 6.2383275032043457 224 1644764839.85483813 -0.458632797002792358 -0.888512969017028809 0.00710420636460185051 0.0122547997161746025
245.206512451171875 -95.3006591796875 6.22908639907836914 225 1644764840.75523758 -0.48868134617805481 -0.872430205345153809 -0.00621644593775272369 0.0041722618043422699
242.735443115234375 -90.6693344116210938 6.26104545593261719 226 1644764841.65665531 -0.525025129318237305 -0.850962400436401367 -0.0059435269795358181 0.0132775483652949333
240.674530029296875 -85.86962890625 6.29104852676391602 227 1644764842.55399346 -0.560166060924530029 -0.828238189220428467 0.000704954960383474827 0.0153281986713409424
239.033615112304688 -80.909271240234375 6.31205511093139648 228 1644764843.4560101 -0.597996771335601807 -0.80135500431060791 -0.00103506946470588446 0.0151306325569748878
237.819183349609375 -75.812347412109375 6.32101249694824219 229 1644764844.35312891 -0.630930721759796143 -0.775747537612915039 -0.000450418127002194524 0.0119160227477550507
236.9190673828125 -70.6371231079101562 6.3397517204284668 230 1644764845.25378942 -0.643761634826660156 -0.765089511871337891 0.00182092259638011456 0.0143429078161716461
236.09521484375 -65.4506988525390625 6.35367488861083984 231 1644764846.15337443 -0.663278579711914062 -0.748148858547210693 -0.0116422129794955254 0.0141158457845449448
235.6807861328125 -60.2020721435546875 6.39030218124389648 232 1644764847.05389905 -0.681426167488098145 -0.731675207614898682 -0.00800101272761821747 0.015677059069275856
235.17620849609375 -55.0471878051757812 6.42600154876708984 233 1644764847.95793176 -0.656170547008514404 -0.754448473453521729 -0.0021098495926707983 0.0155973304063081741
233.4288330078125 -50.0870933532714844 6.45682668685913086 234 1644764848.9580338 -0.532550930976867676 -0.846372425556182861 0.00455353688448667526 0.00474363239482045174
229.95892333984375 -46.2850189208984375 6.52617406845092773 235 1644764849.9582448 -0.350815534591674805 -0.936211168766021729 0.000702754361554980278 0.0208953637629747391
225.285354614257812 -43.4640846252441406 6.55722475051879883 236 1644764850.95459795 -0.257099717855453491 -0.966249763965606689 -0.0118750240653753281 0.0109613081440329552
220.695968627929688 -41.2329597473144531 6.54169273376464844 237 1644764851.85493684 -0.232271894812583923 -0.972007513046264648 -0.0352727398276329041 -0.00264585809782147408
216.146774291992188 -38.7536201477050781 6.52533245086669922 238 1644764852.75418949 -0.251942873001098633 -0.96743321418762207 -0.0243980921804904938 0.00156469142530113459
211.533981323242188 -36.2434959411621094 6.51383543014526367 239 1644764853.6569984 -0.256165891885757446 -0.966268420219421387 -0.0264433585107326508 0.00226400210522115231
207.038162231445312 -33.5349197387695312 6.51601457595825195 240 1644764854.55335379 -0.281099289655685425 -0.959216535091400146 -0.0297067742794752121 0.00207007071003317833
202.607269287109375 -30.6406764984130859 6.49144363403320312 241 1644764855.45344019 -0.288972139358520508 -0.956993401050567627 -0.0253111477941274643 -0.00425829412415623665
198.3206787109375 -27.6131591796875 6.55042743682861328 242 1644764856.35371137 -0.309224456548690796 -0.950690388679504395 -0.0234368946403264999 0.00432381313294172287
194.19000244140625 -24.4730587005615234 6.64978790283203125 243 1644764857.25636077 -0.327909916639328003 -0.944255530834197998 -0.0229865647852420807 0.0181172285228967667
190.220245361328125 -21.1902751922607422 6.7482452392578125 244 1644764858.15442157 -0.353774577379226685 -0.934985041618347168 -0.0242672115564346313 0.00759165175259113312
186.490982055664062 -17.6719284057617188 6.78681039810180664 245 1644764859.0542028 -0.384085357189178467 -0.923130631446838379 -0.0140071669593453407 0.0105886925011873245
182.95196533203125 -13.8974933624267578 6.80419635772705078 246 1644764859.95259333 -0.400836259126663208 -0.916010439395904541 -0.00807003490626811981 0.0137871820479631424
179.2861328125 -10.2549886703491211 6.92703580856323242 247 1644764860.85396385 -0.384725183248519897 -0.922693014144897461 -0.0233902912586927414 0.0087781120091676712
175.684417724609375 -6.71212434768676758 7.06618452072143555 248 1644764861.75383592 -0.386742204427719116 -0.921582639217376709 -0.0215239636600017548 0.0255463812500238419
172.048324584960938 -3.23312473297119141 7.22696352005004883 249 1644764862.65486383 -0.374801188707351685 -0.926246166229248047 -0.0287145618349313736 0.0277048349380493164
168.440460205078125 0.248134642839431763 7.40247869491577148 250 1644764863.55501175 -0.375951200723648071 -0.926209390163421631 -0.0209288541227579117 0.018941948190331459
164.56878662109375 4.05062198638916016 7.64580774307250977 251 1644764864.55301476 -0.387526363134384155 -0.920537829399108887 -0.0345093868672847748 0.035248972475528717
160.631591796875 7.91989421844482422 7.83353996276855469 252 1644764865.55552602 -0.381953805685043335 -0.923561513423919678 -0.0233715567737817764 0.0244774967432022095
156.737762451171875 11.7136697769165039 8.04940509796142578 253 1644764866.55408311 -0.377921611070632935 -0.92507404088973999 -0.0269356947392225266 0.0262251831591129303
152.865554809570312 15.5855531692504883 8.25436496734619141 254 1644764867.55545092 -0.381039261817932129 -0.923958480358123779 -0.0215318165719509125 0.025420062243938446
149.1319580078125 19.2559051513671875 8.45165920257568359 255 1644764868.55513072 -0.385721892118453979 -0.922250211238861084 -0.0168873369693756104 0.019698483869433403
145.340438842773438 23.0909633636474609 8.55088138580322266 256 1644764869.75609922 -0.38763776421546936 -0.921663105487823486 -0.0164791513234376907 0.00157853274140506983
141.597854614257812 26.6678619384765625 8.43423938751220703 257 1644764871.05749488 -0.352660208940505981 -0.935621738433837891 -0.0112075358629226685 -0.0108207240700721741
138.44403076171875 27.9489097595214844 8.31295871734619141 258 1644764871.95560217 -0.160335734486579895 -0.98680567741394043 -0.0202354621142148972 -0.0098771117627620697
135.773712158203125 27.8598537445068359 8.19084548950195312 259 1644764872.65574431 0.0263761114329099655 -0.999504327774047852 -0.0138700967654585838 -0.0101485596969723701
132.888336181640625 26.6334381103515625 7.94940662384033203 260 1644764873.35564756 0.216419726610183716 -0.976007044315338135 -0.0134627297520637512 -0.0197875276207923889
128.902786254882812 23.2574920654296875 7.55073118209838867 261 1644764874.35771108 0.378763496875762939 -0.925220370292663574 -0.00884566828608512878 -0.0206682216376066208
125.388336181640625 19.1641559600830078 7.12790250778198242 262 1644764875.25705934 0.41447746753692627 -0.909576356410980225 -0.0198762360960245132 -0.0220035575330257416
121.966156005859375 15.3402462005615234 6.74763584136962891 263 1644764876.05661988 0.401791870594024658 -0.915199637413024902 -0.0193093828856945038 -0.0244970079511404037
118.220649719238281 11.5513925552368164 6.37547969818115234 264 1644764876.86057043 0.376570910215377808 -0.92600560188293457 -0.0151106519624590874 -0.0219006985425949097
114.321067810058594 7.6992344856262207 5.96686315536499023 265 1644764877.65753651 0.378291934728622437 -0.925168097019195557 -0.0166128203272819519 -0.0261382237076759338
110.4041748046875 3.76785159111022949 5.54142856597900391 266 1644764878.4577868 0.375587254762649536 -0.926101326942443848 -0.0216167476028203964 -0.0283416584134101868
106.55914306640625 -0.0194318722933530807 5.14796209335327148 267 1644764879.25833607 0.370093435049057007 -0.928437352180480957 -0.0240255333483219147 -0.0213944427669048309
102.869400024414062 -3.58029079437255859 4.79072761535644531 268 1644764880.05671835 0.371796190738677979 -0.927780508995056152 -0.0262690335512161255 -0.0173435751348733902
98.90838623046875 -7.36653614044189453 4.46053361892700195 269 1644764880.95802712 0.368606388568878174 -0.929130494594573975 -0.023195730522274971 -0.0175452735275030136
95.1520538330078125 -10.9439926147460938 4.17056560516357422 270 1644764881.85799885 0.372156977653503418 -0.927861452102661133 -0.0172326862812042236 -0.0165918841958045959
91.5364227294921875 -14.4657735824584961 3.89686012268066406 271 1644764882.75854087 0.375665634870529175 -0.926518142223358154 -0.0123693598434329033 -0.0169262662529945374
87.5919113159179688 -18.3378181457519531 3.58616209030151367 272 1644764883.75801468 0.382053107023239136 -0.923848211765289307 -0.00584233179688453674 -0.0224883183836936951
84.6453399658203125 -22.6095905303955078 3.26450967788696289 273 1644764884.76033235 0.512267529964447021 -0.85810929536819458 0.00151208753231912851 -0.0350451655685901642
83.5575103759765625 -27.1201725006103516 2.95010089874267578 274 1644764885.75838232 0.656507313251495361 -0.753444850444793701 0.00524971634149551392 -0.0359376221895217896
84.2342376708984375 -30.5421180725097656 2.75228571891784668 275 1644764886.55891037 0.793864607810974121 -0.606698334217071533 -0.00305734947323799133 -0.0410696603357791901
85.881500244140625 -32.9068412780761719 2.57849550247192383 276 1644764887.25838637 0.889641523361206055 -0.455137312412261963 -0.00624309806153178215 -0.0367287136614322662
88.4175033569335938 -34.6450614929199219 2.44476032257080078 277 1644764888.05817652 0.960961759090423584 -0.27252805233001709 0.0032026730477809906 -0.0476515255868434906
93.3449249267578125 -36.2074203491210938 2.28126859664916992 278 1644764889.36067152 0.990508019924163818 -0.135024726390838623 0.00103911245241761208 -0.0257119070738554001
98.561279296875 -37.8399238586425781 2.11773157119750977 279 1644764890.46090651 0.982043743133544922 -0.187705338001251221 -0.00231561413966119289 -0.01874590665102005
102.905540466308594 -40.449432373046875 1.94945967197418213 280 1644764891.35928655 0.952521979808807373 -0.304390370845794678 0.000826785864774137735 -0.00690311193466186523
106.633621215820312 -44.239044189453125 1.76225697994232178 281 1644764892.25365257 0.907832741737365723 -0.41928565502166748 -0.00174328917637467384 -0.0060182507149875164
109.424484252929688 -48.9430313110351562 1.55601406097412109 282 1644764893.15360403 0.849379181861877441 -0.527653872966766357 -0.00205961079336702824 -0.0114967199042439461
111.104499816894531 -54.2523384094238281 1.35774087905883789 283 1644764894.05384135 0.784483075141906738 -0.620056569576263428 -0.00204018037766218185 -0.0105836931616067886
111.632064819335938 -59.8327407836914062 1.15215885639190674 284 1644764894.95315742 0.724146425724029541 -0.689422070980072021 0.00326560856774449348 -0.0172780752182006836
111.429733276367188 -64.8535232543945312 0.952113807201385498 285 1644764895.75616765 0.677943229675292969 -0.734864175319671631 0.00639021024107933044 -0.0180768352001905441
110.425910949707031 -69.8081741333007812 0.747700333595275879 286 1644764896.55702186 0.605461955070495605 -0.795753359794616699 0.000963757163845002651 -0.0138371018692851067
108.407241821289062 -74.3955154418945312 0.527179062366485596 287 1644764897.353333 0.52143782377243042 -0.853137433528900146 0.000910646223928779364 -0.0160718187689781189
105.346847534179688 -78.698028564453125 0.309184402227401733 288 1644764898.25345755 0.431879222393035889 -0.901853084564208984 0.00675732363015413284 -0.00978221464902162552
101.716354370117188 -82.2214279174804688 0.105775967240333557 289 1644764899.25385213 0.357111960649490356 -0.933552145957946777 0.00791630148887634277 -0.0298123117536306381
97.2193832397460938 -85.1396026611328125 -0.308021724224090576 290 1644764900.55506015 0.247840821743011475 -0.968014776706695557 -0.011288781650364399 -0.0373479053378105164
92.5245208740234375 -87.1952972412109375 -0.702510416507720947 291 1644764901.75184774 0.21650359034538269 -0.975944042205810547 0.00718381907790899277 -0.0246543437242507935
88.063690185546875 -89.545074462890625 -0.871868431568145752 292 1644764902.85445523 0.235939249396324158 -0.971753537654876709 0.000416186347138136625 0.00524622621014714241
