# .PCD v0.7 - Point Cloud Data file format
VERSION 0.7
FIELDS x y z intensity roll pitch yaw time
SIZE 4 4 4 4 4 4 4 8
TYPE F F F F F F F F
COUNT 1 1 1 1 1 1 1 1
WIDTH 320
HEIGHT 1
VIEWPOINT 0 0 0 1 0 0 0
POINTS 320
DATA ascii
233.87200927734375 24.4316062927246094 9.09895420074462891 610 0.0538888238370418549 -0.0378439091145992279 -1.39802277088165283 1644760289.55164886
234.0196533203125 23.4104118347167969 9.08087921142578125 611 0.0522206872701644897 -0.0249559357762336731 -1.43431651592254639 1644760289.74968648
234.053741455078125 22.3490047454833984 9.08207321166992188 612 0.0615401417016983032 -0.0291154980659484863 -1.44985628128051758 1644760289.94978142
234.160736083984375 21.3219337463378906 9.12875747680664062 613 0.0628988891839981079 -0.0233960337936878204 -1.45247304439544678 1644760290.14932489
234.353988647460938 19.3690052032470703 9.14752483367919922 614 0.076283872127532959 -0.0365411601960659027 -1.49871134757995605 1644760290.55028629
234.44537353515625 18.3537750244140625 9.04541110992431641 615 0.071193397045135498 -0.0251258816570043564 -1.50115656852722168 1644760290.75034809
234.487594604492188 16.4816665649414062 9.27705001831054688 616 0.042516712099313736 -0.0540633387863636017 -1.55890142917633057 1644760291.15022111
234.526412963867188 14.5798711776733398 9.18959712982177734 617 0.0225289314985275269 -0.03114347904920578 -1.5548175573348999 1644760291.55018139
234.406707763671875 12.8197774887084961 9.40492057800292969 618 0.0492049455642700195 -0.0861194506287574768 -1.56852364540100098 1644760291.94983125
234.43511962890625 11.1345338821411133 9.15939426422119141 619 0.014889872632920742 -0.0229200497269630432 -1.58946800231933594 1644760292.35016394
234.3038330078125 9.70582962036132812 9.07302188873291016 620 0.0696341767907142639 -0.0399616546928882599 -1.68866491317749023 1644760292.75218534
233.971420288085938 8.811767578125 9.46291160583496094 621 0.0471718162298202515 -0.0372035279870033264 -1.73591423034667969 1644760292.95251775
233.560577392578125 7.5036473274230957 9.36654853820800781 622 0.0490469895303249359 -0.015066671185195446 -1.88708877563476562 1644760293.35043049
232.7918701171875 6.16037797927856445 9.330474853515625 623 0.0434772931039333344 -0.0253198668360710144 -2.03727459907531738 1644760293.75091839
231.952774047851562 5.17935085296630859 9.39513874053955078 624 0.0378563851118087769 -0.00946718174964189529 -2.20750546455383301 1644760294.15004039
230.917343139648438 4.09852218627929688 9.28467178344726562 625 0.0272155106067657471 -0.000338235811796039343 -2.33801507949829102 1644760294.55267143
229.589950561523438 3.28920364379882812 9.30974483489990234 626 0.0128934150561690331 0.0347658134996891022 -2.50646424293518066 1644760294.95176983
228.18115234375 2.55975198745727539 9.19001960754394531 627 -0.0335019826889038086 0.0350875109434127808 -2.67226028442382812 1644760295.35004783
226.499404907226562 2.11880874633789062 9.15989971160888672 628 0.0106618320569396019 -0.00359521573409438133 -2.7984466552734375 1644760295.74907064
224.900787353515625 1.78931748867034912 9.15546512603759766 629 0.011873035691678524 -0.0162249691784381866 -2.90778255462646484 1644760296.15115857
223.0953369140625 1.47893238067626953 9.11518383026123047 630 0.0193574856966733932 -0.0196995045989751816 -2.96307158470153809 1644760296.55019093
221.19329833984375 1.22722768783569336 9.05294895172119141 631 0.0341451205313205719 -0.0196150615811347961 -2.99019432067871094 1644760296.95036411
219.23602294921875 0.94535595178604126 9.01080513000488281 632 0.0418516844511032104 0.00155014218762516975 -2.99969696998596191 1644760297.34966969
218.22308349609375 0.811152398586273193 8.99009227752685547 633 0.0434718728065490723 0.00484404060989618301 -3.0034172534942627 1644760297.54964018
217.237686157226562 0.645342409610748291 8.95020198822021484 634 0.0421006828546524048 -0.0130811473354697227 -3.00926399230957031 1644760297.74971652
215.212234497070312 0.407382369041442871 8.81247520446777344 635 0.0360694006085395813 0.00779502280056476593 -3.02525186538696289 1644760298.14961457
214.156845092773438 0.263798236846923828 8.76313018798828125 636 0.0296497568488121033 0.0136050237342715263 -3.03243350982666016 1644760298.35009336
212.156768798828125 0.0306531116366386414 8.67940998077392578 637 0.0113405156880617142 0.0154415946453809738 -3.04728031158447266 1644760298.75009036
211.136123657226562 -0.0921258851885795593 8.65780448913574219 638 0.00973781384527683258 -0.0070482911542057991 -3.0511939525604248 1644760298.95053625
210.098297119140625 -0.215118393301963806 8.62809467315673828 639 0.00208547129295766354 0.0148744601756334305 -3.05111408233642578 1644760299.15352321
208.135345458984375 -0.404715806245803833 8.61543560028076172 640 0.0165540743619203568 0.0107809249311685562 -3.03528141975402832 1644760299.5536859
206.205581665039062 -0.678474187850952148 8.61386013031005859 641 0.017968425527215004 -0.0026390815619379282 -2.98851490020751953 1644760299.95210814
204.477981567382812 -1.00870978832244873 8.54573726654052734 642 0.0113495299592614174 -0.0229110214859247208 -2.9799797534942627 1644760300.35215521
202.6729736328125 -1.29132997989654541 8.59419822692871094 643 0.00820238795131444931 -0.0204361211508512497 -3.01206278800964355 1644760300.75183439
200.852218627929688 -1.4037405252456665 8.49477958679199219 644 -0.0202360227704048157 0.0148239526897668839 -3.05051445960998535 1644760301.15366912
199.11639404296875 -1.59738552570343018 8.37242794036865234 645 0.00722545059397816658 -0.00949962064623832703 -3.05817484855651855 1644760301.55202532
197.158203125 -1.77406752109527588 8.42220878601074219 646 0.0114307021722197533 -0.0223289560526609421 -3.04520797729492188 1644760301.95230436
195.145721435546875 -1.92109358310699463 8.39023780822753906 647 0.0108246421441435814 -0.0308375172317028046 -3.04561424255371094 1644760302.35301113
194.015167236328125 -2.07072710990905762 8.30935001373291016 648 0.0176535826176404953 -0.0196787044405937195 -3.04312372207641602 1644760302.55272508
192.995880126953125 -2.22614502906799316 8.35872459411621094 649 0.00818590074777603149 -0.0157398469746112823 -3.04181766510009766 1644760302.75423479
191.97076416015625 -2.33766365051269531 8.31269359588623047 650 0.0118713285773992538 -0.0204680860042572021 -3.04867243766784668 1644760302.95278406
190.884735107421875 -2.44130373001098633 8.28821182250976562 651 0.00891351420432329178 -0.00939801894128322601 -3.0551445484161377 1644760303.15205526
189.80450439453125 -2.50213932991027832 8.27300930023193359 652 0.0113896336406469345 -0.00971657317131757736 -3.06416654586791992 1644760303.35302019
188.693389892578125 -2.57537317276000977 8.27268218994140625 653 0.0045499708503484726 -0.00809376221150159836 -3.06991767883300781 1644760303.55260158
187.603271484375 -2.68409371376037598 8.20352554321289062 654 -0.00107457838021218777 -0.0128469150513410568 -3.07305240631103516 1644760303.75331664
185.575347900390625 -2.7925264835357666 8.38392066955566406 655 -0.038442954421043396 -0.0939012020826339722 -3.08973884582519531 1644760304.15274596
184.362411499023438 -2.88877129554748535 8.51080703735351562 656 -0.0101461485028266907 -0.121311351656913757 -3.09164762496948242 1644760304.35405183
182.6693115234375 -2.88065862655639648 8.48969268798828125 657 0.0375923775136470795 -0.125042393803596497 -3.12080526351928711 1644760304.75253487
181.689727783203125 -2.74800777435302734 8.75173759460449219 658 0.0329123027622699738 -0.107710987329483032 3.13176703453063965 1644760304.95387077
180.038543701171875 -2.79517173767089844 8.82187938690185547 659 0.0414438769221305847 -0.105342850089073181 3.09720635414123535 1644760305.35200834
178.4072265625 -2.55898332595825195 8.8851165771484375 660 0.0485618114471435547 -0.0561074241995811462 3.05106282234191895 1644760305.75128651
176.897964477539062 -2.33243942260742188 8.76794242858886719 661 0.0714120566844940186 -0.0301248710602521896 2.99275374412536621 1644760306.15285158
175.303253173828125 -1.83662402629852295 8.7183380126953125 662 0.0829593539237976074 0.000977868912741541862 2.88309931755065918 1644760306.55404854
173.810073852539062 -1.17470049858093262 8.66674327850341797 663 0.0570848472416400909 0.0287778750061988831 2.74324345588684082 1644760306.95377231
172.482345581054688 -0.20579451322555542 8.65009403228759766 664 0.0495272427797317505 0.0331293493509292603 2.58178400993347168 1644760307.35328078
171.391082763671875 0.929057419300079346 8.4675445556640625 665 0.0310819931328296661 0.0481286905705928802 2.41204309463500977 1644760307.75391006
170.455276489257812 2.2471158504486084 8.25098705291748047 666 0.0383520312607288361 0.0485868528485298157 2.23660063743591309 1644760308.15431738
169.688690185546875 3.82787108421325684 8.22512722015380859 667 -0.0043866368941962719 0.0497475676238536835 2.07651138305664062 1644760308.55387092
169.141036987304688 5.42093896865844727 7.96667575836181641 668 -0.0185674391686916351 0.0673495829105377197 1.92934286594390869 1644760308.95369816
168.920166015625 6.43048381805419922 8.12119102478027344 669 -0.0333231016993522644 0.0635503455996513367 1.86921882629394531 1644760309.15282488
168.494476318359375 8.21390628814697266 7.74984407424926758 670 -0.0409381166100502014 0.0723314955830574036 1.78354537487030029 1644760309.55346322
168.254241943359375 10.2686700820922852 7.58504772186279297 671 -0.042104668915271759 0.0569352917373180389 1.71521806716918945 1644760309.95266247
168.12811279296875 11.3389949798583984 7.49873590469360352 672 -0.0367358699440956116 0.0542785301804542542 1.6812126636505127 1644760310.15508127
168.0623779296875 12.4603118896484375 7.39277982711791992 673 -0.0404487662017345428 0.0471735633909702301 1.65927684307098389 1644760310.35298562
167.991409301757812 13.6432590484619141 7.30960273742675781 674 -0.0342981889843940735 0.0605148449540138245 1.64127850532531738 1644760310.554497
167.891799926757812 14.8154439926147461 7.18151330947875977 675 -0.0396624729037284851 0.0594107434153556824 1.62630867958068848 1644760310.75555658
167.832901000976562 16.0539569854736328 7.1090846061706543 676 -0.0350914299488067627 0.0517318286001682281 1.62370133399963379 1644760310.95297766
167.763351440429688 17.3390350341796875 7.01180315017700195 677 -0.031861182302236557 0.0493359938263893127 1.62878012657165527 1644760311.1527245
167.610763549804688 18.5356616973876953 6.89217233657836914 678 -0.0270085409283638 0.0504714660346508026 1.63216280937194824 1644760311.35076118
167.57305908203125 19.8122081756591797 6.81063699722290039 679 -0.0210819356143474579 0.0491016581654548645 1.64350318908691406 1644760311.55135918
167.436019897460938 21.1871910095214844 6.74556303024291992 680 -0.0259824618697166443 0.0602333024144172668 1.66344928741455078 1644760311.75475788
167.26995849609375 22.4326152801513672 6.56219625473022461 681 -0.0181529205292463303 0.0572247058153152466 1.67073464393615723 1644760311.9546237
167.05902099609375 23.7257843017578125 6.41823768615722656 682 -0.0210380200296640396 0.066618211567401886 1.67989349365234375 1644760312.15480304
166.953033447265625 24.9829139709472656 6.36660385131835938 683 -0.0196585655212402344 0.0478557385504245758 1.66634523868560791 1644760312.35485244
166.910446166992188 26.3745479583740234 6.30444955825805664 684 -0.0182538777589797974 0.0495587512850761414 1.67413222789764404 1644760312.55405474
166.667144775390625 27.8069934844970703 6.23248863220214844 685 -0.0235841087996959686 0.0590245649218559265 1.6938784122467041 1644760312.75190735
166.408966064453125 29.0447902679443359 6.08193159103393555 686 -0.0269899256527423859 0.0584580041468143463 1.68356966972351074 1644760312.95564198
166.297012329101562 30.3135433197021484 5.96351289749145508 687 -0.026020469143986702 0.0446851775050163269 1.66835618019104004 1644760313.15320802
166.233184814453125 31.8173103332519531 5.86673831939697266 688 -0.026301974430680275 0.0529367290437221527 1.679618239402771 1644760313.35069728
165.979080200195312 33.2866020202636719 5.7591853141784668 689 -0.0302594080567359924 0.0616529844701290131 1.7033926248550415 1644760313.55375719
165.710037231445312 34.5447540283203125 5.62717676162719727 690 -0.031580951064825058 0.0649732723832130432 1.68997645378112793 1644760313.75315094
165.564102172851562 35.8921432495117188 5.53020143508911133 691 -0.037245478481054306 0.0437473244965076447 1.67528915405273438 1644760313.95231509
165.498855590820312 37.4045562744140625 5.43294000625610352 692 -0.02784770168364048 0.0582919307053089142 1.690407395362854 1644760314.15280056
165.2269287109375 38.8582839965820312 5.30247354507446289 693 -0.0434385761618614197 0.0624190010130405426 1.70262086391448975 1644760314.35198283
165.023223876953125 40.1855125427246094 5.19622802734375 694 -0.0332997776567935944 0.0512805581092834473 1.67999351024627686 1644760314.55314493
164.884963989257812 41.6006088256835938 5.11536407470703125 695 -0.0468641743063926697 0.0601054541766643524 1.67612624168395996 1644760314.75295138
164.755905151367188 42.9818229675292969 4.96271038055419922 696 -0.0368302799761295319 0.0612869001924991608 1.67612338066101074 1644760314.95481133
164.58050537109375 44.330963134765625 4.89301395416259766 697 -0.0483691245317459106 0.0497047491371631622 1.67252469062805176 1644760315.15399718
164.433761596679688 45.67071533203125 4.80892848968505859 698 -0.0406765677034854889 0.0520602650940418243 1.66666650772094727 1644760315.35240769
164.321304321289062 46.9923515319824219 4.72868108749389648 699 -0.0465640202164649963 0.0456775128841400146 1.66898012161254883 1644760315.5522542
164.177627563476562 48.2848014831542969 4.6050410270690918 700 -0.0489988438785076141 0.0465849414467811584 1.66628336906433105 1644760315.7527535
164.055389404296875 49.5402603149414062 4.4361262321472168 701 -0.0336876921355724335 0.050683930516242981 1.6517794132232666 1644760315.95149136
163.947357177734375 50.8437156677246094 4.41973257064819336 702 -0.0439811013638973236 0.0422293506562709808 1.6523292064666748 1644760316.15097976
163.835922241210938 52.1545791625976562 4.44632387161254883 703 -0.0486406125128269196 0.0405877940356731415 1.65856802463531494 1644760316.35483575
163.704391479492188 53.4223556518554688 4.34274864196777344 704 -0.050746329128742218 0.0370509512722492218 1.65576934814453125 1644760316.55172801
163.577301025390625 54.6070060729980469 4.25624847412109375 705 -0.0409990400075912476 0.0402168296277523041 1.63803088665008545 1644760316.75157094
163.5635986328125 55.8440742492675781 4.12909078598022461 706 -0.0418213829398155212 0.045133344829082489 1.6260523796081543 1644760316.95445943
163.498306274414062 57.0761909484863281 4.04187345504760742 707 -0.0412485562264919281 0.037621576339006424 1.62104594707489014 1644760317.15469313
163.417816162109375 58.2459297180175781 3.98321437835693359 708 -0.0415728650987148285 0.0452514849603176117 1.60502064228057861 1644760317.3554914
163.41748046875 59.3999671936035156 3.91857719421386719 709 -0.0414155274629592896 0.0362538956105709076 1.60476160049438477 1644760317.55669594
163.344482421875 60.5342903137207031 3.89951419830322266 710 -0.0321486704051494598 0.0263450350612401962 1.60874927043914795 1644760317.75533724
163.303482055664062 61.6389503479003906 3.88241910934448242 711 -0.0270215496420860291 0.0318387299776077271 1.61384880542755127 1644760317.95291328
163.259963989257812 62.7712173461914062 3.80187654495239258 712 -0.0213642586022615433 0.0322431996464729309 1.62407052516937256 1644760318.15339518
163.146957397460938 63.8496513366699219 3.71067714691162109 713 -0.0106634991243481636 0.0404013022780418396 1.6343914270401001 1644760318.35261965
163.04443359375 64.9000625610351562 3.69420886039733887 714 -0.0141465784981846809 0.034399278461933136 1.6520460844039917 1644760318.55376077
162.950347900390625 65.9181289672851562 3.61097121238708496 715 -0.0046415301039814949 0.0409517213702201843 1.66352057456970215 1644760318.7540834
162.809402465820312 66.908111572265625 3.55206751823425293 716 -0.00522451614961028099 0.0376352742314338684 1.67660248279571533 1644760318.95214772
162.661422729492188 67.9471282958984375 3.55424904823303223 717 0.00261337566189467907 0.0301758963614702225 1.7103961706161499 1644760319.15462232
162.16943359375 69.7921600341796875 3.33501696586608887 718 0.0156210139393806458 0.0447202064096927643 1.79936540126800537 1644760319.55267024
161.49383544921875 71.56658935546875 3.30655360221862793 719 0.0210246089845895767 0.0454829297959804535 1.91247928142547607 1644760319.95421934
160.617538452148438 73.1058502197265625 3.20607733726501465 720 0.0396349392831325531 0.0513258092105388641 2.05585789680480957 1644760320.35455632
159.434417724609375 74.4427871704101562 3.01351141929626465 721 0.0592820867896080017 0.056905355304479599 2.22605538368225098 1644760320.75241256
158.11602783203125 75.517425537109375 2.92209696769714355 722 0.0764715969562530518 0.0606095306575298309 2.42764043807983398 1644760321.15412879
156.622604370117188 76.1636428833007812 2.81163740158081055 723 0.0855898410081863403 0.0575290918350219727 2.63958334922790527 1644760321.5530622
154.893630981445312 76.581390380859375 2.70808863639831543 724 0.0615078993141651154 0.0589393638074398041 2.86267518997192383 1644760321.95463395
153.440582275390625 76.5268783569335938 2.5274806022644043 725 0.0780190005898475647 0.0744236111640930176 3.07317471504211426 1644760322.35327697
151.782211303710938 76.109832763671875 2.33370757102966309 726 0.108503982424736023 0.0820506066083908081 -2.98079490661621094 1644760322.75169253
150.280349731445312 75.471343994140625 2.33028459548950195 727 0.0834916383028030396 0.0423211045563220978 -2.80882906913757324 1644760323.15645814
148.557586669921875 74.6990203857421875 2.17907857894897461 728 0.0717268362641334534 0.0397933609783649445 -2.75241899490356445 1644760323.55632448
146.697738647460938 73.9206314086914062 2.00712299346923828 729 0.0620405487716197968 0.037059485912322998 -2.75812554359436035 1644760323.95030046
145.65631103515625 73.5240859985351562 1.98454725742340088 730 0.0582855232059955597 0.0329906083643436432 -2.76431918144226074 1644760324.14957142
144.572647094726562 73.0652236938476562 1.89451301097869873 731 0.0535044968128204346 0.0273934938013553619 -2.76719784736633301 1644760324.35034752
143.478347778320312 72.6217269897460938 1.83717548847198486 732 0.0515848547220230103 0.0181075464934110641 -2.77296042442321777 1644760324.55172133
142.306304931640625 72.1924972534179688 1.83291304111480713 733 0.044894583523273468 0.0155604314059019089 -2.78356647491455078 1644760324.75831461
141.1104736328125 71.7777557373046875 1.78243565559387207 734 0.0414734520018100739 0.0142487520352005959 -2.80006599426269531 1644760324.95162249
139.954864501953125 71.4323806762695312 1.68973445892333984 735 0.0329829826951026917 0.0182511452585458755 -2.84275269508361816 1644760325.153579
138.73431396484375 71.1808700561523438 1.60484743118286133 736 0.0277965590357780457 0.0229541696608066559 -2.8986661434173584 1644760325.35236478
137.4990234375 70.9834365844726562 1.51875627040863037 737 0.0291842017322778702 0.0294169019907712936 -2.95819306373596191 1644760325.55816031
136.217742919921875 70.857574462890625 1.41818451881408691 738 0.0235732067376375198 0.0284242108464241028 -3.01632070541381836 1644760325.75091124
134.836883544921875 70.7578811645507812 1.35229277610778809 739 0.018154047429561615 0.0257308315485715866 -3.06658482551574707 1644760325.95025063
133.531768798828125 70.6800918579101562 1.37161052227020264 740 0.0232017245143651962 0.0198758579790592194 -3.11367988586425781 1644760326.15184999
132.330673217773438 70.7621841430664062 1.30589234828948975 741 0.0361677557229995728 0.0116907134652137756 3.14067578315734863 1644760326.35321331
130.923583984375 70.8199539184570312 1.08398783206939697 742 0.0421757325530052185 0.0338976308703422546 3.12862420082092285 1644760326.55462289
129.622268676757812 70.8511276245117188 1.12950539588928223 743 0.0257360655814409256 0.027718832716345787 3.10208487510681152 1644760326.75545287
128.289398193359375 70.9961700439453125 1.09036111831665039 744 0.0287637766450643539 0.0212909281253814697 3.06580829620361328 1644760326.95149016
126.851455688476562 71.1748046875 1.00518655776977539 745 0.0280440226197242737 0.0225927475839853287 3.0267493724822998 1644760327.15136528
125.607284545898438 71.3633804321289062 0.935126245021820068 746 0.0213636625558137894 0.0371529757976531982 2.96620678901672363 1644760327.35612679
124.425132751464844 71.7191162109375 0.86295008659362793 747 0.017286667600274086 0.0267246533185243607 2.89545726776123047 1644760327.55120921
123.126594543457031 72.2279510498046875 0.886845171451568604 748 0.0099805118516087532 0.0162899494171142578 2.82980108261108398 1644760327.75426149
121.824699401855469 72.74530029296875 0.843214273452758789 749 0.00837568379938602448 0.0156911537051200867 2.76803302764892578 1644760327.95373154
120.619819641113281 73.2634658813476562 0.713440597057342529 750 0.00618120236322283745 0.024319089949131012 2.70307374000549316 1644760328.15199161
119.463310241699219 73.91461181640625 0.616583824157714844 751 0.0207295920699834824 0.0219697821885347366 2.65676403045654297 1644760328.35104442
118.313301086425781 74.6081161499023438 0.494236290454864502 752 0.0298197641968727112 0.00855561904609203339 2.62218761444091797 1644760328.5500493
117.213150024414062 75.3434371948242188 0.540965259075164795 753 0.0195925738662481308 0.0127363353967666626 2.59186291694641113 1644760328.750597
116.099906921386719 76.0776214599609375 0.489974528551101685 754 0.0316756665706634521 0.020015370100736618 2.56397438049316406 1644760328.95111203
114.995620727539062 76.7824020385742188 0.377682030200958252 755 0.0255605503916740417 0.0240172594785690308 2.53642439842224121 1644760329.15297556
113.977546691894531 77.5870819091796875 0.287354260683059692 756 0.0333991050720214844 0.0244611985981464386 2.49842095375061035 1644760329.3544023
112.981239318847656 78.4430007934570312 0.267606079578399658 757 0.038962777704000473 0.0129875866696238518 2.46327924728393555 1644760329.55168986
112.004188537597656 79.307830810546875 0.280582129955291748 758 0.0332604236900806427 0.0129407010972499847 2.4286658763885498 1644760329.75245571
111.096076965332031 80.21514892578125 0.228240177035331726 759 0.0261821877211332321 0.0183927919715642929 2.38193416595458984 1644760329.94978261
110.192207336425781 81.1733322143554688 0.133625268936157227 760 0.014223167672753334 0.0282717179507017136 2.32826089859008789 1644760330.15189862
109.371231079101562 82.1439437866210938 0.00340781081467866898 761 0.0166926532983779907 0.027926301583647728 2.26357674598693848 1644760330.35111284
108.662261962890625 83.2216720581054688 -0.0376933105289936066 762 0.0151500115171074867 0.0200527198612689972 2.1967470645904541 1644760330.54982829
108.005203247070312 84.3737640380859375 -0.0125470096245408058 763 0.0144394086673855782 0.0171979423612356186 2.13890266418457031 1644760330.7514255
107.412361145019531 85.4980239868164062 -0.0347330681979656219 764 0.0266232769936323166 0.0162355583161115646 2.08304715156555176 1644760330.953053
106.836715698242188 86.6339645385742188 -0.0672615915536880493 765 0.0252831708639860153 0.00914599187672138214 2.0496366024017334 1644760331.15024781
106.313018798828125 87.7550277709960938 -0.180839687585830688 766 0.0281221494078636169 0.0297753121703863144 2.01796674728393555 1644760331.35261345
105.802398681640625 88.8818206787109375 -0.219317197799682617 767 0.0149371540173888206 0.0262722000479698181 1.98887383937835693 1644760331.55129623
105.403007507324219 90.03076171875 -0.251967072486877441 768 0.0245749782770872116 0.0237707532942295074 1.94370937347412109 1644760331.74905443
105.010757446289062 91.206268310546875 -0.408539772033691406 769 0.0395212173461914062 0.0126943821087479591 1.90378248691558838 1644760331.95292497
104.659370422363281 92.3615951538085938 -0.362474203109741211 770 0.0270016845315694809 0.0261221472173929214 1.86295783519744873 1644760332.15283537
104.413948059082031 93.517578125 -0.317913264036178589 771 -0.00367447733879089355 0.00640712352469563484 1.81614673137664795 1644760332.3517406
104.278572082519531 94.6898345947265625 -0.422447502613067627 772 0.0507763698697090149 -0.00901831500232219696 1.76809453964233398 1644760332.55362463
104.045547485351562 95.8831939697265625 -0.382709652185440063 773 0.041764821857213974 -0.0134711740538477898 1.72822380065917969 1644760332.75011277
104.003021240234375 96.9792861938476562 -0.419344991445541382 774 0.0311076398938894272 0.0215091966092586517 1.67163562774658203 1644760332.95124102
103.957962036132812 98.1686248779296875 -0.604303419589996338 775 0.0502895265817642212 0.02114088274538517 1.6427457332611084 1644760333.15010381
103.850135803222656 99.3298263549804688 -0.59373629093170166 776 0.0338170267641544342 0.0296538788825273514 1.62624049186706543 1644760333.34858632
103.847007751464844 100.439308166503906 -0.685197651386260986 777 0.0418326742947101593 0.034781135618686676 1.59810733795166016 1644760333.54854655
103.831291198730469 101.630706787109375 -0.776797831058502197 778 0.0207750741392374039 0.0475630462169647217 1.57954955101013184 1644760333.75189877
103.842536926269531 102.797134399414062 -0.857249975204467773 779 0.0186469517648220062 0.0529327057301998138 1.55797386169433594 1644760333.95111084
103.915336608886719 103.932518005371094 -0.958191096782684326 780 0.003588107880204916 0.0624692291021347046 1.50686180591583252 1644760334.15133667
104.133712768554688 105.076873779296875 -1.04031777381896973 781 0.00541647011414170265 0.0758178532123565674 1.45011687278747559 1644760334.35421872
104.370849609375 106.293998718261719 -1.14226973056793213 782 0.0110626211389899254 0.05425272136926651 1.40432524681091309 1644760334.55083561
104.587821960449219 107.412567138671875 -1.20234107971191406 783 0.00903776474297046661 0.0429213792085647583 1.3675917387008667 1644760334.74835205
104.894676208496094 108.528953552246094 -1.21387732028961182 784 0.00281322631053626537 0.0352209247648715973 1.33218777179718018 1644760334.94835234
105.202606201171875 109.7218017578125 -1.31139123439788818 785 0.00694693764671683311 0.0189057774841785431 1.31410527229309082 1644760335.15405583
105.464004516601562 110.837623596191406 -1.31422150135040283 786 0.00510643702000379562 0.0194769985973834991 1.32349872589111328 1644760335.34991908
105.687782287597656 111.914764404296875 -1.35830557346343994 787 -0.00870573800057172775 0.00635047024115920067 1.32437741756439209 1644760335.54841089
106.021148681640625 112.879844665527344 -1.35061323642730713 788 0.00731841614469885826 -0.0158960707485675812 1.30776453018188477 1644760335.75088644
106.339408874511719 114.151710510253906 -1.3726736307144165 789 0.0101568354293704033 -0.0133471442386507988 1.32642531394958496 1644760335.95080113
106.503456115722656 115.309783935546875 -1.37195658683776855 790 0.000604764791205525398 -0.0202858150005340576 1.35393226146697998 1644760336.15323448
107.018020629882812 117.147605895996094 -1.46260464191436768 791 0.0212485417723655701 -0.00378736970014870167 1.33894586563110352 1644760336.55191684
107.233055114746094 118.360054016113281 -1.36369574069976807 792 0.00333049357868731022 -0.03841375932097435 1.3689732551574707 1644760336.7478013
107.752601623535156 120.206581115722656 -1.48943984508514404 793 0.00771416351199150085 0.0566410534083843231 1.35419106483459473 1644760337.14831591
108.014900207519531 121.218589782714844 -1.19407272338867188 794 0.0380337350070476532 -0.0669889152050018311 1.33308994770050049 1644760337.34886432
108.318603515625 122.723312377929688 -1.32583284378051758 795 -0.0052807200700044632 -0.0309778302907943726 1.26354527473449707 1644760337.75244737
109.038795471191406 124.570198059082031 -1.28933656215667725 796 -0.00758880935609340668 -0.0527902767062187195 1.231414794921875 1644760338.15061235
109.817611694335938 125.979560852050781 -1.28178060054779053 797 0.0261331293731927872 -0.0536376535892486572 1.11094343662261963 1644760338.54830217
110.731697082519531 127.562393188476562 -1.15885555744171143 798 0.0357792787253856659 -0.0566314421594142914 1.04596602916717529 1644760338.94815469
111.867881774902344 129.012176513671875 -1.17688429355621338 799 0.0339590758085250854 -0.0543514713644981384 0.930932283401489258 1644760339.35232782
113.172592163085938 130.382522583007812 -1.15024077892303467 800 0.0345186889171600342 -0.045461803674697876 0.809081971645355225 1644760339.75270605
114.641624450683594 131.5108642578125 -1.1170419454574585 801 0.0310246162116527557 -0.021969454362988472 0.68163597583770752 1644760340.15137053
116.179832458496094 132.348480224609375 -1.09328460693359375 802 0.0392659232020378113 -0.0367503203451633453 0.5413818359375 1644760340.54909635
117.816734313964844 132.98675537109375 -1.16176164150238037 803 0.0280054453760385513 -0.0097461184486746788 0.397159934043884277 1644760340.9482348
119.419830322265625 133.19244384765625 -1.09442412853240967 804 0.027470344677567482 -0.0420178286731243134 0.1700725257396698 1644760341.34785128
121.167221069335938 132.992904663085938 -1.04653191566467285 805 -0.0055677853524684906 -0.0367184318602085114 -0.0741522088646888733 1644760341.747437
122.645416259765625 132.390090942382812 -1.11520004272460938 806 0.0065822899341583252 -0.0181617084890604019 -0.337967097759246826 1644760342.1476078
124.014511108398438 131.4014892578125 -1.19779181480407715 807 0.00311504071578383446 -0.0174789261072874069 -0.583015859127044678 1644760342.54719353
124.707290649414062 130.221466064453125 -1.01866638660430908 808 0.001574502675794065 -0.0250556785613298416 -0.880751848220825195 1644760342.94823956
125.327056884765625 128.782852172851562 -1.02463769912719727 809 0.011212310753762722 -0.0218503493815660477 -1.16273558139801025 1644760343.34787965
125.110443115234375 127.493949890136719 -0.951015830039978027 810 0.00878869090229272842 -0.0215871892869472504 -1.46748948097229004 1644760343.74729562
124.850425720214844 126.11322021484375 -1.10331392288208008 811 0.00846867263317108154 -0.0148351313546299934 -1.74641156196594238 1644760344.14746237
123.810813903808594 124.823829650878906 -1.11791884899139404 812 0.0122148981317877769 -0.0113509055227041245 -2.07739996910095215 1644760344.54720235
122.709007263183594 123.841171264648438 -1.06949949264526367 813 0.0137531915679574013 -0.0113430237397551537 -2.3783576488494873 1644760344.94604564
121.153945922851562 122.700286865234375 -1.14459335803985596 814 0.0237599518150091171 -0.0148724513128399849 -2.48196148872375488 1644760345.3451848
119.695335388183594 121.589958190917969 -1.12759053707122803 815 0.0230875555425882339 -0.0122595988214015961 -2.47861742973327637 1644760345.74615169
118.865493774414062 120.922843933105469 -1.15224277973175049 816 0.035454433411359787 -0.0155596025288105011 -2.47067022323608398 1644760345.94596791
118.085479736328125 120.2911376953125 -1.17581081390380859 817 0.0455928854644298553 -0.0222817361354827881 -2.45496058464050293 1644760346.14671373
117.273788452148438 119.680313110351562 -1.19617950916290283 818 0.0347383283078670502 -0.0142517723143100739 -2.46174407005310059 1644760346.3473897
116.423637390136719 118.988639831542969 -1.19704198837280273 819 0.0296681728214025497 -0.0180257502943277359 -2.4773106575012207 1644760346.5473609
115.579185485839844 118.327651977539062 -1.23485231399536133 820 0.026957070454955101 -0.0178904347121715546 -2.48905444145202637 1644760346.74795318
114.688201904296875 117.721977233886719 -1.20459616184234619 821 0.0335317216813564301 -0.0212357211858034134 -2.49314618110656738 1644760346.94867134
113.765045166015625 116.947158813476562 -1.27631914615631104 822 0.0353547036647796631 -0.0188794583082199097 -2.47776246070861816 1644760347.14918923
112.924057006835938 116.227706909179688 -1.24722051620483398 823 0.0325140692293643951 -0.0246213693171739578 -2.45106077194213867 1644760347.34905672
112.017753601074219 115.447586059570312 -1.27042698860168457 824 0.0417513847351074219 -0.0221854597330093384 -2.42815494537353516 1644760347.54874468
111.165519714355469 114.584526062011719 -1.30944406986236572 825 0.0319829843938350677 -0.0202216636389493942 -2.38760948181152344 1644760347.74774575
110.344688415527344 113.697067260742188 -1.33241665363311768 826 0.0449362285435199738 -0.0214983616024255753 -2.33913040161132812 1644760347.94758821
109.567619323730469 112.744987487792969 -1.35318577289581299 827 0.0416299961507320404 -0.0237536747008562088 -2.28153276443481445 1644760348.14781427
108.880355834960938 111.743820190429688 -1.32427859306335449 828 0.0389433614909648895 -0.0198341403156518936 -2.21419191360473633 1644760348.34756088
108.214851379394531 110.683807373046875 -1.31542646884918213 829 0.0385640449821949005 -0.0342169441282749176 -2.14045047760009766 1644760348.54776525
107.718276977539062 109.613136291503906 -1.23113143444061279 830 0.0411160960793495178 -0.0433899983763694763 -2.05979037284851074 1644760348.75062943
107.285011291503906 108.533164978027344 -1.2396082878112793 831 0.041521511971950531 -0.0603714399039745331 -1.97769296169281006 1644760348.95163703
106.866928100585938 107.365226745605469 -1.21309542655944824 832 0.0375534258782863617 -0.0844753608107566833 -1.90284180641174316 1644760349.14851451
106.620872497558594 106.263755798339844 -1.20375621318817139 833 0.0448429994285106659 -0.104230515658855438 -1.83429801464080811 1644760349.35230875
106.412216186523438 105.127876281738281 -1.06962954998016357 834 0.0473027117550373077 -0.111732609570026398 -1.76645767688751221 1644760349.54898882
106.258712768554688 103.97113037109375 -0.93690258264541626 835 0.0414390452206134796 -0.110723510384559631 -1.72213912010192871 1644760349.74901795
106.198074340820312 102.866600036621094 -0.797310531139373779 836 0.0333292335271835327 -0.113083258271217346 -1.68371462821960449 1644760349.95208406
106.102989196777344 101.7562255859375 -0.746942579746246338 837 0.0296003948897123337 -0.109317518770694733 -1.6438755989074707 1644760350.14879227
106.082786560058594 100.599166870117188 -0.684492886066436768 838 0.026273876428604126 -0.103118285536766052 -1.60564506053924561 1644760350.35029435
106.144920349121094 99.5069198608398438 -0.581852614879608154 839 0.00894107483327388763 -0.095360681414604187 -1.56668353080749512 1644760350.55057335
106.19354248046875 98.3943023681640625 -0.492948025465011597 840 0.0098300175741314888 -0.0911588519811630249 -1.5330280065536499 1644760350.75031233
106.309310913085938 97.25372314453125 -0.490834355354309082 841 0.0113339275121688843 -0.0784743502736091614 -1.49652135372161865 1644760350.95097589
106.475746154785156 96.1841812133789062 -0.470059305429458618 842 0.0124026509001851082 -0.0687895193696022034 -1.45960509777069092 1644760351.14942932
106.630661010742188 95.061279296875 -0.465737342834472656 843 0.0106057543307542801 -0.0530619211494922638 -1.41844844818115234 1644760351.34884214
106.794601440429688 93.990753173828125 -0.366950154304504395 844 -0.00580614712089300156 -0.0366705171763896942 -1.38633453845977783 1644760351.55044818
107.048065185546875 92.7586441040039062 -0.370736867189407349 845 0.00896883662790060043 -0.102416731417179108 -1.35618460178375244 1644760351.74908733
107.537734985351562 91.7435226440429688 -0.2594338059425354 846 0.00782635994255542755 -0.0813024342060089111 -1.31479930877685547 1644760351.95089746
108.111564636230469 89.5211029052734375 -0.243079185485839844 847 0.0177948400378227234 -0.0717864856123924255 -1.23976969718933105 1644760352.3501327
108.667259216308594 88.4863510131835938 -0.132555142045021057 848 0.0106358537450432777 -0.0671874955296516418 -1.20056676864624023 1644760352.55156302
109.680908203125 86.422088623046875 -0.0699808001518249512 849 0.00998013373464345932 -0.0729008391499519348 -1.07477545738220215 1644760352.95181036
110.3780517578125 85.4510650634765625 -0.029852893203496933 850 0.0211542081087827682 -0.072289489209651947 -1.01287448406219482 1644760353.14856267
111.05780029296875 84.6099472045898438 0.038231436163187027 851 0.00877926591783761978 -0.0755975246429443359 -0.953137516975402832 1644760353.35029459
111.765411376953125 83.636962890625 0.0970312356948852539 852 0.0121915722265839577 -0.0758222639560699463 -0.910758495330810547 1644760353.55010605
112.588630676269531 82.7559051513671875 0.144371867179870605 853 -0.00109892839100211859 -0.0735701099038124084 -0.875333964824676514 1644760353.75085425
113.366004943847656 81.9778900146484375 0.188838109374046326 854 0.00137231498956680298 -0.0754785984754562378 -0.845477283000946045 1644760353.94957757
114.139671325683594 81.1252670288085938 0.248382866382598877 855 -0.00430232146754860878 -0.0742614418268203735 -0.810770988464355469 1644760354.1493237
115.010086059570312 80.2663955688476562 0.269181311130523682 856 0.00537379411980509758 -0.0738506615161895752 -0.777195096015930176 1644760354.34867954
115.914237976074219 79.571044921875 0.291725099086761475 857 0.00393807608634233475 -0.0752091631293296814 -0.734999775886535645 1644760354.55167961
116.789260864257812 78.8089599609375 0.359768062829971313 858 0.00931415613740682602 -0.0744925513863563538 -0.683092951774597168 1644760354.75149441
117.79071044921875 78.1267776489257812 0.425752431154251099 859 0.0101620974019169807 -0.0752288103103637695 -0.62708282470703125 1644760354.95090485
118.824668884277344 77.5733413696289062 0.488282650709152222 860 0.00104707852005958557 -0.0742384344339370728 -0.575665712356567383 1644760355.15072513
119.771270751953125 77.0334091186523438 0.527415812015533447 861 0.000835133541841059923 -0.0795201212167739868 -0.54387277364730835 1644760355.35012674
120.815574645996094 76.4651412963867188 0.617829620838165283 862 -0.00273659825325012207 -0.0816807150840759277 -0.510258197784423828 1644760355.54888487
121.856178283691406 75.93389892578125 0.667138218879699707 863 0.00941826216876506805 -0.0797074288129806519 -0.474133908748626709 1644760355.74933887
122.957130432128906 75.4815902709960938 0.708047091960906982 864 0.00966373365372419357 -0.0807135403156280518 -0.433748096227645874 1644760355.9505868
124.045860290527344 75.0591278076171875 0.778499782085418701 865 0.00885737314820289612 -0.0781634151935577393 -0.39109387993812561 1644760356.15006995
125.165283203125 74.6479263305664062 0.814942657947540283 866 0.00947866868227720261 -0.0732258260250091553 -0.346241205930709839 1644760356.34861994
126.316993713378906 74.3582382202148438 0.884842395782470703 867 0.00228137639351189137 -0.0765831172466278076 -0.296682655811309814 1644760356.55062747
127.462249755859375 74.0903701782226562 0.926689863204956055 868 0.00490657426416873932 -0.079907245934009552 -0.254123896360397339 1644760356.75102401
128.602386474609375 73.860137939453125 0.990268826484680176 869 -0.000400833319872617722 -0.0744462907314300537 -0.209654480218887329 1644760356.94821692
129.803924560546875 73.7283172607421875 1.02192008495330811 870 0.00157004408538341522 -0.07045726478099823 -0.161273255944252014 1644760357.1486547
130.978515625 73.6402511596679688 1.12044656276702881 871 -0.00316336308605968952 -0.0760667845606803894 -0.11458154022693634 1644760357.34796095
132.169021606445312 73.5876235961914062 1.18543887138366699 872 -0.00360104348510503769 -0.0775759369134902954 -0.065013982355594635 1644760357.55092573
133.35333251953125 73.6108474731445312 1.28181171417236328 873 -0.00784967560321092606 -0.0781737491488456726 -0.0154125457629561424 1644760357.74949622
134.5081787109375 73.6532135009765625 1.34518933296203613 874 -0.00442816643044352531 -0.0805711075663566589 0.0286228954792022705 1644760357.95036912
135.689376831054688 73.7816848754882812 1.42539596557617188 875 -0.00241656671278178692 -0.0856802612543106079 0.0804388225078582764 1644760358.15010285
136.897613525390625 74.0009384155273438 1.44765996932983398 876 -0.00127051409799605608 -0.0849130749702453613 0.140462130308151245 1644760358.35125899
137.989578247070312 74.2700958251953125 1.49370980262756348 877 -0.0145816020667552948 -0.0735812261700630188 0.196601077914237976 1644760358.54881525
139.1107177734375 74.575469970703125 1.5036923885345459 878 -0.010377001017332077 -0.0776591971516609192 0.251018494367599487 1644760358.75066686
140.216278076171875 74.9588623046875 1.61754333972930908 879 -0.00553832808509469032 -0.0862437710165977478 0.306508839130401611 1644760358.94955707
141.293899536132812 75.354644775390625 1.6547553539276123 880 0.0060464940033853054 -0.0797050371766090393 0.358307838439941406 1644760359.14882565
142.391830444335938 75.8743515014648438 1.76635062694549561 881 -0.00495301559567451477 -0.0707913413643836975 0.410071045160293579 1644760359.34893751
143.4136962890625 76.4422149658203125 1.83507728576660156 882 -0.00157387298531830311 -0.0632167235016822815 0.449548393487930298 1644760359.55032229
144.300048828125 76.93310546875 1.84754621982574463 883 -0.00837560370564460754 -0.0709234997630119324 0.480527102947235107 1644760359.75052071
146.0009765625 77.8980178833007812 2.01414942741394043 884 -0.00852712336927652359 -0.0725740045309066772 0.524036645889282227 1644760360.14951944
147.528976440429688 78.967529296875 2.01707196235656738 885 -0.010859467089176178 -0.0687346979975700378 0.572558581829071045 1644760360.5487206
148.964324951171875 80.0607757568359375 2.1587831974029541 886 -0.0297042708843946457 -0.0633993595838546753 0.623482346534729004 1644760360.9510026
150.183197021484375 80.9118804931640625 2.09460234642028809 887 -0.0282180625945329666 -0.0640941411256790161 0.595059871673583984 1644760361.35003519
151.442306518554688 81.4308624267578125 2.17122387886047363 888 -0.0365586131811141968 -0.0706580281257629395 0.485265731811523438 1644760361.75006008
152.661666870117188 81.9468536376953125 2.27634835243225098 889 -0.0276006124913692474 -0.0810310244560241699 0.377435654401779175 1644760362.15032649
154.136260986328125 82.2755050659179688 2.44329285621643066 890 -0.0425729155540466309 -0.0825333297252655029 0.239929363131523132 1644760362.55195975
155.631515502929688 82.3421096801757812 2.48188614845275879 891 -0.0314475856721401215 -0.0952057316899299622 0.0874187052249908447 1644760362.9509294
157.26385498046875 82.162200927734375 2.62784814834594727 892 -0.0396737381815910339 -0.0717009454965591431 -0.121565990149974823 1644760363.35099745
158.85906982421875 81.4753875732421875 2.63420534133911133 893 -0.015039701946079731 -0.0695295259356498718 -0.351653337478637695 1644760363.75125504
160.358779907226562 80.5248184204101562 2.66430830955505371 894 -0.013803594745695591 -0.0766412839293479919 -0.54791492223739624 1644760364.15211344
161.6663818359375 79.2131805419921875 2.71734356880187988 895 0.0244265217334032059 -0.0898337140679359436 -0.74497675895690918 1644760364.55101347
162.766921997070312 77.7469711303710938 2.90892362594604492 896 0.0136379683390259743 -0.0846372172236442566 -0.91056358814239502 1644760364.9515543
163.658065795898438 76.0769119262695312 3.05836796760559082 897 0.0144105954095721245 -0.0978776738047599792 -1.06949663162231445 1644760365.35348558
164.347335815429688 74.28155517578125 3.29025959968566895 898 0.00645860284566879272 -0.102011345326900482 -1.21410560607910156 1644760365.75099874
164.61456298828125 73.2986373901367188 3.21904635429382324 899 0.00785147026181221008 -0.0780560225248336792 -1.27977728843688965 1644760365.95269132
164.931854248046875 71.408447265625 3.37029576301574707 900 0.00106167816556990147 -0.0833532065153121948 -1.40254831314086914 1644760366.35303378
165.053665161132812 70.3756866455078125 3.39229941368103027 901 0.00173107290174812078 -0.0770366713404655457 -1.43588650226593018 1644760366.55203819
165.270721435546875 68.4112014770507812 3.50746655464172363 902 0.00870330817997455597 -0.0779082030057907104 -1.45475780963897705 1644760366.95317054
165.412322998046875 67.3880538940429688 3.55987143516540527 903 0.00519460113719105721 -0.0772362425923347473 -1.45390653610229492 1644760367.1521008
165.522079467773438 66.3896102905273438 3.66769671440124512 904 0.0128385834395885468 -0.0746079608798027039 -1.45170176029205322 1644760367.3514564
165.647476196289062 65.3847274780273438 3.67660045623779297 905 0.0184039697051048279 -0.0821929574012756348 -1.44792866706848145 1644760367.54943752
165.83123779296875 64.3657989501953125 3.77977466583251953 906 0.00789947342127561569 -0.0864442884922027588 -1.44139528274536133 1644760367.75306034
165.974868774414062 63.3574485778808594 3.80808782577514648 907 0.0135598592460155487 -0.0890063196420669556 -1.43773090839385986 1644760367.95339251
166.130844116210938 62.3373832702636719 3.89549994468688965 908 0.00532943196594715118 -0.0847160592675209045 -1.43443942070007324 1644760368.15020728
166.270492553710938 61.3007125854492188 3.98019123077392578 909 0.00474556442350149155 -0.0862791910767555237 -1.42938292026519775 1644760368.35286117
166.453887939453125 60.2386016845703125 3.97890186309814453 910 0.00512446369975805283 -0.0816748589277267456 -1.42298698425292969 1644760368.55197954
166.691513061523438 59.2486076354980469 3.90130782127380371 911 0.0108194258064031601 -0.0848841667175292969 -1.41554009914398193 1644760368.75067544
166.850570678710938 58.2576522827148438 4.04803133010864258 912 -0.00497608864679932594 -0.0792998373508453369 -1.41054534912109375 1644760368.95247531
166.923233032226562 57.2020263671875 4.30645322799682617 913 -0.000124187077744863927 -0.101364322006702423 -1.41711819171905518 1644760369.15126085
167.130325317382812 56.0556106567382812 4.23112010955810547 914 0.0210447534918785095 -0.0867131352424621582 -1.41096901893615723 1644760369.35511208
167.374588012695312 55.070953369140625 4.3465113639831543 915 0.00207069655880331993 -0.0959165245294570923 -1.39903533458709717 1644760369.55614638
167.51483154296875 54.0454635620117188 4.3971867561340332 916 0.00525705050677061081 -0.0847788229584693909 -1.40142250061035156 1644760369.74905705
167.707534790039062 52.9469223022460938 4.44995403289794922 917 0.010040714405477047 -0.085252515971660614 -1.39758312702178955 1644760369.95517612
167.944320678710938 51.9168205261230469 4.51153993606567383 918 0.00449365796521306038 -0.0873880162835121155 -1.39369094371795654 1644760370.15288091
168.106369018554688 50.8939094543457031 4.59283018112182617 919 0.00511391041800379753 -0.0896835997700691223 -1.39534246921539307 1644760370.34782958
168.30902099609375 49.7849540710449219 4.68492555618286133 920 -0.00128506403416395187 -0.0872549489140510559 -1.39845550060272217 1644760370.55371976
168.520370483398438 48.7380905151367188 4.73690509796142578 921 0.0032735397107899189 -0.0886708423495292664 -1.4041140079498291 1644760370.75224543
168.70379638671875 47.6827468872070312 4.75620222091674805 922 0.00260747084394097328 -0.0871750712394714355 -1.41238880157470703 1644760370.94895363
168.848037719726562 46.6215972900390625 4.87241315841674805 923 0.00149514840450137854 -0.0926272273063659668 -1.42056286334991455 1644760371.15340114
169.020401000976562 45.5307960510253906 4.89071273803710938 924 0.00709089776501059532 -0.0866932570934295654 -1.42789983749389648 1644760371.35153127
169.192840576171875 44.4671211242675781 4.99543952941894531 925 -0.00139384716749191284 -0.0961323529481887817 -1.43040037155151367 1644760371.54991055
169.317062377929688 43.4172172546386719 5.06892061233520508 926 -0.00226478348486125469 -0.0932341739535331726 -1.4395606517791748 1644760371.74858499
169.441497802734375 42.3604774475097656 5.11573553085327148 927 0.00205551343970000744 -0.0934922844171524048 -1.44747579097747803 1644760371.94890189
169.563125610351562 41.2768173217773438 5.24430370330810547 928 -0.0045830700546503067 -0.101447880268096924 -1.45411479473114014 1644760372.1501267
169.702621459960938 40.1968193054199219 5.279876708984375 929 0.00578527338802814484 -0.0975069031119346619 -1.46437156200408936 1644760372.34768105
