# .PCD v0.7 - Point Cloud Data file format
VERSION 0.7
FIELDS x y z intensity t qx qy qz qw
SIZE 4 4 4 4 8 4 4 4 4
TYPE F F F F F F F F F
COUNT 1 1 1 1 1 1 1 1 1
WIDTH 276
HEIGHT 1
VIEWPOINT 0 0 0 1 0 0 0
POINTS 276
DATA ascii
69.1124343872070312 44.6357803344726562 7.30096054077148438 192 1644823303.29294276 -0.539336204528808594 0.842003762722015381 0.00478359824046492577 0.0111025646328926086
62.5195198059082031 37.0210914611816406 6.99963903427124023 193 1644823304.89303541 -0.380233496427536011 0.924761116504669189 -0.00137717521283775568 0.0154098179191350937
51.4691009521484375 25.5441780090332031 6.56330585479736328 194 1644823306.99361324 -0.413879305124282837 0.910273432731628418 -0.00904114823788404465 0.00494580809026956558
40.5480079650878906 13.6928300857543945 6.53771209716796875 195 1644823308.99554062 -0.360575437545776367 0.932606935501098633 0.013118961825966835 -0.00758278276771306992
27.9024715423583984 2.13792181015014648 6.48722362518310547 196 1644823311.09560132 -0.378938674926757812 0.925378859043121338 -0.00700376275926828384 0.00551773048937320709
17.1680946350097656 -6.24424028396606445 6.64693927764892578 197 1644823312.79642916 -0.213345617055892944 0.976775228977203369 -0.00415032170712947845 -0.0194048937410116196
2.20247197151184082 -9.29857540130615234 7.6902918815612793 198 1644823314.89402032 -0.0449226386845111847 0.998083233833312988 -0.0141042089089751244 -0.0401611663401126862
-8.4517364501953125 -9.43885421752929688 8.38036632537841797 199 1644823316.99335718 0.0165235791355371475 0.999645233154296875 -0.0143015366047620773 -0.0152281485497951508
-15.7283639907836914 -7.96631240844726562 8.52191543579101562 200 1644823318.89122868 0.195708319544792175 0.980571985244750977 0.0071148192510008812 -0.0112366108223795891
-20.9180240631103516 -4.21442842483520508 8.59490489959716797 201 1644823320.18903565 0.350907832384109497 0.936359047889709473 -0.0074588702991604805 -0.00630475487560033798
-24.7152633666992188 -0.7393454909324646 8.68185615539550781 202 1644823321.28892493 0.314489901065826416 0.948760747909545898 -0.0249940976500511169 -0.0180121809244155884
-29.9174060821533203 0.296088874340057373 8.80367660522460938 203 1644823322.58907056 0.00222951546311378479 0.999692559242248535 -0.0238221511244773865 -0.00650302600115537643
-32.5112724304199219 -0.626913309097290039 8.79167556762695312 204 1644823323.18795419 -0.193500339984893799 0.980648934841156006 -0.0282669235020875931 0.00928713008761405945
-34.3696441650390625 -2.30092716217041016 8.78050518035888672 205 1644823323.68894649 -0.370776563882827759 0.928083539009094238 -0.0300479773432016373 0.0168167948722839355
-35.5366020202636719 -4.66483688354492188 8.74795913696289062 206 1644823324.18924093 -0.555023729801177979 0.830446243286132812 -0.0317729786038398743 0.0360295362770557404
-35.5969352722167969 -7.25550317764282227 8.69884681701660156 207 1644823324.69034767 -0.710476875305175781 0.701635777950286865 -0.0212448928505182266 0.0497844256460666656
-34.5439643859863281 -10.1575994491577148 8.65103912353515625 208 1644823325.28986669 -0.827217161655426025 0.560140490531921387 -0.0110039003193378448 0.0428172089159488678
-32.4990806579589844 -12.6560487747192383 8.60876083374023438 209 1644823325.88958979 -0.917227089405059814 0.395130544900894165 -0.0123314131051301956 0.0491349957883358002
-29.5949878692626953 -14.1952419281005859 8.60978603363037109 210 1644823326.49046826 -0.976988732814788818 0.208139747381210327 -0.00644267397001385689 0.0461445599794387817
-26.2514896392822266 -14.4690418243408203 8.59317779541015625 211 1644823327.08958054 -0.998918235301971436 0.00538307754322886467 0.0114453062415122986 0.0447475835680961609
-20.0594272613525391 -7.1048436164855957 8.5946197509765625 212 1644823329.09304333 -0.724321484565734863 -0.688245773315429688 0.0293491054326295853 0.028544766828417778
-20.9561882019042969 -4.19130182266235352 8.59950542449951172 213 1644823329.68853879 -0.568877935409545898 -0.82134544849395752 0.0348150506615638733 0.0236092265695333481
-30.2391128540039062 -0.971023917198181152 8.80560493469238281 214 1644823331.68936825 0.109855473041534424 -0.993536412715911865 0.0285759009420871735 -0.000764492666348814964
-34.8402748107910156 -10.4167976379394531 8.6239471435546875 215 1644823333.78854632 0.775093019008636475 -0.629517972469329834 0.0149636315181851387 -0.0520964115858078003
-30.7766227722167969 -20.1482467651367188 8.39565944671630859 216 1644823335.79097772 0.801019549369812012 -0.597941160202026367 0.00303899217396974564 -0.028719145804643631
-28.7523231506347656 -30.6026344299316406 7.83028602600097656 217 1644823337.79156041 0.727686822414398193 -0.684926211833953857 -0.0366808809340000153 -0.00157499616034328938
-28.8424472808837891 -41.7580299377441406 7.20116615295410156 218 1644823339.88909841 0.683019638061523438 -0.72924959659576416 -0.0395574495196342468 -0.0106995841488242149
-28.1777381896972656 -50.7601966857910156 6.71532535552978516 219 1644823341.88975596 0.818062126636505127 -0.573785364627838135 -0.0357838571071624756 -0.0162550956010818481
-26.8619709014892578 -52.226654052734375 6.59517765045166016 220 1644823342.39018202 0.908565342426300049 -0.415817111730575562 -0.0331209003925323486 -0.0225433353334665298
-25.1291580200195312 -52.9197845458984375 6.48839092254638672 221 1644823342.88991737 0.970488131046295166 -0.237989827990531921 -0.0346863344311714172 -0.0176200419664382935
-21.5016498565673828 -53.2772865295410156 6.24245786666870117 222 1644823343.68974853 0.997961938381195068 -0.0533009357750415802 -0.033389020711183548 0.0107763204723596573
-15.7306480407714844 -53.2687301635742188 5.88272857666015625 223 1644823344.68862772 0.999539494514465332 -0.00483160978183150291 -0.02604643814265728 0.0147981531918048859
-10.2887868881225586 -53.5106430053710938 5.53060674667358398 224 1644823345.48938823 0.998909950256347656 -0.0349084176123142242 -0.0276916790753602982 0.0139096751809120178
-5.03789806365966797 -53.9237556457519531 5.18555688858032227 225 1644823346.1889863 0.998353123664855957 -0.045323055237531662 -0.0305070187896490097 0.0174989514052867889
0.584391593933105469 -54.5696945190429688 4.8313751220703125 226 1644823346.89029193 0.997024774551391602 -0.0707747265696525574 -0.0261772032827138901 0.0157260671257972717
15.574101448059082 -55.8283920288085938 3.84205913543701172 227 1644823348.69114661 0.999304413795471191 0.0122025245800614357 -0.0326948463916778564 0.0131449345499277115
20.7644290924072266 -55.5897331237792969 3.48699069023132324 228 1644823349.29122663 0.999014139175415039 0.0291486978530883789 -0.0328935272991657257 0.00625555962324142456
25.9957447052001953 -55.0197334289550781 3.13802146911621094 229 1644823349.89081216 0.997679948806762695 0.0609605014324188232 -0.028513515368103981 0.0102724777534604073
31.1747074127197266 -54.1014785766601562 2.87189483642578125 230 1644823350.49095607 0.995023429393768311 0.0985941886901855469 -0.00980723928660154343 0.0105532072484493256
36.3212509155273438 -52.8883056640625 2.63012123107910156 231 1644823351.09159589 0.991348445415496826 0.130449682474136353 -0.00972276739776134491 0.0107974251732230186
44.45684814453125 -49.9062118530273438 2.32535862922668457 232 1644823352.09291887 0.978580951690673828 0.205664008855819702 -0.00779744237661361694 0.00456664804369211197
48.9977455139160156 -47.5761528015136719 2.21449637413024902 233 1644823352.69262147 0.968290746212005615 0.249660328030586243 0.00203413958661258221 0.00886330008506774902
53.3482246398925781 -44.9359855651855469 2.16433334350585938 234 1644823353.29333973 0.959429085254669189 0.28189501166343689 -0.00295891962014138699 0.00472350139170885086
58.0506324768066406 -41.5283126831054688 2.1672813892364502 235 1644823353.99277353 0.946523070335388184 0.322564631700515747 0.00534535618498921394 0.00419046357274055481
62.3537712097167969 -37.8211479187011719 2.25343942642211914 236 1644823354.69239426 0.93616783618927002 0.350831925868988037 0.0205471664667129517 0.00919602438807487488
68.6205978393554688 -31.7965755462646484 2.55591011047363281 237 1644823355.79179978 0.921270251274108887 0.387024939060211182 0.0378252454102039337 -0.00648647034540772438
72.4215927124023438 -27.8097934722900391 2.73132061958312988 238 1644823356.49210906 0.917056858539581299 0.39830741286277771 0.0165307261049747467 -0.00920152943581342697
76.06298828125 -23.7671928405761719 2.89577651023864746 239 1644823357.19276476 0.915844082832336426 0.400880515575408936 0.0224924292415380478 -0.00429664459079504013
79.7572097778320312 -19.8809928894042969 3.19208359718322754 240 1644823357.89130688 0.920611202716827393 0.389169484376907349 0.0296632982790470123 -0.0119276968762278557
83.5327301025390625 -16.1728115081787109 3.48934292793273926 241 1644823358.59180045 0.9284629225730896 0.369605988264083862 0.0358731672167778015 -0.00781916268169879913
87.8350753784179688 -12.0372314453125 3.81176424026489258 242 1644823359.39435744 0.928920328617095947 0.368884623050689697 0.0318932868540287018 -0.00373830739408731461
92.0170211791992188 -8.04853057861328125 4.15045833587646484 243 1644823360.19278955 0.927960097789764404 0.370897412300109863 0.035787925124168396 -0.00666017597541213036
96.0151748657226562 -4.05418539047241211 4.50305509567260742 244 1644823360.99426174 0.92504650354385376 0.377902716398239136 0.0376069545745849609 -0.00801439303904771805
99.7322998046875 -0.038335602730512619 4.84186077117919922 245 1644823361.79166794 0.916061878204345703 0.399249076843261719 0.0376499257981777191 -0.00364633672870695591
103.31182861328125 3.94286656379699707 5.19266748428344727 246 1644823362.59123039 0.915834128856658936 0.399351775646209717 0.0419760122895240784 0.00200118264183402061
106.868179321289062 7.78034067153930664 5.56496810913085938 247 1644823363.39216399 0.918462157249450684 0.392938703298568726 0.0448812134563922882 -0.0034831678494811058
110.411705017089844 11.500849723815918 5.92708826065063477 248 1644823364.19335127 0.922098934650421143 0.384836316108703613 0.040426451712846756 -0.000501325004734098911
113.994400024414062 15.0343723297119141 6.30119419097900391 249 1644823364.99401569 0.926773905754089355 0.373019993305206299 0.0439569316804409027 -0.00374672259204089642
117.971397399902344 18.7573337554931641 6.70749187469482422 250 1644823365.89066815 0.929872810840606689 0.366422742605209351 0.0311991330236196518 -0.00987638998776674271
121.624214172363281 22.1945590972900391 7.09311056137084961 251 1644823366.888731 0.928978919982910156 0.368052750825881958 0.0380895175039768219 -0.00919506046921014786
125.377296447753906 25.6517009735107422 7.4749298095703125 252 1644823367.99075389 0.934388518333435059 0.353917062282562256 0.0401609539985656738 -0.00691863521933555603
132.671127319335938 30.7704067230224609 8.16659927368164062 253 1644823370.09044933 0.970690786838531494 0.236012861132621765 0.0447212867438793182 -0.00757084647193551064
137.839385986328125 32.0010643005371094 8.48038101196289062 254 1644823371.38920283 0.998681068420410156 0.0400012657046318054 0.0185501463711261749 -0.0263042077422142029
140.887710571289062 31.3153781890869141 8.54514884948730469 255 1644823372.18933892 0.990540027618408203 -0.135152935981750488 0.0139900073409080505 -0.019193774089217186
145.1414794921875 28.5764198303222656 8.64677047729492188 256 1644823373.29085445 0.947229683399200439 -0.319288134574890137 0.0105680851265788078 -0.0264457482844591141
148.764129638671875 24.7081737518310547 8.62294387817382812 257 1644823374.28745461 0.910266518592834473 -0.413657277822494507 0.00765284942463040352 -0.015618491917848587
152.598281860351562 20.7991752624511719 8.45781135559082031 258 1644823375.18782258 0.929949283599853516 -0.366320371627807617 -0.0156391430646181107 -0.0275532566010951996
156.6942138671875 17.1549167633056641 8.2753753662109375 259 1644823376.08805251 0.933287084102630615 -0.358393639326095581 -0.010997445322573185 -0.0202067364007234573
160.671859741210938 13.5417585372924805 8.05904102325439453 260 1644823376.98765516 0.931404769420623779 -0.363459944725036621 -0.00616715149953961372 -0.0185457188636064529
164.689529418945312 9.81257152557373047 7.85548496246337891 261 1644823377.99047756 0.929701507091522217 -0.367566764354705811 -0.0120888752862811089 -0.0200896188616752625
168.369949340820312 6.35206890106201172 7.69799566268920898 262 1644823378.98855281 0.927320659160614014 -0.374120414257049561 -0.0019687209278345108 -0.0103167220950126648
172.165374755859375 2.43513894081115723 7.50986528396606445 263 1644823380.0862391 0.918247044086456299 -0.395032823085784912 -0.0144161200150847435 -0.023741530254483223
175.756820678710938 -1.49754321575164795 7.28734159469604492 264 1644823381.18671489 0.914775311946868896 -0.403051912784576416 -0.00821509957313537598 -0.02584078349173069
179.598785400390625 -4.98231840133666992 7.12505865097045898 265 1644823382.28714275 0.942191720008850098 -0.333985984325408936 -0.00882562808692455292 -0.025498516857624054
183.892562866210938 -6.742645263671875 7.04759311676025391 266 1644823383.48726606 0.989592254161834717 -0.142049208283424377 0.000696968752890825272 -0.022992381826043129
188.90863037109375 -7.43230056762695312 7.05786371231079102 267 1644823384.88845253 0.997818648815155029 -0.0615573227405548096 -0.00242510717362165451 -0.0237229540944099426
193.789962768554688 -9.49678134918212891 7.11190462112426758 268 1644823386.38728571 0.960107743740081787 -0.279477864503860474 0.00209428719244897366 -0.00899274088442325592
195.668624877929688 -12.7084541320800781 7.05489397048950195 269 1644823387.48701811 0.830807983875274658 -0.556259036064147949 -0.0135591970756649971 -0.0122546227648854256
195.607742309570312 -14.844782829284668 6.975555419921875 270 1644823388.08797264 0.700490832328796387 -0.713035106658935547 -0.0286086108535528183 -0.00866282079368829727
194.657516479492188 -16.7069110870361328 6.91894149780273438 271 1644823388.68731785 0.533827245235443115 -0.84498441219329834 -0.0311541147530078888 -0.00769801344722509384
193.230804443359375 -17.7042350769042969 6.87423896789550781 272 1644823389.18820214 0.337019741535186768 -0.940600037574768066 -0.0378038994967937469 -0.0161279290914535522
191.873443603515625 -17.8725795745849609 6.84791707992553711 273 1644823389.58855581 0.126886606216430664 -0.989977896213531494 -0.0564914196729660034 -0.0255401171743869781
190.664443969726562 -17.3922996520996094 6.84292078018188477 274 1644823389.98842216 -0.079005017876625061 -0.995801210403442383 -0.0385619662702083588 -0.0255181752145290375
189.277008056640625 -16.2638168334960938 6.85524654388427734 275 1644823390.58801365 -0.268501937389373779 -0.963073790073394775 -0.0193898286670446396 -0.00442800950258970261
186.063079833984375 -12.8537178039550781 6.87380504608154297 276 1644823391.88880014 -0.448515594005584717 -0.893424689769744873 -0.0224393829703330994 -0.0110714435577392578
185.4422607421875 -10.5725679397583008 6.92617702484130859 277 1644823392.58955717 -0.621127843856811523 -0.783279895782470703 -0.0234773848205804825 -0.0110270269215106964
185.934158325195312 -9.10198307037353516 6.97181844711303711 278 1644823393.08950019 -0.772719264030456543 -0.634543001651763916 -0.015267789363861084 -0.00519695505499839783
186.935714721679688 -8.12468051910400391 7.01507663726806641 279 1644823393.59082627 -0.887619256973266602 -0.460428088903427124 -0.0106643112376332283 0.00492841890081763268
188.117950439453125 -7.69643974304199219 7.04676532745361328 280 1644823394.09044528 -0.961689233779907227 -0.273935914039611816 -0.00358591973781585693 0.0100067155435681343
193.806121826171875 -11.3904228210449219 7.06768655776977539 281 1644823396.1915319 -0.890798628330230713 0.454296797513961792 0.00957120116800069809 -0.000764930795412510633
196.608139038085938 -19.4357128143310547 6.82557344436645508 282 1644823398.29208875 -0.843426764011383057 0.53668522834777832 0.00881052110344171524 0.0228600762784481049
199.70343017578125 -23.4750289916992188 6.68525409698486328 283 1644823399.49142838 -0.912296772003173828 0.409253418445587158 0.0071408846415579319 0.0132364863529801369
203.762832641601562 -26.8923892974853516 6.61884689331054688 284 1644823400.69363785 -0.947156906127929688 0.319550454616546631 -0.00303250434808433056 0.0277871657162904739
207.92987060546875 -30.0058746337890625 6.62186813354492188 285 1644823401.89083648 -0.94564354419708252 0.324819296598434448 -0.0088460119441151619 0.0131320403888821602
212.123947143554688 -33.0419082641601562 6.61128568649291992 286 1644823402.99003935 -0.958490908145904541 0.284036397933959961 -0.00706759700551629066 0.0238434337079524994
216.856475830078125 -35.3849868774414062 6.61700916290283203 287 1644823404.08992124 -0.97838360071182251 0.205991938710212708 -0.00576754193753004074 0.0173080284148454666
221.55023193359375 -37.4557762145996094 6.62597179412841797 288 1644823405.19113111 -0.976751148700714111 0.213782995939254761 -0.00553112663328647614 0.014948124997317791
226.368118286132812 -39.8595771789550781 6.60837793350219727 289 1644823406.29050207 -0.97276616096496582 0.230987071990966797 -0.00246588652953505516 0.0191025454550981522
231.217010498046875 -42.2732963562011719 6.61096763610839844 290 1644823407.49309063 -0.973298192024230957 0.228886932134628296 -0.00601645186543464661 0.0162839684635400772
235.814453125 -44.8488578796386719 6.59410524368286133 291 1644823408.7932446 -0.954070448875427246 0.299561232328414917 0.00290483282878994942 0.00205749552696943283
238.7744140625 -48.9250564575195312 6.54326009750366211 292 1644823410.1929915 -0.871541023254394531 0.490219384431838989 0.00504048960283398628 0.00870407558977603912
240.2081298828125 -54.0325775146484375 6.42627382278442383 293 1644823411.59270048 -0.769452750682830811 0.638666272163391113 -0.0019999390933662653 0.00662182271480560303
240.484237670898438 -59.4012413024902344 6.32542943954467773 294 1644823412.7921207 -0.713525950908660889 0.700601458549499512 0.00597686367109417915 -0.001621783128939569
240.6905517578125 -64.761016845703125 6.25144863128662109 295 1644823413.79146743 -0.720535337924957275 0.693324685096740723 0.00960111431777477264 -0.00612725876271724701
241.09710693359375 -70.2250213623046875 6.2533421516418457 296 1644823414.79205847 -0.733284652233123779 0.679869174957275391 -0.000882882857695221901 -0.00841284077614545822
241.73614501953125 -75.2202911376953125 6.23990821838378906 297 1644823415.68967152 -0.760788083076477051 0.648905932903289795 0.000621296290773898363 -0.0110563496127724648
242.838333129882812 -80.1232147216796875 6.21867132186889648 298 1644823416.5914731 -0.784583032131195068 0.619982600212097168 0.001851644366979599 -0.0069032544270157814
244.5904541015625 -84.935211181640625 6.19578886032104492 299 1644823417.48733497 -0.826695442199707031 0.562548398971557617 0.00537577597424387932 -0.00922353938221931458
246.75433349609375 -89.6563873291015625 6.16851186752319336 300 1644823418.39250875 -0.846017956733703613 0.533089160919189453 0.00442163553088903427 -0.00706848874688148499
249.16583251953125 -94.1243820190429688 6.15099477767944336 301 1644823419.29129958 -0.861612617969512939 0.507360279560089111 0.0100945765152573586 -0.0103593096137046814
252.091629028320312 -98.725250244140625 6.12244510650634766 302 1644823420.28755665 -0.885194182395935059 0.46500098705291748 0.00909443758428096771 -0.0110751483589410782
255.553207397460938 -102.576408386230469 6.10352897644042969 303 1644823421.28971243 -0.917759358882904053 0.396241277456283569 0.00757835712283849716 -0.025557447224855423
259.42425537109375 -106.132156372070312 6.07873010635375977 304 1644823422.29274035 -0.934680581092834473 0.35418972373008728 0.0127853779122233391 -0.027539396658539772
263.429290771484375 -109.311088562011719 6.05899429321289062 305 1644823423.28751087 -0.944062232971191406 0.328803062438964844 0.0104528414085507393 -0.0229296479374170303
267.581787109375 -112.782943725585938 6.0208587646484375 306 1644823424.38775158 -0.93756479024887085 0.346502482891082764 0.0110387383028864861 -0.0280431397259235382
271.734039306640625 -115.971214294433594 5.98154735565185547 307 1644823425.48896718 -0.951751112937927246 0.306243687868118286 0.0075143757276237011 -0.018115948885679245
276.4031982421875 -118.439903259277344 5.96242952346801758 308 1644823426.68949723 -0.973749756813049316 0.227153733372688293 0.0104431118816137314 -0.0101768923923373222
280.96856689453125 -120.762504577636719 5.93311452865600586 309 1644823428.68786335 -0.970802485942840576 0.238789737224578857 0.0217349473387002945 -0.00704504083842039108
284.505767822265625 -122.636306762695312 5.92657709121704102 310 1644823430.78856754 -0.969734549522399902 0.24407196044921875 0.00646570185199379921 -0.00138674548361450434
288.88043212890625 -125.236900329589844 5.92614889144897461 311 1644823432.68893051 -0.962929904460906982 0.269552141427993774 -0.00502410531044006348 0.0090757366269826889
293.147979736328125 -128.018325805664062 5.78533506393432617 312 1644823433.78917336 -0.957863211631774902 0.28582298755645752 0.00782189518213272095 0.0272415522485971451
297.600799560546875 -131.089599609375 5.3702702522277832 313 1644823434.88893032 -0.95111924409866333 0.305254131555557251 0.0392981134355068207 0.0254515018314123154
301.999420166015625 -134.153244018554688 4.91863584518432617 314 1644823435.98981881 -0.956649839878082275 0.287461847066879272 0.0427901558578014374 0.0188621841371059418
306.3367919921875 -136.713226318359375 4.47642850875854492 315 1644823437.09026337 -0.96243131160736084 0.267290741205215454 0.043626789003610611 0.0194517802447080612
310.68560791015625 -139.560394287109375 4.03110361099243164 316 1644823438.29034519 -0.95682227611541748 0.287225574254989624 0.0377078168094158173 0.0238902829587459564
314.97039794921875 -142.658645629882812 3.55474686622619629 317 1644823439.69117165 -0.948821425437927246 0.311103850603103638 0.0423975251615047455 0.0339821726083755493
318.868865966796875 -145.779891967773438 3.09738469123840332 318 1644823441.19132066 -0.939358949661254883 0.338620126247406006 0.0415968745946884155 0.0347979143261909485
322.486602783203125 -149.518829345703125 2.55606865882873535 319 1644823442.89020777 -0.91111224889755249 0.408487796783447266 0.042202334851026535 0.0350879356265068054
325.447052001953125 -153.714523315429688 2.04616308212280273 320 1644823444.68673563 -0.87749481201171875 0.476546257734298706 0.0420760363340377808 0.0337063893675804138
327.768280029296875 -158.319244384765625 1.51443755626678467 321 1644823446.28706527 -0.844455122947692871 0.532082557678222656 0.0373869352042675018 0.0488456301391124725
328.836578369140625 -162.609527587890625 0.994147360324859619 322 1644823447.98865843 -0.735994219779968262 0.673940479755401611 0.0505020059645175934 0.0395765267312526703
328.1175537109375 -164.126800537109375 0.860860288143157959 323 1644823448.58794069 -0.586246132850646973 0.808553338050842285 0.0404468290507793427 0.0303480345755815506
326.933837890625 -165.167388916015625 0.781791925430297852 324 1644823449.08856535 -0.430162936449050903 0.902110636234283447 0.021878514438867569 0.0260305721312761307
324.584075927734375 -166.468826293945312 0.636276662349700928 325 1644823449.88590837 -0.264737904071807861 0.963831067085266113 0.0100524080917239189 0.0290244929492473602
319.8876953125 -168.740585327148438 0.395110875368118286 326 1644823451.88821077 -0.236973866820335388 0.970971107482910156 -0.00788240972906351089 0.0315647758543491364
315.379119873046875 -171.05523681640625 0.0866967290639877319 327 1644823453.58703876 -0.224171340465545654 0.974133431911468506 0.00969884265214204788 0.0267800334841012955
310.849517822265625 -173.262847900390625 -0.198521807789802551 328 1644823455.08734012 -0.212511956691741943 0.976730763912200928 0.00440976256504654884 0.028570082038640976
306.18707275390625 -175.22760009765625 -0.490488260984420776 329 1644823456.4868331 -0.194463998079299927 0.980465471744537354 0.00775369629263877869 0.0284795127809047699
301.35601806640625 -177.241806030273438 -0.764942049980163574 330 1644823457.88712406 -0.193794518709182739 0.980804085731506348 -0.00393495382741093636 0.0212504584342241287
296.521240234375 -179.378890991210938 -0.982662320137023926 331 1644823459.28842688 -0.196378201246261597 0.980205297470092773 0.0127317076548933983 0.02170560322701931
291.720184326171875 -181.005462646484375 -0.949751377105712891 332 1644823460.78839588 -0.158523857593536377 0.987206578254699707 -0.00680283736437559128 -0.0157180000096559525
286.655426025390625 -182.572967529296875 -1.08785176277160645 333 1644823462.58906078 -0.148961439728736877 0.988707542419433594 -9.45042993407696486e-05 0.0163651257753372192
281.877838134765625 -184.231658935546875 -1.36803674697875977 334 1644823464.08818984 -0.171218410134315491 0.985193192958831787 0.0018515047850087285 0.00867214705795049667
276.886993408203125 -185.906692504882812 -1.38052666187286377 335 1644823465.58895421 -0.137229874730110168 0.99049454927444458 0.00816277042031288147 0.00468176370486617088
271.784698486328125 -186.759674072265625 -1.84046852588653564 336 1644823466.9893117 -0.0658247843384742737 0.996270239353179932 -0.0039032595232129097 0.0556545667350292206
266.527008056640625 -187.45111083984375 -1.95230519771575928 337 1644823468.38880467 -0.0590654574334621429 0.998107254505157471 0.00383014651015400887 0.0166877862066030502
261.2532958984375 -188.005264282226562 -2.09525585174560547 338 1644823469.69118762 -0.0518989227712154388 0.998646914958953857 0.00101643381640315056 0.00312357349321246147
255.9375 -188.70867919921875 -2.27634954452514648 339 1644823470.78885889 -0.0619269944727420807 0.997896313667297363 -0.00602080253884196281 0.0182151943445205688
250.619232177734375 -189.4755859375 -2.42973756790161133 340 1644823471.88968801 -0.0690357610583305359 0.99750286340713501 0.00262097781524062157 0.0146719925105571747
245.368606567382812 -189.943557739257812 -2.61575531959533691 341 1644823472.99005818 -0.0436783432960510254 0.998861849308013916 -0.00115035974886268377 0.0191288739442825317
240.246505737304688 -190.50738525390625 -2.79146027565002441 342 1644823474.09093428 -0.066384240984916687 0.997549474239349365 -0.0033605948556214571 0.021837061271071434
235.020217895507812 -191.0777587890625 -2.94451427459716797 343 1644823475.28876638 -0.0445771068334579468 0.998762786388397217 -0.0104902703315019608 0.0193842016160488129
229.951370239257812 -191.967147827148438 -3.08481478691101074 344 1644823476.89215374 -0.115706950426101685 0.993140995502471924 -0.00771623291075229645 0.0149455126374959946
225.108596801757812 -193.575790405273438 -3.17706465721130371 345 1644823478.39123297 -0.146018177270889282 0.989269077777862549 -0.00491751451045274734 0.0011079603573307395
219.875991821289062 -195.1986083984375 -3.33363032341003418 346 1644823479.49122643 -0.154649436473846436 0.987903952598571777 0.00759680988267064095 0.00846000667661428452
214.750137329101562 -197.129989624023438 -3.47797679901123047 347 1644823480.39270496 -0.172436639666557312 0.984947144985198975 0.00381924002431333065 0.01140590850263834
209.751113891601562 -198.928085327148438 -3.62119793891906738 348 1644823481.19153404 -0.16522487998008728 0.986062109470367432 0.0130322137847542763 0.0145732471719384193
204.681640625 -200.49835205078125 -3.78580594062805176 349 1644823481.99230218 -0.142488300800323486 0.989590167999267578 0.0145351123064756393 0.0140398545190691948
199.855743408203125 -202.040771484375 -3.94254875183105469 350 1644823482.79417944 -0.155784651637077332 0.987539589405059814 0.0169144496321678162 0.0145134888589382172
194.682937622070312 -203.770355224609375 -4.12301397323608398 351 1644823483.6948781 -0.156936928629875183 0.987351298332214355 0.013307575136423111 0.0181964989751577377
189.719680786132812 -205.182769775390625 -4.28412055969238281 352 1644823484.59269857 -0.131034389138221741 0.991213560104370117 0.00858946703374385834 0.0158693324774503708
184.308807373046875 -206.257644653320312 -4.4512782096862793 353 1644823485.59353805 -0.0674010589718818665 0.997523486614227295 0.0146501623094081879 0.0137589909136295319
179.009735107421875 -206.664703369140625 -4.61724519729614258 354 1644823486.59156346 -0.0338304787874221802 0.999215841293334961 0.00967021379619836807 0.0181579403579235077
173.454086303710938 -207.0635986328125 -4.77505731582641602 355 1644823487.59536886 -0.0302214082330465317 0.999454736709594727 0.0104992762207984924 0.00816674157977104187
167.816741943359375 -207.33544921875 -4.90174531936645508 356 1644823488.49219537 -0.0266236066818237305 0.999644160270690918 0.000290738476905971766 0.00161256047431379557
162.301956176757812 -207.57354736328125 -5.01236963272094727 357 1644823489.29216003 -0.0130817098543047905 0.999859809875488281 0.00941842887550592422 0.00452410802245140076
156.725967407226562 -207.733901977539062 -5.18068265914916992 358 1644823490.09108424 -0.00988844409584999084 0.999185621738433838 0.0150508079677820206 0.0361072048544883728
151.462249755859375 -207.813751220703125 -5.23575639724731445 359 1644823490.88991809 -0.0174551308155059814 0.999839186668395996 -0.00183606287464499474 0.00368101848289370537
146.344940185546875 -208.039154052734375 -5.24752187728881836 360 1644823491.694453 -0.0211113393306732178 0.999771416187286377 -0.0027869699988514185 -0.0019156190101057291
140.969970703125 -208.214126586914062 -5.23070573806762695 361 1644823492.59015775 -0.00905856676399707794 0.999945223331451416 -0.00344034098088741302 -0.00395309692248702049
135.92193603515625 -208.46673583984375 -5.24257516860961914 362 1644823493.49517107 -0.0236718561500310898 0.99968421459197998 0.00302322441712021828 -0.00786871835589408875
130.699432373046875 -208.741348266601562 -5.23680830001831055 363 1644823494.39216614 -0.031389337033033371 0.999504029750823975 0.000162158888997510076 -0.00253008259460330009
125.67291259765625 -209.078689575195312 -5.25046730041503906 364 1644823495.18893814 -0.0355431810021400452 0.999367654323577881 -0.000963412516284734011 -7.74423751863650978e-05
120.286880493164062 -209.45111083984375 -5.2598109245300293 365 1644823495.98991156 -0.0208081342279911041 0.999767422676086426 0.00100284290965646505 -0.00557636003941297531
114.618194580078125 -209.614654541015625 -5.25435686111450195 366 1644823496.78948855 0.000293559656711295247 0.999969363212585449 0.00602669874206185341 -0.00498687475919723511
109.448524475097656 -209.77703857421875 -5.25504970550537109 367 1644823497.48757744 -0.0280037503689527512 0.999596118927001953 0.00196424941532313824 -0.00442548841238021851
104.121353149414062 -210.076370239257812 -5.25264263153076172 368 1644823498.18824172 -0.0276461560279130936 0.999579727649688721 -0.0029788364190608263 -0.00819318462163209915
98.6512908935546875 -210.462753295898438 -5.26743316650390625 369 1644823498.88798714 -0.0262803658843040466 0.999641478061676025 0.002823634073138237 -0.00427461974322795868
93.0346603393554688 -210.640838623046875 -5.27077436447143555 370 1644823499.5893898 -0.0161586254835128784 0.999869108200073242 -0.000668438093271106482 0.000443106662714853883
87.394683837890625 -210.812057495117188 -5.27672576904296875 371 1644823500.28617191 -0.0103443386033177376 0.999946236610412598 -0.000384393206331878901 0.00062795029953122139
81.7553176879882812 -211.017852783203125 -5.27511024475097656 372 1644823500.98602319 -0.0144782913848757744 0.999884128570556641 0.00387637200765311718 0.00265826634131371975
76.2259292602539062 -211.238800048828125 -5.27460908889770508 373 1644823501.68614244 -0.02477286197245121 0.999654173851013184 -0.00169541931245476007 0.00865812599658966064
70.9612808227539062 -211.4415283203125 -5.27255058288574219 374 1644823502.38680315 -0.0180408190935850143 0.999834537506103516 0.00020058409427292645 -0.00232899095863103867
65.9024429321289062 -211.602386474609375 -5.26274824142456055 375 1644823503.08629775 -0.020162288099527359 0.999783456325531006 -0.00356377637945115566 0.00371913611888885498
60.4013938903808594 -211.675643920898438 -5.26968526840209961 376 1644823503.88705492 0.00902579352259635925 0.999947905540466309 0.00437315739691257477 -0.00189537100959569216
55.2122421264648438 -211.13421630859375 -5.26861715316772461 377 1644823504.68634558 0.0781574919819831848 0.996916830539703369 0.0060450378805398941 -0.00341233564540743828
50.2957115173339844 -209.988479614257812 -5.25115251541137695 378 1644823505.48679876 0.129748299717903137 0.991516530513763428 0.00353111443109810352 -0.00691776629537343979
45.2251358032226562 -208.29052734375 -5.26425457000732422 379 1644823506.28843546 0.174681723117828369 0.984595179557800293 0.00495108636096119881 -0.00584095343947410583
40.0210914611816406 -206.086502075195312 -5.25889301300048828 380 1644823507.08914304 0.216174528002738953 0.976311385631561279 0.00901113636791706085 -0.00186153315007686615
35.4787445068359375 -203.669525146484375 -5.26450395584106445 381 1644823507.78786826 0.26273047924041748 0.964853823184967041 0.00487399892881512642 0.00245770462788641453
31.18359375 -200.69573974609375 -5.21339225769042969 382 1644823508.48781514 0.315916985273361206 0.948704898357391357 0.00938730780035257339 -0.00820362940430641174
27.0636615753173828 -197.211746215820312 -5.14370870590209961 383 1644823509.18694878 0.355695724487304688 0.934550881385803223 0.00553554017096757889 -0.00803406070917844772
23.0933036804199219 -193.547378540039062 -5.01255989074707031 384 1644823509.88787317 0.363465011119842529 0.931331753730773926 0.00779580231755971909 -0.0212988425046205521
19.0838699340820312 -189.8751220703125 -4.8702392578125 385 1644823510.58842707 0.365636914968490601 0.930591166019439697 0.0113331740722060204 -0.0134634422138333321
15.1937055587768555 -186.132736206054688 -4.69740915298461914 386 1644823511.28764725 0.382153511047363281 0.92374420166015625 0.00996775180101394653 -0.0235788505524396896
11.3752498626708984 -182.344940185546875 -4.46801185607910156 387 1644823511.98789001 0.376837283372879028 0.925719380378723145 0.00360294152051210403 -0.0320051088929176331
7.50691699981689453 -178.69024658203125 -4.24277067184448242 388 1644823512.6873951 0.36410367488861084 0.930906713008880615 0.00093476718757301569 -0.0289891473948955536
3.67441344261169434 -175.150543212890625 -3.99655318260192871 389 1644823513.387115 0.367863476276397705 0.929493129253387451 0.00751342298462986946 -0.0257393717765808105
-0.0831583291292190552 -171.714096069335938 -3.70244956016540527 390 1644823514.08813167 0.369439810514450073 0.928757190704345703 0.0097675565630197525 -0.0287900492548942566
-4.20174455642700195 -167.912002563476562 -3.39400887489318848 391 1644823514.88690782 0.36778607964515686 0.929643988609313965 0.00533626740798354149 -0.0216090679168701172
-8.07296371459960938 -164.262420654296875 -2.9962465763092041 392 1644823515.6875267 0.374777823686599731 0.926241874694824219 0.0210633277893066406 -0.0342623144388198853
-11.7889251708984375 -160.671951293945312 -2.5992124080657959 393 1644823516.48727703 0.379930853843688965 0.924080908298492432 0.0139415357261896133 -0.0391487367451190948
-15.447361946105957 -157.222457885742188 -2.20758914947509766 394 1644823517.28803277 0.376027226448059082 0.925552785396575928 0.0203884243965148926 -0.0392408333718776703
-19.4598121643066406 -153.383819580078125 -1.76037681102752686 395 1644823518.18682027 0.373360008001327515 0.926698625087738037 0.017100255936384201 -0.0392366163432598114
-23.3634510040283203 -149.66119384765625 -1.34009015560150146 396 1644823519.08784175 0.373999178409576416 0.926327526569366455 0.0185521915555000305 -0.0412032864987850189
-27.1244068145751953 -146.046478271484375 -0.88695216178894043 397 1644823519.9889555 0.370138615369796753 0.927551627159118652 0.0156063539907336235 -0.0490088053047657013
-30.9396076202392578 -142.544769287109375 -0.620562195777893066 398 1644823520.88841867 0.368761837482452393 0.92838132381439209 0.0257215145975351334 -0.0382261238992214203
-34.74859619140625 -139.07830810546875 -0.183677330613136292 399 1644823521.78742218 0.360197871923446655 0.931753218173980713 0.0169335491955280304 -0.0425055846571922302
-38.5612068176269531 -135.657608032226562 0.221162483096122742 400 1644823522.68756366 0.360902339220046997 0.931467711925506592 0.0229479521512985229 -0.0398843102157115936
-42.2382164001464844 -132.179244995117188 0.606984078884124756 401 1644823523.5893929 0.377244383096694946 0.925315618515014648 0.0231274440884590149 -0.0307044964283704758
-45.5810356140136719 -128.457778930664062 0.983719944953918457 402 1644823524.48841119 0.432257682085037231 0.900601625442504883 0.0275877490639686584 -0.0361787974834442139
-48.3827896118164062 -124.301689147949219 1.35540246963500977 403 1644823525.38831401 0.487142980098724365 0.872075319290161133 0.0273501127958297729 -0.0377924591302871704
-50.7922172546386719 -119.903778076171875 1.74750006198883057 404 1644823526.29056096 0.523597180843353271 0.850597739219665527 0.0310650430619716644 -0.0369381196796894073
-53.0942535400390625 -114.918464660644531 2.24927830696105957 405 1644823527.28946948 0.54612576961517334 0.836276412010192871 0.0322929471731185913 -0.0366824604570865631
-54.9529304504394531 -109.943489074707031 2.77355599403381348 406 1644823528.29099798 0.592028439044952393 0.80405813455581665 0.042041439563035965 -0.0350049398839473724
-55.9419517517089844 -104.886215209960938 3.30291104316711426 407 1644823529.29208112 0.651322066783905029 0.756927549839019775 0.0376845374703407288 -0.0376839525997638702
-56.4860343933105469 -99.892486572265625 3.81438803672790527 408 1644823530.2925539 0.673518717288970947 0.737227261066436768 0.0344102680683135986 -0.0410413257777690887
-56.8318862915039062 -94.9144287109375 4.26637887954711914 409 1644823531.28847504 0.690224230289459229 0.721518218517303467 0.0385634861886501312 -0.0389200784265995026
-56.8139228820800781 -89.648956298828125 4.71433544158935547 410 1644823532.39244604 0.720642209053039551 0.692136645317077637 0.0310222916305065155 -0.0256769862025976181
-56.3439521789550781 -84.2906570434570312 5.15604066848754883 411 1644823533.69007111 0.745538234710693359 0.664538800716400146 0.0393991321325302124 -0.031759314239025116
-55.9842262268066406 -79.305145263671875 5.56036949157714844 412 1644823534.88838983 0.723687469959259033 0.688888251781463623 0.0280609466135501862 -0.0303639061748981476
-55.7129898071289062 -74.1579055786132812 5.98794460296630859 413 1644823536.28829741 0.731784403324127197 0.680427372455596924 0.029222903773188591 -0.0256163086742162704
-55.3196296691894531 -68.9161376953125 6.43345403671264648 414 1644823537.88810873 0.735333681106567383 0.676435470581054688 0.0269165113568305969 -0.0315431281924247742
-54.7068328857421875 -63.8502464294433594 6.90363502502441406 415 1644823539.78953075 0.756577849388122559 0.651707828044891357 0.0368166081607341766 -0.0388764888048171997
-54.740264892578125 -59.6717529296875 7.02300214767456055 416 1644823541.79097772 0.694915652275085449 0.716723799705505371 0.043925892561674118 0.0383376032114028931
-53.5630149841308594 -57.7547950744628906 7.23002147674560547 417 1644823542.68903613 0.860305607318878174 0.507601499557495117 0.039382491260766983 -0.0257674474269151688
-52.5045509338378906 -57.1727409362792969 7.28766679763793945 418 1644823543.08824849 0.938269913196563721 0.343690067529678345 0.0207718368619680405 -0.0330943800508975983
-50.6693840026855469 -56.7320671081542969 7.35168552398681641 419 1644823543.68828702 0.986979424953460693 0.156571120023727417 0.0184977259486913681 -0.0318585522472858429
-47.0596237182617188 -56.6327629089355469 7.35644340515136719 420 1644823544.68912554 0.999599456787109375 -0.0145255988463759422 -0.0117393610998988152 -0.021261727437376976
-41.8719711303710938 -57.1664390563964844 7.21858501434326172 421 1644823546.18796754 0.998827576637268066 -0.0449230149388313293 -0.0134328883141279221 -0.0120376599952578545
-36.6831626892089844 -57.4198188781738281 7.13462018966674805 422 1644823548.08850074 0.999864876270294189 -0.0138936452567577362 -0.00773766776546835899 -0.0041665337048470974
-33.3082542419433594 -56.6451683044433594 6.95373725891113281 423 1644823549.18915844 0.982672274112701416 0.181382149457931519 -0.0287035517394542694 -0.0251352675259113312
-31.9201316833496094 -55.0807228088378906 6.87780189514160156 424 1644823549.78963494 0.925236284732818604 0.378185838460922241 -0.0233124867081642151 -0.0192301850765943527
-30.6339550018310547 -52.4980621337890625 6.83653688430786133 425 1644823550.49134636 0.8442230224609375 0.534717202186584473 -0.0231680087745189667 -0.0287791658192873001
-29.5676746368408203 -43.138397216796875 7.17881107330322266 426 1644823552.49281335 0.709473788738250732 0.704061210155487061 0.00786536373198032379 -0.0297134071588516235
-28.9502372741699219 -31.5095500946044922 7.79177141189575195 427 1644823554.58946967 0.733180046081542969 0.678917288780212402 0.0026844698004424572 -0.0388727076351642609
-27.3497085571289062 -20.2510528564453125 8.42211818695068359 428 1644823556.59277964 0.795672237873077393 0.605062782764434814 0.0156783424317836761 -0.0236410610377788544
-22.0852909088134766 -11.0914058685302734 8.58791446685791016 429 1644823558.68781185 0.871609032154083252 0.489526569843292236 -0.00408879993483424187 -0.0253910999745130539
-22.4580783843994141 -1.90474939346313477 8.61449718475341797 430 1644823560.6924758 0.479169219732284546 0.876908004283905029 -0.0328208766877651215 -0.0187617819756269455
-31.86993408203125 -1.45409476757049561 8.79956626892089844 431 1644823562.78922844 -0.312848150730133057 0.949082493782043457 -0.0336837358772754669 0.015293036587536335
-32.9648513793945312 -12.2845668792724609 8.62950325012207031 432 1644823564.88813329 -0.80939185619354248 0.586396872997283936 -0.00877448264509439468 0.0307659003883600235
-29.8551063537597656 -25.6725273132324219 8.14753627777099609 433 1644823566.98893857 -0.764539420604705811 0.643899738788604736 0.01728099025785923 0.02395671047270298
-28.7691097259521484 -38.6025047302246094 7.39176845550537109 434 1644823568.99000907 -0.692683875560760498 0.720101118087768555 0.0400465168058872223 0.0063024214468896389
-30.0186481475830078 -49.9212608337402344 6.86238288879394531 435 1644823570.89052415 -0.6386069655418396 0.768685877323150635 0.036099020391702652 0.000201592381927184761
-31.7875308990478516 -53.975494384765625 6.87479639053344727 436 1644823571.89061594 -0.483852952718734741 0.874439239501953125 0.0267801322042942047 -0.0229173935949802399
-34.2306289672851562 -55.9288864135742188 6.98859214782714844 437 1644823572.69216251 -0.308421701192855835 0.950756371021270752 0.0189997069537639618 -0.0240282565355300903
-37.2795066833496094 -56.8708038330078125 7.16814565658569336 438 1644823573.58846736 -0.139415666460990906 0.989194273948669434 -0.0179353766143321991 -0.0416688695549964905
-41.9915084838867188 -56.9403533935546875 7.1664128303527832 439 1644823574.8885324 0.0261091236025094986 0.999254286289215088 -0.0110334465280175209 0.0262190699577331543
-47.9862136840820312 -56.25299072265625 7.33565855026245117 440 1644823576.89271688 0.0525265298783779144 0.998507201671600342 0.0140643306076526642 -0.00515138963237404823
-52.8533706665039062 -57.2197952270507812 7.22837734222412109 441 1644823578.38727498 -0.152862891554832458 0.98770517110824585 0.0278218444436788559 0.0172452665865421295
-57.3218231201171875 -60.1717872619628906 7.02884674072265625 442 1644823580.0896287 -0.320853859186172485 0.945892453193664551 0.0483686849474906921 0.000855306279845535755
-60.6927261352539062 -64.0090179443359375 6.76059389114379883 443 1644823581.58708525 -0.44767308235168457 0.893178403377532959 0.0354869291186332703 0.0237035453319549561
-61.4764556884765625 -66.6060256958007812 6.56503486633300781 444 1644823582.38626432 -0.605504214763641357 0.794803917407989502 0.0296484772115945816 0.0277897771447896957
-61.2022018432617188 -71.5973358154296875 6.17315006256103516 445 1644823583.48749423 -0.736070394515991211 0.675907135009765625 0.0308685246855020523 0.0199254155158996582
-60.6854782104492188 -76.721527099609375 5.73925209045410156 446 1644823584.38664222 -0.740090727806091309 0.671272635459899902 0.030597195029258728 0.0268804412335157394
-60.2711715698242188 -88.1526031494140625 4.87278938293457031 447 1644823586.38693833 -0.692761838436126709 0.72002941370010376 0.0404298827052116394 0.00202941917814314365
-60.3337898254394531 -100.821334838867188 3.7627418041229248 448 1644823588.48938894 -0.7289542555809021 0.683809816837310791 0.0265205074101686478 0.0180699191987514496
-55.96246337890625 -117.090904235839844 2.15795731544494629 449 1644823590.58657932 -0.836385726928710938 0.545742213726043701 0.049329027533531189 0.013818877749145031
-46.1768684387207031 -133.157867431640625 0.752041101455688477 450 1644823592.6882093 -0.902442872524261475 0.429283648729324341 0.0336856581270694733 0.0133319832384586334
-32.2710113525390625 -146.473129272460938 -0.744369804859161377 451 1644823594.788234 -0.930996239185333252 0.363314539194107056 0.0327425375580787659 0.0132824080064892769
-18.0681743621826172 -159.816925048828125 -2.2819511890411377 452 1644823596.88782787 -0.925359070301055908 0.377463430166244507 0.0291812494397163391 0.0195034351199865341
-4.03495502471923828 -173.35150146484375 -3.70705032348632812 453 1644823598.98841119 -0.92540442943572998 0.377543777227401733 0.0323606096208095551 0.00633530318737030029
6.50031137466430664 -183.658645629882812 -4.50570249557495117 454 1644823600.58614492 -0.926495194435119629 0.375941663980484009 0.0147483767941594124 0.0075489431619644165
18.1151256561279297 -195.012664794921875 -5.00020647048950195 455 1644823602.39086795 -0.926097452640533447 0.377182602882385254 0.00591802410781383514 0.00646332930773496628
22.0707283020019531 -198.48419189453125 -5.13422203063964844 456 1644823602.98543763 -0.943607926368713379 0.330474317073822021 0.00619941670447587967 0.0187716800719499588
36.5568122863769531 -207.747100830078125 -5.32858800888061523 457 1644823604.98625064 -0.96829521656036377 0.249709531664848328 -0.00217219092883169651 -0.00669249007478356361
52.0626182556152344 -213.404541015625 -5.30884599685668945 458 1644823606.98801875 -0.991575777530670166 0.128955870866775513 -0.00171444530133157969 -0.0120373694226145744
68.237640380859375 -214.766632080078125 -5.32739162445068359 459 1644823608.98986411 -0.99991220235824585 -0.00929116271436214447 -0.000795628700871020555 -0.00941364839673042297
84.5176925659179688 -214.066329956054688 -5.27924060821533203 460 1644823610.9908514 -0.999577701091766357 -0.0253080558031797409 -0.00363403395749628544 -0.0138079132884740829
101.644371032714844 -213.52874755859375 -5.30888700485229492 461 1644823613.09054112 -0.999769985675811768 -0.0175289418548345566 0.00919805467128753662 -0.00825037527829408646
117.950096130371094 -212.551559448242188 -5.37485742568969727 462 1644823615.09168816 -0.999731957912445068 -0.0222288314253091812 0.00115079444367438555 -0.00636563636362552643
135.071212768554688 -212.146896362304688 -5.37529993057250977 463 1644823617.19037771 -0.99986112117767334 -0.00167865015100687742 -0.00279965158551931381 -0.0163422133773565292
151.302001953125 -211.683547973632812 -5.25612735748291016 464 1644823619.19077682 -0.999460279941558838 -0.0252800788730382919 -0.00730796158313751221 -0.0196633860468864441
167.329193115234375 -210.3724365234375 -5.03627252578735352 465 1644823621.19220042 -0.999386012554168701 -0.029697023332118988 -0.0132547682151198387 -0.0130377151072025299
183.923141479492188 -209.502914428710938 -4.60536575317382812 466 1644823623.28869748 -0.99958646297454834 -0.0226588677614927292 -0.0162465404719114304 -0.00703990738838911057
193.307449340820312 -208.753509521484375 -4.33122587203979492 467 1644823624.48757505 -0.997554421424865723 -0.0672980993986129761 -0.0180211775004863739 0.00559873366728425026
