# .PCD v0.7 - Point Cloud Data file format
VERSION 0.7
FIELDS x y z intensity t qx qy qz qw
SIZE 4 4 4 4 8 4 4 4 4
TYPE F F F F F F F F F
COUNT 1 1 1 1 1 1 1 1 1
WIDTH 275
HEIGHT 1
VIEWPOINT 0 0 0 1 0 0 0
POINTS 275
DATA ascii
115.826812744140625 16.7485847473144531 6.49864816665649414 251 1644823365.39421439 0.928209662437438965 0.369744986295700073 0.0405194014310836792 -0.00858220923691987991
119.535911560058594 20.2304649353027344 6.86030387878417969 252 1644823366.28881764 0.929490745067596436 0.367552310228347778 0.0297628585249185562 -0.00815010443329811096
123.293052673339844 23.7592334747314453 7.26846837997436523 253 1644823367.39204764 0.930069684982299805 0.364929467439651489 0.0416093245148658752 -0.00809287186712026596
127.883857727050781 27.784515380859375 7.71308040618896484 254 1644823368.6891613 0.939986169338226318 0.339083850383758545 0.0377455241978168488 -0.00484380405396223068
135.484237670898438 31.7742366790771484 8.37605667114257812 255 1644823370.79094791 0.986215293407440186 0.161677762866020203 0.0328945070505142212 -0.0125572383403778076
138.948165893554688 31.8549613952636719 8.51406192779541016 256 1644823371.6896894 0.998969316482543945 -0.0231044068932533264 0.0177249889820814133 -0.0348185673356056213
142.393051147460938 30.530487060546875 8.64859867095947266 257 1644823372.58871841 0.975460588932037354 -0.215207964181900024 0.0414186902344226837 -0.0211332235485315323
146.585372924804688 27.1689491271972656 8.64716815948486328 258 1644823373.69126344 0.924951791763305664 -0.379664421081542969 0.011716737411916256 -0.0134852342307567596
149.91131591796875 23.3842411041259766 8.60399150848388672 259 1644823374.58915353 0.910753130912780762 -0.412231981754302979 0.0104923993349075317 -0.0219872016459703445
153.970550537109375 19.5686149597167969 8.3885650634765625 260 1644823375.49063993 0.931333661079406738 -0.363204896450042725 -0.0111175486817955971 -0.0240048598498106003
158.044235229492188 15.9357585906982422 8.19686603546142578 261 1644823376.38787699 0.93302541971206665 -0.358946830034255981 -0.0120046148076653481 -0.0218313820660114288
161.93524169921875 12.3657264709472656 7.99279689788818359 262 1644823377.28815317 0.931525051593780518 -0.362807303667068481 -0.0105117764323949814 -0.0228340011090040207
165.801437377929688 8.75730133056640625 7.81580209732055664 263 1644823378.28678703 0.929452836513519287 -0.368260592222213745 -0.00845861248672008514 -0.0207359585911035538
169.44024658203125 5.28151845932006836 7.652587890625 264 1644823379.28964472 0.925414860248565674 -0.378535270690917969 -0.00818955898284912109 -0.0158524829894304276
173.155654907226562 1.34736740589141846 7.43603277206420898 265 1644823380.38695931 0.915748953819274902 -0.400629162788391113 -0.0140205984935164452 -0.0265241079032421112
176.748641967773438 -2.53617501258850098 7.24800920486450195 266 1644823381.48619819 0.919874250888824463 -0.391293197870254517 -0.000419319316279143095 -0.026847129687666893
180.638809204101562 -5.69156646728515625 7.10751533508300781 267 1644823382.58640289 0.952800989151000977 -0.302153289318084717 -0.00320845562964677811 -0.029382903128862381
184.253753662109375 -6.78409147262573242 7.04841899871826172 268 1644823383.58759308 0.991579592227935791 -0.12873375415802002 0.00236678612418472767 -0.0138525497168302536
189.237594604492188 -7.45410013198852539 7.07690906524658203 269 1644823384.98762441 0.996152818202972412 -0.0873636230826377869 0.0050505446270108223 -0.00465823989361524582
194.058456420898438 -9.70845985412597656 7.11315155029296875 270 1644823386.48827887 0.956096410751342773 -0.293024212121963501 0.00348993693478405476 -0.00206339708529412746
195.672882080078125 -12.7059412002563477 7.0519561767578125 271 1644823387.48701811 0.830682575702667236 -0.556463956832885742 -0.0131972674280405045 -0.0118396077305078506
195.60711669921875 -14.8436899185180664 6.97734451293945312 272 1644823388.08797264 0.700336933135986328 -0.713190615177154541 -0.0284713488072156906 -0.00875663571059703827
194.65789794921875 -16.7105464935302734 6.91822957992553711 273 1644823388.68731785 0.533897578716278076 -0.844946324825286865 -0.03096790611743927 -0.00775325857102870941
193.231094360351562 -17.705596923828125 6.87264585494995117 274 1644823389.18820214 0.337180614471435547 -0.940551638603210449 -0.0376377440989017487 -0.0159779731184244156
191.87139892578125 -17.8748645782470703 6.84777975082397461 275 1644823389.58855581 0.126688644289970398 -0.989999234676361084 -0.0566114895045757294 -0.0254289545118808746
190.66046142578125 -17.3909111022949219 6.84358978271484375 276 1644823389.98842216 -0.0792023167014122009 -0.995789408683776855 -0.0388916172087192535 -0.0248566661030054092
189.275161743164062 -16.2634792327880859 6.85358953475952148 277 1644823390.58801365 -0.26830562949180603 -0.963124454021453857 -0.0196502581238746643 -0.00415151193737983704
186.060897827148438 -12.8523321151733398 6.87536382675170898 278 1644823391.88880014 -0.448587030172348022 -0.893384337425231934 -0.0226098988205194473 -0.0110839447006583214
185.444351196289062 -10.570918083190918 6.92764663696289062 279 1644823392.58955717 -0.621107339859008789 -0.783294141292572021 -0.0234593115746974945 -0.0112091731280088425
185.934555053710938 -9.10159492492675781 6.97171211242675781 280 1644823393.08950019 -0.772708594799041748 -0.634557247161865234 -0.0152742639183998108 -0.00502509856596589088
186.938400268554688 -8.12293243408203125 7.01572227478027344 281 1644823393.59082627 -0.887537896633148193 -0.46058344841003418 -0.0106899561360478401 0.00501327076926827431
188.1197509765625 -7.69401693344116211 7.04698753356933594 282 1644823394.09044528 -0.961701333522796631 -0.273891478776931763 -0.00371410883963108063 0.0100112417712807655
193.805572509765625 -11.3876132965087891 7.07153701782226562 283 1644823396.1915319 -0.890785753726959229 0.454318463802337646 0.00975669641047716141 -0.000569872616324573755
196.610031127929688 -19.4372920989990234 6.82515907287597656 284 1644823398.29208875 -0.843483805656433105 0.536593914031982422 0.00896721240133047104 0.0228381697088479996
199.703155517578125 -23.471221923828125 6.68374538421630859 285 1644823399.49142838 -0.912238061428070068 0.409378796815872192 0.00729730585590004921 0.013322693295776844
203.763748168945312 -26.8931350708007812 6.62342596054077148 286 1644823400.69363785 -0.947172999382019043 0.319502592086791992 -0.00324187777005136013 0.0277654305100440979
207.933349609375 -30.0070400238037109 6.62157773971557617 287 1644823401.89083648 -0.945769906044006348 0.324452012777328491 -0.00873530097305774689 0.0131872706115245819
212.12811279296875 -33.048248291015625 6.61622905731201172 288 1644823402.99003935 -0.958451628684997559 0.284144222736358643 -0.00768741220235824585 0.0239454116672277451
216.858062744140625 -35.3871498107910156 6.622161865234375 289 1644823404.08992124 -0.978404819965362549 0.20585496723651886 -0.00560500426217913628 0.0177853796631097794
221.548202514648438 -37.4533653259277344 6.62854671478271484 290 1644823405.19113111 -0.976751446723937988 0.213764667510986328 -0.00540884397923946381 0.0152316996827721596
226.374298095703125 -39.861083984375 6.60862493515014648 291 1644823406.29050207 -0.972831547260284424 0.230746418237686157 -0.00224914844147861004 0.0187038443982601166
231.2156982421875 -42.274383544921875 6.61449861526489258 292 1644823407.49309063 -0.973325967788696289 0.228769943118095398 -0.00604172097519040108 0.0162596758455038071
235.820098876953125 -44.8525314331054688 6.58768129348754883 293 1644823408.7932446 -0.95400005578994751 0.299789130687713623 0.00276732118800282478 0.00164247327484190464
238.772857666015625 -48.9254951477050781 6.54506111145019531 294 1644823410.1929915 -0.871687948703765869 0.48995596170425415 0.00543539226055145264 0.00858808122575283051
240.211013793945312 -54.0318527221679688 6.42895984649658203 295 1644823411.59270048 -0.769376397132873535 0.638760983943939209 -0.00201628799550235271 0.00634548719972372055
240.48480224609375 -59.4011611938476562 6.32612943649291992 296 1644823412.7921207 -0.713476359844207764 0.700651407241821289 0.00605488568544387817 -0.00157965987455099821
240.691757202148438 -64.7626724243164062 6.25237464904785156 297 1644823413.79146743 -0.720583915710449219 0.693278312683105469 0.00931538548320531845 -0.00609982525929808617
241.094482421875 -70.2230682373046875 6.25402927398681641 298 1644823414.79205847 -0.733204305171966553 0.679956257343292236 -0.000900628569070249796 -0.00837126094847917557
241.736434936523438 -75.224151611328125 6.24018192291259766 299 1644823415.68967152 -0.760765671730041504 0.64892953634262085 0.000507714052218943834 -0.0112165771424770355
242.83929443359375 -80.1241989135742188 6.21826982498168945 300 1644823416.5914731 -0.784501254558563232 0.620085656642913818 0.00191506417468190193 -0.00692331278696656227
244.590133666992188 -84.9361343383789062 6.19507884979248047 301 1644823417.48733497 -0.82662588357925415 0.562651336193084717 0.00540448538959026337 -0.00915735214948654175
246.756591796875 -89.6631927490234375 6.16781759262084961 302 1644823418.39250875 -0.845961272716522217 0.533176124095916748 0.00463982950896024704 -0.00715566007420420647
249.165634155273438 -94.1225967407226562 6.15100479125976562 303 1644823419.29129958 -0.861469030380249023 0.507604300975799561 0.00997031573206186295 -0.010466892272233963
252.092681884765625 -98.7246551513671875 6.12157917022705078 304 1644823420.28755665 -0.885159730911254883 0.46506267786026001 0.00894609931856393814 -0.011353570967912674
255.560699462890625 -102.585235595703125 6.10500812530517578 305 1644823421.28971243 -0.917754650115966797 0.3962516188621521 0.00741506228223443031 -0.025614224374294281
259.433837890625 -106.138328552246094 6.07715654373168945 306 1644823422.29274035 -0.934671401977539062 0.354180991649627686 0.0128146577626466751 -0.0279454141855239868
263.423431396484375 -109.307411193847656 6.05807876586914062 307 1644823423.28751087 -0.944191038608551025 0.328423023223876953 0.010595882311463356 -0.0230078808963298798
267.585113525390625 -112.785194396972656 6.02227115631103516 308 1644823424.38775158 -0.937554717063903809 0.346545040607452393 0.0108905592933297157 -0.0279128886759281158
271.7333984375 -115.971206665039062 5.98231792449951172 309 1644823425.48896718 -0.951773285865783691 0.306165069341659546 0.00690578948706388474 -0.0185178164392709732
276.4007568359375 -118.436538696289062 5.96495151519775391 310 1644823426.68949723 -0.9737587571144104 0.227117061614990234 0.0105025367811322212 -0.0100703760981559753
280.96820068359375 -120.759178161621094 5.93401908874511719 311 1644823428.68786335 -0.97079998254776001 0.238809779286384583 0.0216497350484132767 -0.00697114784270524979
284.50128173828125 -122.6329345703125 5.92827844619750977 312 1644823430.78856754 -0.969673037528991699 0.244317620992660522 0.00644748890772461891 -0.00124952674377709627
288.875274658203125 -125.230758666992188 5.92633056640625 313 1644823432.68893051 -0.962917864322662354 0.269589662551879883 -0.00540244067087769508 0.00902289990335702896
293.155731201171875 -128.022796630859375 5.78285884857177734 314 1644823433.78917336 -0.957828521728515625 0.285958737134933472 0.00781326182186603546 0.0270376726984977722
297.597686767578125 -131.087677001953125 5.3683314323425293 315 1644823434.88893032 -0.951100945472717285 0.305304527282714844 0.0394182279706001282 0.025343945249915123
301.991668701171875 -134.14813232421875 4.92245244979858398 316 1644823435.98981881 -0.956647634506225586 0.287467092275619507 0.0427167527377605438 0.019059300422668457
306.34027099609375 -136.713485717773438 4.47559881210327148 317 1644823437.09026337 -0.962475240230560303 0.267113447189331055 0.0438684336841106415 0.0191676411777734756
310.68511962890625 -139.559539794921875 4.03023958206176758 318 1644823438.29034519 -0.956821024417877197 0.287246465682983398 0.0377497300505638123 0.0236202478408813477
314.96734619140625 -142.658493041992188 3.55313968658447266 319 1644823439.69117165 -0.948761224746704102 0.311287164688110352 0.0425445809960365295 0.0337995588779449463
318.868194580078125 -145.777603149414062 3.10161304473876953 320 1644823441.19132066 -0.939318358898162842 0.338708013296127319 0.0409839898347854614 0.0357517451047897339
322.4874267578125 -149.517532348632812 2.55886554718017578 321 1644823442.89020777 -0.911121070384979248 0.408458411693572998 0.0420453548431396484 0.0353878401219844818
325.44805908203125 -153.716018676757812 2.0437626838684082 322 1644823444.68673563 -0.877528250217437744 0.476488947868347168 0.0419927686452865601 0.0337495468556880951
327.770233154296875 -158.319869995117188 1.51275324821472168 323 1644823446.28706527 -0.844438374042510986 0.532110512256622314 0.037373032420873642 0.0488413535058498383
328.838043212890625 -162.61102294921875 0.995521962642669678 324 1644823447.98865843 -0.736032485961914062 0.673888206481933594 0.0506466925144195557 0.0395697392523288727
328.116455078125 -164.12811279296875 0.861214995384216309 325 1644823448.58794069 -0.586075842380523682 0.808680236339569092 0.0403866097331047058 0.030336553230881691
326.935150146484375 -165.168609619140625 0.781597375869750977 326 1644823449.08856535 -0.430117607116699219 0.902130663394927979 0.0219617597758769989 0.0260159485042095184
324.586334228515625 -166.470291137695312 0.636410236358642578 327 1644823449.88590837 -0.264587491750717163 0.963868796825408936 0.0100398743525147438 0.0291476994752883911
319.888427734375 -168.743499755859375 0.394165843725204468 328 1644823451.88821077 -0.236869528889656067 0.970999240875244141 -0.00778595777228474617 0.0315063297748565674
315.38226318359375 -171.059539794921875 0.0864936560392379761 329 1644823453.58703876 -0.224211573600769043 0.974119365215301514 0.00949570909142494202 0.0270261000841856003
310.84918212890625 -173.264907836914062 -0.19855007529258728 330 1644823455.08734012 -0.21235327422618866 0.97677314281463623 0.00446679489687085152 0.0282908398658037186
306.190338134765625 -175.22845458984375 -0.490521103143692017 331 1644823456.4868331 -0.194519534707069397 0.9804496169090271 0.00761128775775432587 0.0286835897713899612
301.35638427734375 -177.239212036132812 -0.765484273433685303 332 1644823457.88712406 -0.193837434053421021 0.980798304080963135 -0.00400957558304071426 0.0211103372275829315
296.524017333984375 -179.376358032226562 -0.983803093433380127 333 1644823459.28842688 -0.196256458759307861 0.980223894119262695 0.0127319479361176491 0.0219639260321855545
291.718597412109375 -181.007003784179688 -0.948419809341430664 334 1644823460.78839588 -0.158510103821754456 0.987206518650054932 -0.00684946542605757713 -0.015839647501707077
286.656280517578125 -182.578598022460938 -1.09036767482757568 335 1644823462.58906078 -0.149004429578781128 0.988699495792388916 -0.000141135533340275288 0.016462814062833786
281.877044677734375 -184.227691650390625 -1.37156021595001221 336 1644823464.08818984 -0.171390950679779053 0.985165238380432129 0.00224641384556889534 0.00833843369036912918
276.8843994140625 -185.90936279296875 -1.38111531734466553 337 1644823465.58895421 -0.137071892619132996 0.990516424179077148 0.00796124804764986038 0.00501003675162792206
271.78717041015625 -186.7587890625 -1.83867561817169189 338 1644823466.9893117 -0.0657288655638694763 0.996261417865753174 -0.00407861359417438507 0.0559132322669029236
266.52752685546875 -187.450714111328125 -1.95159733295440674 339 1644823468.38880467 -0.0591694861650466919 0.99810791015625 0.00394637463614344597 0.016246231272816658
261.256072998046875 -188.004714965820312 -2.09398937225341797 340 1644823469.69118762 -0.0516746565699577332 0.998658657073974609 0.00105337135028094053 0.00308343837969005108
255.9393310546875 -188.708251953125 -2.27623462677001953 341 1644823470.78885889 -0.0619552284479141235 0.997893750667572021 -0.00604159152135252953 0.0182498618960380554
250.624069213867188 -189.472030639648438 -2.42717814445495605 342 1644823471.88968801 -0.0690848305821418762 0.997498750686645508 0.00287947570905089378 0.0146717680618166924
245.365554809570312 -189.944564819335938 -2.61688804626464844 343 1644823472.99005818 -0.043672565370798111 0.998857200145721436 -0.0011939189862459898 0.0193808116018772125
240.247329711914062 -190.506591796875 -2.79112076759338379 344 1644823474.09093428 -0.066250041127204895 0.997560858726501465 -0.003401193767786026 0.0217190962284803391
235.022079467773438 -191.076797485351562 -2.94354748725891113 345 1644823475.28876638 -0.0446132123470306396 0.998762607574462891 -0.00991425849497318268 0.0196116231381893158
229.94873046875 -191.968597412109375 -3.08575558662414551 346 1644823476.89215374 -0.115594774484634399 0.993154466152191162 -0.00758359441533684731 0.0149843664839863777
225.114334106445312 -193.5745849609375 -3.17906022071838379 347 1644823478.39123297 -0.146037980914115906 0.989263236522674561 -0.00555416010320186615 0.000538342341315001249
219.867645263671875 -195.200942993164062 -3.33727526664733887 348 1644823479.49122643 -0.154910534620285034 0.987848818302154541 0.00846764445304870605 0.00926255062222480774
214.76495361328125 -197.12548828125 -3.47322678565979004 349 1644823480.39270496 -0.172077178955078125 0.985011518001556396 0.00495084933936595917 0.0108280591666698456
209.755142211914062 -198.93048095703125 -3.6206822395324707 350 1644823481.19153404 -0.165465623140335083 0.986033976078033447 0.0125377383083105087 0.0141768986359238625
204.677978515625 -200.498977661132812 -3.78496599197387695 351 1644823481.99230218 -0.142734929919242859 0.989558398723602295 0.014493708498775959 0.0138145433738827705
199.849822998046875 -202.035125732421875 -3.94300460815429688 352 1644823482.79417944 -0.155878141522407532 0.987524211406707764 0.017111336812376976 0.0143224401399493217
194.682052612304688 -203.765899658203125 -4.12550783157348633 353 1644823483.6948781 -0.156794935464859009 0.987370848655700684 0.0131890559569001198 0.0184446182101964951
189.723831176757812 -205.180282592773438 -4.28125619888305664 354 1644823484.59269857 -0.131051301956176758 0.991200149059295654 0.00869064312428236008 0.0165002644062042236
184.312347412109375 -206.255142211914062 -4.45568323135375977 355 1644823485.59353805 -0.0673645436763763428 0.997516334056854248 0.014796452596783638 0.0142897702753543854
179.010971069335938 -206.667083740234375 -4.61566495895385742 356 1644823486.59156346 -0.0338879264891147614 0.99921727180480957 0.00960936862975358963 0.0180021431297063828
173.455764770507812 -207.063796997070312 -4.77244710922241211 357 1644823487.59536886 -0.0302555877715349197 0.999454677104949951 0.0102838864549994469 0.00831471197307109833
167.811798095703125 -207.33709716796875 -4.90213918685913086 358 1644823488.49219537 -0.0267281699925661087 0.999641358852386475 0.000428797444328665733 0.00159858353435993195
162.298370361328125 -207.57464599609375 -5.01147603988647461 359 1644823489.29216003 -0.0131281036883592606 0.999860286712646484 0.00920948106795549393 0.00471105985343456268
156.727645874023438 -207.735031127929688 -5.18069171905517578 360 1644823490.09108424 -0.0100514022633433342 0.999182581901550293 0.014960411936044693 0.0361849255859851837
151.466110229492188 -207.814285278320312 -5.23593711853027344 361 1644823490.88991809 -0.0174124017357826233 0.999839842319488525 -0.00193087989464402199 0.0036554399412125349
146.342544555664062 -208.038009643554688 -5.24830436706542969 362 1644823491.694453 -0.0210943408310413361 0.999772369861602783 -0.0026792923454195261 -0.00174021010752767324
140.964462280273438 -208.212249755859375 -5.23088598251342773 363 1644823492.59015775 -0.00900056958198547363 0.999945998191833496 -0.00343975494615733624 -0.0038957325741648674
135.919952392578125 -208.468429565429688 -5.24316835403442383 364 1644823493.49517107 -0.0237386282533407211 0.999682247638702393 0.00307084806263446808 -0.00790517218410968781
130.69744873046875 -208.743682861328125 -5.23746633529663086 365 1644823494.39216614 -0.0314705558121204376 0.999501585960388184 7.34020522941136733e-06 -0.00247747148387134075
125.672897338867188 -209.079132080078125 -5.25189781188964844 366 1644823495.18893814 -0.035450417548418045 0.999370813369750977 -0.00113702460657805204 8.21802605059929192e-05
120.289314270019531 -209.45001220703125 -5.25934505462646484 367 1644823495.98991156 -0.020854659378528595 0.999766767024993896 0.00109000410884618759 -0.00550029519945383072
114.619850158691406 -209.615081787109375 -5.25509357452392578 368 1644823496.78948855 0.000118014482723083347 0.999967634677886963 0.00599954603239893913 -0.00536024384200572968
109.449676513671875 -209.776504516601562 -5.25460672378540039 369 1644823497.48757744 -0.0280451662838459015 0.99959486722946167 0.00188818795140832663 -0.00447114882990717888
104.125465393066406 -210.078567504882812 -5.25454187393188477 370 1644823498.18824172 -0.0276553761214017868 0.999578416347503662 -0.00315862311981618404 -0.00825485773384571075
98.6565170288085938 -210.464248657226562 -5.26864814758300781 371 1644823498.88798714 -0.0263237655162811279 0.999640941619873047 0.00257400400005280972 -0.00429761921986937523
93.0360946655273438 -210.640853881835938 -5.26992702484130859 372 1644823499.5893898 -0.0161913782358169556 0.999868333339691162 -0.000712175678927451372 0.00081710214726626873
87.4031524658203125 -210.810714721679688 -5.27564525604248047 373 1644823500.28617191 -0.0103545896708965302 0.999946117401123047 -0.000281035579973831773 0.000720217358320951462
81.7544631958007812 -211.018325805664062 -5.27467250823974609 374 1644823500.98602319 -0.0145162986591458321 0.999883890151977539 0.00385144189931452274 0.00257343309931457043
76.22210693359375 -211.237655639648438 -5.27413320541381836 375 1644823501.68614244 -0.024861479178071022 0.999654412269592285 -0.0014501053374260664 0.00841884315013885498
70.959808349609375 -211.441726684570312 -5.27158641815185547 376 1644823502.38680315 -0.017942158505320549 0.999836325645446777 8.92199386726133525e-05 -0.00231245509348809719
65.905914306640625 -211.602142333984375 -5.26286458969116211 377 1644823503.08629775 -0.0202085785567760468 0.999782443046569824 -0.003586239879950881 0.00372031889855861664
60.4028205871582031 -211.673294067382812 -5.26953268051147461 378 1644823503.88705492 0.00894997362047433853 0.999948203563690186 0.00445228628814220428 -0.001921985880471766
55.2137680053710938 -211.13262939453125 -5.26795196533203125 379 1644823504.68634558 0.0781219080090522766 0.996918797492980957 0.00622285204008221626 -0.00334043614566326141
50.2962379455566406 -209.987655639648438 -5.25092220306396484 380 1644823505.48679876 0.129780709743499756 0.991511821746826172 0.00371495820581912994 -0.0068859555758535862
45.2211647033691406 -208.290908813476562 -5.26454544067382812 381 1644823506.28843546 0.174681112170219421 0.984593749046325684 0.00502082472667098045 -0.00603385502472519875
40.018402099609375 -206.087203979492188 -5.26032876968383789 382 1644823507.08914304 0.21611417829990387 0.976326286792755127 0.00884580332785844803 -0.00183124083559960127
35.4759597778320312 -203.66900634765625 -5.26468563079833984 383 1644823507.78786826 0.262787967920303345 0.964838325977325439 0.00491886213421821594 0.00231043156236410141
31.1867122650146484 -200.698196411132812 -5.21421957015991211 384 1644823508.48781514 0.315923184156417847 0.948703169822692871 0.00919625535607337952 -0.00838450435549020767
27.0667285919189453 -197.213623046875 -5.14383983612060547 385 1644823509.18694878 0.355650663375854492 0.934569597244262695 0.00535193877294659615 -0.00797887891530990601
23.0908946990966797 -193.546035766601562 -5.01367092132568359 386 1644823509.88787317 0.363443464040756226 0.931339919567108154 0.00773619348183274269 -0.0213291887193918228
19.0824165344238281 -189.876953125 -4.87216520309448242 387 1644823510.58842707 0.365568548440933228 0.9306182861328125 0.0111509663984179497 -0.0135981105268001556
15.1959123611450195 -186.13372802734375 -4.69865989685058594 388 1644823511.28764725 0.382148593664169312 0.923747658729553223 0.00967051181942224503 -0.023646913468837738
11.3768129348754883 -182.34686279296875 -4.46763086318969727 389 1644823511.98789001 0.376783788204193115 0.925741791725158691 0.00384354917332530022 -0.0319576635956764221
7.50504064559936523 -178.688217163085938 -4.24420547485351562 390 1644823512.6873951 0.364319771528244019 0.930818796157836914 0.00103328039404004812 -0.029092324897646904
3.67580366134643555 -175.152053833007812 -3.99647831916809082 391 1644823513.387115 0.367815673351287842 0.929511904716491699 0.00727471476420760155 -0.0258122216910123825
-0.0827738717198371887 -171.715835571289062 -3.70330643653869629 392 1644823514.08813167 0.369309961795806885 0.928809940814971924 0.00989542994648218155 -0.0287104286253452301
-4.20248699188232422 -167.913925170898438 -3.39476251602172852 393 1644823514.88690782 0.367729336023330688 0.92966151237487793 0.00528357783332467079 -0.0218339059501886368
-8.0749359130859375 -164.260330200195312 -2.99675154685974121 394 1644823515.6875267 0.374582976102828979 0.926324069499969482 0.0209735874086618423 -0.0342258661985397339
-11.7902965545654297 -160.6732177734375 -2.59927749633789062 395 1644823516.48727703 0.379915058612823486 0.924089550971984863 0.0138716837391257286 -0.0391227751970291138
-15.4432258605957031 -157.225875854492188 -2.20756936073303223 396 1644823517.28803277 0.375982493162155151 0.925564467906951904 0.020481351763010025 -0.0393462143838405609
-19.4606437683105469 -153.381820678710938 -1.76097631454467773 397 1644823518.18682027 0.373396843671798706 0.926677346229553223 0.0171216428279876709 -0.0393791161477565765
-23.3640289306640625 -149.658157348632812 -1.33946263790130615 398 1644823519.08784175 0.374027043581008911 0.926316201686859131 0.0186075493693351746 -0.0411801747977733612
-27.1246852874755859 -146.046798706054688 -0.887406349182128906 399 1644823519.9889555 0.369848251342773438 0.92767333984375 0.0155276218429207802 -0.0489218942821025848
-30.9353160858154297 -142.545822143554688 -0.621084451675415039 400 1644823520.88841867 0.368726551532745361 0.928382575511932373 0.0258970391005277634 -0.0384162962436676025
-34.7484397888183594 -139.077667236328125 -0.184539854526519775 401 1644823521.78742218 0.360308468341827393 0.931711554527282715 0.0169356297701597214 -0.0424803011119365692
-38.5603713989257812 -135.658828735351562 0.220465511083602905 402 1644823522.68756366 0.360945910215377808 0.931444823741912842 0.0230917446315288544 -0.0399417318403720856
-42.240325927734375 -132.17913818359375 0.608356475830078125 403 1644823523.5893929 0.377259820699691772 0.925309658050537109 0.0230736937373876572 -0.030735773965716362
-45.5768051147460938 -128.459213256835938 0.983840048313140869 404 1644823524.48841119 0.432173669338226318 0.900636196136474609 0.0277264900505542755 -0.0362157188355922699
-48.3803825378417969 -124.304862976074219 1.35639452934265137 405 1644823525.38831401 0.486981093883514404 0.872160673141479492 0.0274324696511030197 -0.0378505028784275055
-50.7946510314941406 -119.905113220214844 1.74826192855834961 406 1644823526.29056096 0.523497343063354492 0.850663423538208008 0.030981237068772316 -0.0369112007319927216
-53.0963058471679688 -114.920753479003906 2.25092911720275879 407 1644823527.28946948 0.546097040176391602 0.836289703845977783 0.0322734266519546509 -0.0368233621120452881
-54.9530105590820312 -109.941505432128906 2.773040771484375 408 1644823528.29099798 0.592042982578277588 0.804047882556915283 0.0420675650238990784 -0.0349623113870620728
-55.9423141479492188 -104.884490966796875 3.3029475212097168 409 1644823529.29208112 0.651304304599761963 0.75693976879119873 0.0377080701291561127 -0.0377217903733253479
-56.4869842529296875 -99.8873977661132812 3.81326031684875488 410 1644823530.2925539 0.673649370670318604 0.737115859985351562 0.0344282239675521851 -0.0408825241029262543
-56.8337440490722656 -94.9137039184570312 4.26700639724731445 411 1644823531.28847504 0.690246164798736572 0.721501350402832031 0.0385137386620044708 -0.038893572986125946
-56.8159408569335938 -89.65484619140625 4.71391201019287109 412 1644823532.39244604 0.720567703247070312 0.692209303379058838 0.0311508588492870331 -0.0256528239697217941
-56.3471946716308594 -84.2948074340820312 5.15682411193847656 413 1644823533.69007111 0.745537400245666504 0.664543330669403076 0.0392789244651794434 -0.0318318568170070648
-55.9790496826171875 -79.3073272705078125 5.56099748611450195 414 1644823534.88838983 0.723805725574493408 0.688771665096282959 0.0277952775359153748 -0.0304342564195394516
-55.7173500061035156 -74.1594390869140625 5.98817205429077148 415 1644823536.28829741 0.731753110885620117 0.680472314357757568 0.0289633739739656448 -0.0256116073578596115
-55.3224983215332031 -68.9123687744140625 6.43310022354125977 416 1644823537.88810873 0.735383510589599609 0.676384210586547852 0.026842903345823288 -0.0315435118973255157
-54.7062034606933594 -63.8486328125 6.90031337738037109 417 1644823539.78953075 0.756357789039611816 0.651984751224517822 0.0366970598697662354 -0.0386273637413978577
-54.738433837890625 -59.6669654846191406 7.02485370635986328 418 1644823541.79097772 0.694969773292541504 0.71667104959487915 0.0434722080826759338 0.0388559587299823761
-53.5615425109863281 -57.7530288696289062 7.23172664642333984 419 1644823542.68903613 0.860298573970794678 0.507622361183166504 0.0393731668591499329 -0.0256058983504772186
-52.5035133361816406 -57.17694091796875 7.28243350982666016 420 1644823543.08824849 0.938388943672180176 0.343368619680404663 0.0206264331936836243 -0.0331471413373947144
-50.6684837341308594 -56.7295341491699219 7.35210418701171875 421 1644823543.68828702 0.986989378929138184 0.156510815024375916 0.0184016507118940353 -0.0319019518792629242
-47.0575523376464844 -56.6299896240234375 7.35262012481689453 422 1644823544.68912554 0.999598205089569092 -0.0145380161702632904 -0.0118008097633719444 -0.0212804730981588364
-41.870361328125 -57.17156982421875 7.22160816192626953 423 1644823546.18796754 0.998823106288909912 -0.0450876392424106598 -0.013494027778506279 -0.0117212887853384018
-36.6839790344238281 -57.4158782958984375 7.1375579833984375 424 1644823548.08850074 0.999860167503356934 -0.0139556052163243294 -0.00801545754075050354 -0.00454352842643857002
-33.3007240295410156 -56.6448097229003906 6.94893074035644531 425 1644823549.18915844 0.982708215713500977 0.181257337331771851 -0.0281707532703876495 -0.0252349581569433212
-31.9195137023925781 -55.0793075561523438 6.88363838195800781 426 1644823549.78963494 0.925230503082275391 0.378186255693435669 -0.0233330167829990387 -0.0194742269814014435
-30.6387786865234375 -52.4921455383300781 6.8307037353515625 427 1644823550.49134636 0.844127476215362549 0.534909069538116455 -0.0225826110690832138 -0.0284789074212312698
-29.5719985961914062 -43.13995361328125 7.17767429351806641 428 1644823552.49281335 0.709440648555755615 0.704094231128692627 0.00775201898068189621 -0.0297519862651824951
-28.9513187408447266 -31.5158195495605469 7.79565238952636719 429 1644823554.58946967 0.733215749263763428 0.678871691226959229 0.0026311932597309351 -0.0389989949762821198
-27.3493862152099609 -20.2509117126464844 8.42181777954101562 430 1644823556.59277964 0.795469582080841064 0.605324208736419678 0.0156210437417030334 -0.023806912824511528
-22.0829715728759766 -11.0954208374023438 8.58713531494140625 431 1644823558.68781185 0.871512115001678467 0.489723503589630127 -0.00448385998606681824 -0.0248476359993219376
-22.4564914703369141 -1.90357649326324463 8.61457157135009766 432 1644823560.6924758 0.479200899600982666 0.876882851123809814 -0.0330704748630523682 -0.0186905134469270706
-31.8724555969238281 -1.45641577243804932 8.79953765869140625 433 1644823562.78922844 -0.312903434038162231 0.949068069458007812 -0.0335681699216365814 0.0153100639581680298
-32.9646492004394531 -12.2872638702392578 8.63034725189208984 434 1644823564.88813329 -0.809492647647857666 0.586236834526062012 -0.00852721743285655975 0.0312305670231580734
-29.8570499420166016 -25.6703567504882812 8.146453857421875 435 1644823566.98893857 -0.764483988285064697 0.643950164318084717 0.01792927086353302 0.0238941013813018799
-28.7705783843994141 -38.60589599609375 7.38820981979370117 436 1644823568.99000907 -0.692681193351745605 0.720124781131744385 0.0396512784063816071 0.00639494042843580246
-30.0091495513916016 -49.92626953125 6.86290502548217773 437 1644823570.89052415 -0.638501524925231934 0.768793582916259766 0.0356676429510116577 0.000234561841352842748
-31.7904071807861328 -53.9731025695800781 6.87439632415771484 438 1644823571.89061594 -0.483884811401367188 0.874430537223815918 0.0262221880257129669 -0.023218989372253418
-34.2261619567871094 -55.9346847534179688 6.98465919494628906 439 1644823572.69216251 -0.308325320482254028 0.950793743133544922 0.0189127363264560699 -0.0238555129617452621
-37.2810134887695312 -56.8590278625488281 7.17279148101806641 440 1644823573.58846736 -0.139633849263191223 0.989155590534210205 -0.0176289528608322144 -0.0419853813946247101
-41.9832954406738281 -56.94085693359375 7.16990327835083008 441 1644823574.8885324 0.0264948643743991852 0.999245524406433105 -0.0112162502482533455 0.0260887276381254196
-47.9897193908691406 -56.2511062622070312 7.33040285110473633 442 1644823576.89271688 0.0525050535798072815 0.998511672019958496 0.0134171824902296066 -0.00613032840192317963
-52.8477668762207031 -57.2177734375 7.22922945022583008 443 1644823578.38727498 -0.152971222996711731 0.98768770694732666 0.0279509127140045166 0.0170738287270069122
-57.3232498168945312 -60.1669120788574219 7.02556800842285156 444 1644823580.0896287 -0.321115255355834961 0.945798516273498535 0.0484695583581924438 0.000926393200643360615
-60.6961593627929688 -64.010986328125 6.75724506378173828 445 1644823581.58708525 -0.447648525238037109 0.893223285675048828 0.0351621545851230621 0.0229472275823354721
-61.4736824035644531 -66.604705810546875 6.56347370147705078 446 1644823582.38626432 -0.605495810508728027 0.794828593730926514 0.0295781102031469345 0.0273402202874422073
-61.204376220703125 -71.601409912109375 6.17257118225097656 447 1644823583.48749423 -0.735975503921508789 0.676024317741394043 0.0306553766131401062 0.0197852160781621933
-60.6834068298339844 -76.7258071899414062 5.73882913589477539 448 1644823584.38664222 -0.74010622501373291 0.671219110488891602 0.0307604856789112091 0.027594665065407753
-60.2677955627441406 -88.1455001831054688 4.87410497665405273 449 1644823586.38693833 -0.692747533321380615 0.720055103302001953 0.0402256697416305542 0.00185817352030426264
-60.3347511291503906 -100.821746826171875 3.76288485527038574 450 1644823588.48938894 -0.72893977165222168 0.683828592300415039 0.0265271924436092377 0.0179341640323400497
-55.961761474609375 -117.093658447265625 2.15573859214782715 451 1644823590.58657932 -0.836409568786621094 0.545699715614318848 0.0493721626698970795 0.013902612030506134
-46.1758270263671875 -133.159088134765625 0.751665115356445312 452 1644823592.6882093 -0.902427375316619873 0.429322659969329834 0.033621717244386673 0.0132844820618629456
-32.2698211669921875 -146.473953247070312 -0.74599301815032959 453 1644823594.788234 -0.930946052074432373 0.363450437784194946 0.0326175615191459656 0.0133894737809896469
-18.0703620910644531 -159.816390991210938 -2.28044247627258301 454 1644823596.88782787 -0.925362229347229004 0.377465665340423584 0.0291324090212583542 0.0193837322294712067
-4.03668212890625 -173.351715087890625 -3.70652294158935547 455 1644823598.98841119 -0.925391197204589844 0.377575427293777466 0.0324096716940402985 0.00612884946167469025
6.50236749649047852 -183.658294677734375 -4.50543689727783203 456 1644823600.58614492 -0.926515400409698486 0.375886589288711548 0.0147447362542152405 0.00781482551246881485
18.1158065795898438 -195.013961791992188 -5.00064182281494141 457 1644823602.39086795 -0.926066100597381592 0.377258658409118652 0.00597999570891261101 0.00646121986210346222
22.0708236694335938 -198.4842529296875 -5.1340632438659668 458 1644823602.98543763 -0.943588078022003174 0.330532580614089966 0.00603818194940686226 0.0187965314835309982
36.5561447143554688 -207.746047973632812 -5.32761669158935547 459 1644823604.98625064 -0.968327105045318604 0.249592050909996033 -0.00200547440908849239 -0.00651052361354231834
52.0649604797363281 -213.407241821289062 -5.30803823471069336 460 1644823606.98801875 -0.991592526435852051 0.128808766603469849 -0.00166569987777620554 -0.012239762581884861
68.237884521484375 -214.767578125 -5.32850456237792969 461 1644823608.98986411 -0.999911785125732422 -0.00922407303005456924 -0.000967753003351390362 -0.00951038673520088196
84.516998291015625 -214.065567016601562 -5.27904796600341797 462 1644823610.9908514 -0.999576330184936523 -0.025392632931470871 -0.00377784529700875282 -0.0137139009311795235
101.643966674804688 -213.529861450195312 -5.31068515777587891 463 1644823613.09054112 -0.999767184257507324 -0.0177065525203943253 0.00897252466529607773 -0.00845554657280445099
117.946456909179688 -212.552032470703125 -5.37408018112182617 464 1644823615.09168816 -0.999731838703155518 -0.022185884416103363 0.00118226092308759689 -0.00653040176257491112
135.073532104492188 -212.147048950195312 -5.37529087066650391 465 1644823617.19037771 -0.999861836433410645 -0.00155477900989353657 -0.00291687413118779659 -0.0162920933216810226
151.299636840820312 -211.6845703125 -5.25542879104614258 466 1644823619.19077682 -0.999464094638824463 -0.0251384135335683823 -0.00747147621586918831 -0.0195909496396780014
167.330368041992188 -210.374313354492188 -5.03515434265136719 467 1644823621.19220042 -0.999381840229034424 -0.0296200476586818695 -0.0134718455374240875 -0.013306768611073494
183.920654296875 -209.503509521484375 -4.60698127746582031 468 1644823623.28869748 -0.999584317207336426 -0.0227119140326976776 -0.0162624828517436981 -0.00713359611108899117
193.306976318359375 -208.75128173828125 -4.32933807373046875 469 1644823624.48757505 -0.997547924518585205 -0.0673940330743789673 -0.0180764887481927872 0.00542464153841137886
198.70721435546875 -207.674575805664062 -4.16360664367675781 470 1644823625.18603063 -0.993505716323852539 -0.11263585090637207 -0.0159343164414167404 0.00237994897179305553
203.983230590820312 -206.227294921875 -4.01282644271850586 471 1644823625.89126444 -0.99025118350982666 -0.13763737678527832 -0.0200643371790647507 -0.0074782324954867363
209.262557983398438 -204.747406005859375 -3.84978127479553223 472 1644823626.58945942 -0.991455316543579102 -0.128852710127830505 -0.0178684517741203308 -0.00969762727618217468
214.579452514648438 -203.280426025390625 -3.69785022735595703 473 1644823627.29134512 -0.99209749698638916 -0.123846091330051422 -0.0152871524915099144 -0.0130763445049524307
219.82904052734375 -201.847824096679688 -3.5433502197265625 474 1644823627.9862237 -0.991970062255859375 -0.123758047819137573 -0.0209560040384531021 -0.0154974078759551048
225.18621826171875 -200.417984008789062 -3.43554115295410156 475 1644823628.69349861 -0.992710232734680176 -0.11822192370891571 -0.0133593352511525154 -0.0192752350121736526
230.505294799804688 -199.174545288085938 -3.20253133773803711 476 1644823629.39267874 -0.99334418773651123 -0.111538052558898926 -0.0265687033534049988 -0.0109874419867992401
235.812957763671875 -198.062591552734375 -3.01053929328918457 477 1644823630.08692956 -0.995208859443664551 -0.0950122550129890442 -0.0201328806579113007 -0.0112533299252390862
241.247711181640625 -197.05743408203125 -2.85633730888366699 478 1644823630.79194021 -0.996163845062255859 -0.0853424593806266785 -0.015180942602455616 -0.0119926529005169868
246.5087890625 -196.16864013671875 -2.67809176445007324 479 1644823631.48857355 -0.995568215847015381 -0.0849158987402915955 -0.037969488650560379 -0.013838023878633976
251.8116455078125 -195.23663330078125 -2.50874996185302734 480 1644823632.1901226 -0.995618760585784912 -0.0886189043521881104 -0.0292646568268537521 -0.00579702295362949371
256.87176513671875 -194.330718994140625 -2.34577488899230957 481 1644823632.88692379 -0.995979607105255127 -0.0864916816353797913 -0.0204152092337608337 -0.0112690702080726624
262.18646240234375 -193.376419067382812 -2.15684127807617188 482 1644823633.68946171 -0.995689988136291504 -0.0904775187373161316 -0.0165276899933815002 -0.0119189117103815079
267.625030517578125 -192.488006591796875 -1.9704517126083374 483 1644823634.5927093 -0.996925413608551025 -0.075836963951587677 -0.0163970533758401871 -0.010934067890048027
274.690673828125 -190.881546020507812 -1.76569700241088867 484 1644823635.89043975 -0.990841984748840332 -0.133549794554710388 -0.0167407672852277756 -0.0107861626893281937
286.701324462890625 -186.625442504882812 -1.35102295875549316 485 1644823637.98700261 -0.983302712440490723 -0.180767431855201721 -0.0208650194108486176 0.00189859478268772364
298.784271240234375 -182.0123291015625 -0.93506920337677002 486 1644823639.98741865 -0.981704533100128174 -0.188059300184249878 -0.0250583644956350327 -0.0161850247532129288
309.1900634765625 -177.319091796875 -0.393196731805801392 487 1644823642.08604264 -0.977661490440368652 -0.206663131713867188 -0.0363190248608589172 -0.0122200483456254005
318.733184814453125 -172.703170776367188 0.203976333141326904 488 1644823644.08649015 -0.965505123138427734 -0.258648484945297241 -0.0297243651002645493 -0.00416088616475462914
322.348541259765625 -169.3245849609375 0.463362842798233032 489 1644823645.1843493 -0.899794638156890869 -0.435328453779220581 -0.0293025989085435867 0.000373274728190153837
323.51275634765625 -166.024703979492188 0.593394100666046143 490 1644823645.98759103 -0.792892336845397949 -0.608781099319458008 -0.0259468052536249161 0.00583849195390939713
323.49774169921875 -163.557968139648438 0.899683713912963867 491 1644823646.58759189 -0.68102031946182251 -0.728135883808135986 -0.0369237922132015228 0.0683087706565856934
321.81298828125 -158.513839721679688 1.58429694175720215 492 1644823647.88544297 -0.568363010883331299 -0.819704651832580566 -0.0453333482146263123 0.0547055080533027649
319.35345458984375 -153.885986328125 2.2142796516418457 493 1644823649.18517709 -0.48582872748374939 -0.872186005115509033 -0.0344665087759494781 0.0455424785614013672
315.887237548828125 -149.787261962890625 2.78508615493774414 494 1644823650.48488688 -0.411167055368423462 -0.909513711929321289 -0.041631210595369339 0.0446466431021690369
310.317535400390625 -144.554336547851562 3.63676643371582031 495 1644823652.28586698 -0.342987656593322754 -0.937439978122711182 -0.0359463021159172058 0.0476829558610916138
305.907470703125 -141.699111938476562 4.10761404037475586 496 1644823653.48491263 -0.260025203227996826 -0.964313030242919922 -0.0281692855060100555 0.0411555543541908264
301.3675537109375 -139.398117065429688 4.53865766525268555 497 1644823654.58758807 -0.23632676899433136 -0.970545291900634766 -0.0299215689301490784 0.0360032320022583008
296.7176513671875 -136.887222290039062 4.97992086410522461 498 1644823655.68779373 -0.256518810987472534 -0.965299844741821289 -0.03245500847697258 0.0366189703345298767
292.31011962890625 -134.5015869140625 5.34950160980224609 499 1644823656.6888628 -0.235317975282669067 -0.971067965030670166 -0.0257975123822689056 0.0314164496958255768
287.589202880859375 -132.113754272460938 5.60951948165893555 500 1644823657.68905711 -0.245909363031387329 -0.968857645988464355 -0.0269105192273855209 0.0109220603480935097
282.9949951171875 -129.080886840820312 5.81572771072387695 501 1644823658.68948269 -0.305118024349212646 -0.952065110206604004 -0.015670066699385643 0.0151502750813961029
278.812103271484375 -126.137138366699219 5.97630691528320312 502 1644823659.58912253 -0.299483209848403931 -0.953971147537231445 -0.0132946334779262543 0.00849344301968812943
274.47857666015625 -123.138046264648438 6.05960226058959961 503 1644823660.48792052 -0.291335552930831909 -0.956581413745880127 0.00325471744872629642 0.00806113611906766891
267.521087646484375 -118.680801391601562 6.13135385513305664 504 1644823661.79015326 -0.277187317609786987 -0.960713326930999756 -0.000241969362832605839 0.0140364319086074829
262.949737548828125 -115.795974731445312 6.20159626007080078 505 1644823662.58791327 -0.286889076232910156 -0.957912325859069824 -0.000540085136890411377 0.00991482287645339966
258.448394775390625 -112.37615966796875 6.22534370422363281 506 1644823663.39085436 -0.337117701768875122 -0.941403210163116455 0.00410069199278950691 0.00973629020154476166
254.683502197265625 -108.926322937011719 6.23121929168701172 507 1644823664.08859205 -0.376683205366134644 -0.926321089267730713 0.00621653581038117409 0.000550590280909091234
251.17486572265625 -105.023567199707031 6.23227119445800781 508 1644823664.78636479 -0.422143399715423584 -0.906495869159698486 0.00768646271899342537 0.00103557901456952095
247.04205322265625 -99.3931884765625 6.22517871856689453 509 1644823665.68735552 -0.47295650839805603 -0.881026804447174072 0.00914107169955968857 -0.00450968509539961815
244.167144775390625 -94.6351394653320312 6.22961282730102539 510 1644823666.38656926 -0.508484005928039551 -0.860964357852935791 -0.0127520589157938957 -0.00466317404061555862
238.235992431640625 -79.0557861328125 6.31448650360107422 511 1644823668.48720622 -0.599309146404266357 -0.800471782684326172 0.00764737324789166451 0.00387563090771436691
236.773727416992188 -73.3283309936523438 6.33280515670776367 512 1644823669.28549361 -0.621867895126342773 -0.783084511756896973 0.00343096558935940266 0.00686708465218544006
235.904434204101562 -67.734100341796875 6.33352947235107422 513 1644823670.0865221 -0.668326973915100098 -0.743855535984039307 0.00395030388608574867 -0.00155420380178838968
235.627944946289062 -62.4143867492675781 6.35005092620849609 514 1644823670.88440347 -0.698193192481994629 -0.715885698795318604 -0.00043798814294859767 0.00581176998093724251
235.54095458984375 -57.3651809692382812 6.38854837417602539 515 1644823671.6850915 -0.695220112800598145 -0.718642652034759521 0.007014464121311903 0.0131327975541353226
234.352462768554688 -52.2323036193847656 6.42418384552001953 516 1644823672.58681798 -0.592973232269287109 -0.805188357830047607 0.000150260006194002926 0.00737920869141817093
231.611190795898438 -47.7269401550292969 6.45576238632202148 517 1644823673.58630395 -0.426884651184082031 -0.90424954891204834 -0.00362876197323203087 -0.0094386078417301178
228.715179443359375 -45.7619667053222656 6.47784805297851562 518 1644823674.28804564 -0.262904345989227295 -0.964795470237731934 0.00232182350009679794 0.00675396108999848366
222.034896850585938 -42.6328392028808594 6.46189260482788086 519 1644823675.58719754 -0.210420072078704834 -0.977482914924621582 -0.0142864594236016273 -0.00681223953142762184
210.78240966796875 -36.8837089538574219 6.43619680404663086 520 1644823677.68588471 -0.281167984008789062 -0.959563136100769043 -0.0110302697867155075 -0.00784305762499570847
202.184310913085938 -30.8280582427978516 6.47430944442749023 521 1644823679.68746328 -0.303263545036315918 -0.952902436256408691 0.000759494141675531864 -0.00275024794973433018
197.143325805664062 -25.7855625152587891 6.61903953552246094 522 1644823681.28791118 -0.471900016069412231 -0.880859613418579102 -0.0373551174998283386 0.00112718541640788317
195.346786499023438 -20.3335037231445312 6.78817939758300781 523 1644823682.48775721 -0.629381358623504639 -0.776829242706298828 -0.0201820041984319687 0.00284984917379915714
194.873641967773438 -14.0227890014648438 6.99097824096679688 524 1644823683.98763371 -0.664700150489807129 -0.74692380428314209 -0.00467111729085445404 0.0160215608775615692
193.206527709960938 -10.1263589859008789 7.08486604690551758 525 1644823685.0882709 -0.50603783130645752 -0.862432241439819336 -0.00102432479616254568 0.0116321509703993797
